VERSION .7
FIELDS x y z velocity SNR
SIZE 4 4 4 4 4
TYPE F F F F F
COUNT 1 1 1 1 1
WIDTH 216
HEIGHT 1
VIEWPOINT 0 0 0 1 0 0 0
POINTS 216
DATA ascii
-0.598884209708478 3.02975109340697 -0.559956516778663 0 5.17570825237657
-7.23138756137241 6.94255169810221 -0.623255949110165 2.16600590208418 7.37282342954224
-6.83081469198945 7.31341228885656 -0.856976930026476 2.16600590208418 7.37282342954224
-7.46074572527992 7.16274884516364 -0.562391110329875 2.16600590208418 7.99987446908586
-7.05643463650049 7.5549723002463 -0.642732697519858 2.16600590208418 7.99987446908586
-7.98546684797398 10.0914718483563 -0 0 7.51865078472543
-7.58254122283925 10.389953524836 -0.3992733423987 0 7.51865078472543
-8.08139261907867 10.0068555990685 0.3992733423987 0.154714707291727 10.554667101266
-7.58413931295411 10.392143302845 -0.299455006799025 0.154714707291727 10.554667101266
-7.58413931295411 10.392143302845 0.299455006799025 0.309429414583454 5.21115624695342
-8.17801928482857 10.334806087023 0.30675878745266 0 7.15314030634283
-7.77028744365275 10.6472121999145 -0.204505858301772 0 7.15314030634283
-8.17407994098305 10.3298278210963 0.511264645754432 0.154714707291727 7.33185385178559
-7.66804681939416 10.7210798226007 0.204505858301772 0.154714707291727 7.33185385178559
-8.26807485433412 10.6628553695547 0.314062568106295 0 5.02116811452743
6.51550220490895 11.878692772041 2.67805290633274 0.154714707291727 6.69923478096434
6.44717740486601 12.0041843395695 2.2495644413195 0.309429414583454 7.28976503531478
6.99285850984793 11.7339030093432 2.03532020881288 0.618858829166909 5.38512819328923
7.68955525075341 11.4214842989158 1.0712211625331 0.773573536458636 6.97120739134433
6.55610467466095 12.206999144268 2.73891774511303 0 5.41793202880742
6.57574862259908 12.2435747737874 2.51980432550398 0.154714707291727 9.40358857449253
6.59370416406751 12.2770067109233 2.30069090589494 0.309429414583454 10.4299669943124
6.40494012286298 12.1810303891157 -3.17714458433111 0.464144121875182 8.61080184672429
6.95040383222253 12.1539343916745 1.86246406667686 0.464144121875182 8.61080184672429
6.81851389654481 12.1738164190657 2.19113419609042 0.618858829166909 8.02741063006172
8.29594682052696 11.3674953259945 -1.20512380784973 1.08300295104209 8.75892885631184
7.87207779637239 10.7866901141062 4.60138181178989 1.23771765833382 8.54745972790795
6.97003642757914 12.4443456728227 2.23982606711465 -0.154714707291727 5.11617289799414
6.65639332768649 12.3937294608833 3.24774779731625 0 5.12288855960832
7.08917887499735 12.3966055811193 2.12783476375892 0.464144121875182 16.6240188403055
7.062314464335 12.3496287014239 2.46380867382612 0.618858829166909 13.5537299367273
6.82519074247438 12.7080182039893 -3.0894992164875 0.309429414583454 5.03203593744642
6.65070119012868 12.6484232095637 -3.66162870102222 0.464144121875182 11.3449771190714
7.23459957700416 12.6508978084555 2.28851793813889 0.464144121875182 11.3449771190714
7.31836504263759 12.5354355976716 2.63179562885972 0.618858829166909 8.45236891792512
7.16010968140103 12.7837036228556 3.50581471374468 -0.154714707291727 5.15756964874864
1.15957037315328 14.9043735366706 1.86976784733049 0.309429414583454 23.8648105541388
-1.83708359092875 14.688091710539 2.80465177099574 0.464144121875182 24.7562726106952
1.15584438179305 14.8564820345133 2.22034931870496 0.464144121875182 24.7562726106952
2.26863647274441 14.4468162130346 3.62267520420283 0.464144121875182 24.7562726106952
7.41376408770403 12.9641966844528 1.98662833778865 0.464144121875182 24.7562726106952
7.61625877751236 13.3182922498332 1.07365575608431 0.309429414583454 80.4318181100232
7.60173986853487 13.2929035283415 1.43154100811241 0.464144121875182 65.7082607100746
7.57585977126812 13.2476478839469 1.90872134414988 0.618858829166909 5.65657653559211
7.66065988167204 13.6773890122355 0.730378065363474 0.154714707291727 5.97711136589955
7.77169263011465 13.5900941324829 1.09556709804521 0.309429414583454 48.3474578056621
7.76228942271529 13.5736510640567 1.33902645316637 0.464144121875182 61.0479965836205
7.83492882753999 13.4202441607874 2.19113419609042 0.618858829166909 6.24420126303324
8.61128982832477 13.0515450343381 1.33902645316637 0.618858829166909 6.24420126303324
7.92712648271694 13.8618960151326 1.11747844000612 0.309429414583454 5.1408843037113
7.91201496520976 13.8354710192943 1.48997125334149 0.464144121875182 6.99437567121443
-11.6710903714632 10.9549297691103 0.12416427111179 1.85657648750073 5.14395112124001
-11.6658224076673 10.9499850577274 0.496657084447163 2.01129119479245 8.28061633822684
-11.9002932783222 11.1700683437936 -0 1.85657648750073 5.64927691114144
-11.8970709119768 11.1670437080586 0.379796593989008 2.01129119479245 8.52310735404585
-12.2767646644867 10.74821896107 0.379796593989008 2.32072060937591 6.97290343288026
-11.5191103331343 11.5599911313998 -0.253197729326004 2.32072060937591 6.97290343288026
-12.2741777689349 10.7459541526633 0.506395458652009 2.47543531666763 7.14032413174493
-11.3938978196702 11.6861670101884 -0 2.47543531666763 7.14032413174493
-12.5147392693668 10.9565640120935 0.258066916428427 2.32072060937591 8.57491217150061
-11.7416914604854 11.7833621890407 -0.129033458214213 2.32072060937591 8.57491217150061
-12.5128562926499 10.9549154795521 0.387100374642642 2.47543531666763 11.3491372976061
-11.6126618839965 11.910542674426 0.129033458214213 2.47543531666763 11.3491372976061
-15.5465913450365 11.0759289484048 -1.48510206623906 3.09429414583454 6.07763202306716
-15.5818398874989 11.1010412282084 -0.742551033119532 3.24900885312627 6.04160844218934
-12.5739048580154 15.890017367083 -2.37372871243129 1.23771765833382 10.2899105926893
-7.75208078041041 18.86558197774 -0.474745742486259 1.23771765833382 10.2899105926893
-12.5739048580154 15.890017367083 -2.37372871243129 1.39243236562554 41.6872149011177
-7.84333765789001 18.6406829927326 -2.6902258740888 1.39243236562554 41.6872149011177
-12.5739048580154 15.890017367083 -2.37372871243129 1.54714707291727 22.0192885808682
-7.70832469450976 18.7590964999738 -2.21548013160254 1.54714707291727 22.0192885808682
0.635714409986176 20.4795289160822 -3.05298031321932 1.23771765833382 49.3209225782855
0.636437295529403 20.5028166615745 -2.89229713883936 1.39243236562554 214.104166530797
0.636437295529403 20.5028166615745 -2.89229713883936 1.54714707291727 113.90300145982
0.646080284855606 20.8134653988711 -2.93611982276116 1.23771765833382 88.1769733364382
0.646773689942931 20.8358034319774 -2.77300205482999 1.39243236562554 470.847969047263
0.646773689942931 20.8358034319774 -2.77300205482999 1.54714707291727 204.041550928195
0.656427028598795 21.1467855727531 -2.81439014520059 1.23771765833382 23.6308559408692
0.657089878120195 21.1681392588224 -2.6488377837182 1.39243236562554 135.286488460907
0.657711946419267 21.1881791785072 -2.48328542223581 1.54714707291727 66.6177238403866
0.658141340005221 21.2020120855828 4.36766083087358 1.39243236562554 12.3155221528269
0.825252394362526 21.2626288753852 4.03168692080638 1.54714707291727 7.61680375898017
-11.2261460126144 18.8372906866677 1.36337238867849 -0.928288243750363 5.75209112269415
0.674242556045944 21.7207124867538 -3.2380094231114 1.39243236562554 6.53212125834388
-10.6222583043734 23.0282401512627 -4.39200676638569 -2.63015002395936 6.47185857845
7.63804107452302 24.0660137460322 4.99091677998374 -2.63015002395936 6.47185857845
7.63804107452302 24.0660137460322 4.99091677998374 -2.47543531666763 6.67522754218846
8.09281583042989 22.8743687392305 8.58437686157203 -2.47543531666763 6.67522754218846
7.55325938467942 24.4873665546661 2.39564005439219 -2.32072060937591 5.05138492745251
8.38373118920428 24.330548114053 0.399273342398698 -2.32072060937591 5.05138492745251
6.44619602101785 24.3445421004209 6.66835173676852 -2.63015002395936 7.38404398022547
7.56608010207629 24.5289308106253 4.44556782451235 -2.63015002395936 7.38404398022547
6.74000997883176 24.6521572294877 5.05178161876403 -2.47543531666763 10.1683982552639
8.26470938133755 24.6386730663154 1.81864138275505 -2.32072060937591 11.2032902189915
9.07102249171194 24.353360806706 1.81864138275505 -2.32072060937591 11.2032902189915
8.86944421411834 24.4274966167102 1.81864138275505 -2.16600590208418 8.04014475667039
6.76232581021208 24.7337792724256 6.13517574905319 -2.47543531666763 10.8091416023468
8.12467698517917 24.8939510212995 3.06758787452659 -2.47543531666763 10.8091416023468
8.31152458269944 24.7782380997205 3.47659959113014 -2.32072060937591 11.9579035389753
7.67618820596261 24.1862080969973 -7.15770504056205 -2.16600590208418 6.20541288634435
8.77680506440764 24.8076664046538 1.63604686641418 -2.16600590208418 6.20541288634435
7.41751402988415 25.5067101170002 2.48328542223581 -2.32072060937591 6.23162440699655
7.42268926047149 25.5245062554164 2.27634497038283 -2.16600590208418 7.10409540945685
9.39212505701419 24.5902608802249 4.34574948891267 -2.16600590208418 7.10409540945685
7.80522771467831 25.304237860498 5.2343761351049 -2.32072060937591 8.14877174821115
8.84574885319601 25.0025362348919 5.0250010897007 -2.32072060937591 8.14877174821115
6.69011803061921 26.1097489468305 1.46562531782937 -2.16600590208418 5.7051117704168
8.69772897299267 25.2418056453067 3.97812586267972 -2.16600590208418 5.7051117704168
-25.2445320610924 9.91399805087408 3.17714458433111 -2.47543531666763 6.86461247471362
-11.8609829557298 24.5955326034371 0.211809638955407 -2.32072060937591 16.7921776599291
8.88636546273956 25.78925034341 1.27085783373244 -2.32072060937591 16.7921776599291
8.63283961862365 25.7361394312911 2.96533494537571 -2.16600590208418 10.608383029977
9.50818020215589 25.5270167491978 1.90628675059867 -2.16600590208418 10.608383029977
8.65803143290323 25.8112410286181 2.11809638955408 -2.01129119479245 5.50594135464639
-11.9973160931519 24.878239874741 0.214244232506618 -2.32072060937591 31.5474742895652
-11.9141084521535 25.2582091015516 0.650036478173494 -2.47543531666763 15.2829850555416
-11.908369437831 25.2460422470716 1.08339413028915 -2.32072060937591 22.4632415908199
-12.1281724822307 25.1495902843965 0.866715304231324 -2.16600590208418 6.53436304364082
-11.8289207512699 25.6441916572811 0.657340258827128 -2.47543531666763 16.8588053164545
-10.071634212997 26.3693372143543 1.09556709804521 -2.47543531666763 16.8588053164545
-12.049787859048 25.5458528513023 0.438226839218083 -2.32072060937591 15.7457785565435
-12.0479748392564 25.5420092038162 0.657340258827128 -2.16600590208418 5.97757027377795
-8.19110927419343 27.3402647112704 1.10774006580127 -3.403723560418 5.21240816266807
-6.64564057680827 27.7749988463156 0.443096026320506 -3.403723560418 5.21240816266807
-11.9603532040618 25.9291271201397 0.664644039480763 -2.47543531666763 7.83495931822674
-12.1836743908152 25.8296956607612 0.443096026320506 -2.32072060937591 8.54050117190803
-21.4336216684726 20.1184133275082 2.51736973195277 1.701861780209 5.8275056759253
-21.4024225617526 20.0891286581159 2.97507331958055 1.85657648750073 5.0356230179119
-12.0814714230993 33.2737988072431 2.20087257029527 -3.09429414583454 10.9632488769554
-12.0814714230993 33.2737988072431 2.20087257029527 -2.93957943854282 5.41788496458915
-9.96719579812204 34.2743367761519 2.49789298354308 -3.09429414583454 11.3307505884844
6.51333166076382 34.3763859261296 7.49367895062924 -3.09429414583454 11.3307505884844
-12.7635515266789 33.4172575315989 -0.832630994514363 -2.93957943854282 5.05473683371363
-10.2245340451148 34.1274249903547 3.33052397805744 -2.93957943854282 5.05473683371363
-7.93071046844141 34.353103195702 6.10596062643864 -2.93957943854282 5.05473683371363
7.50097085133531 41.3707184095383 5.25872207061701 -3.09429414583454 8.36763597985102
9.52110585293524 41.2421476240534 1.97202077648138 -3.09429414583454 8.36763597985102
7.54891082888613 41.635125691092 5.62878029040117 -3.09429414583454 7.551062757461
9.2608866125102 41.6226164551297 1.98662833778865 -3.09429414583454 7.551062757461
-23.8702931612893 42.6181674223864 6.49793018818371 -3.09429414583454 5.3243305435595
-20.5352804977975 44.518910887539 4.96900543802283 -3.09429414583454 5.3243305435595
-12.5390361828116 47.3546093317465 5.35123662556306 -3.09429414583454 5.3243305435595
8.35935745520776 48.268080511786 5.35123662556306 -3.09429414583454 5.3243305435595
8.41260177020908 48.5755205150457 5.38532093528002 -3.24900885312627 6.18189121395783
10.3809758846702 48.4687796308029 1.53866312436572 -3.24900885312627 6.18189121395783
8.41260177020908 48.5755205150457 5.38532093528002 -3.09429414583454 12.2095440625221
10.3809758846702 48.4687796308029 1.53866312436572 -3.09429414583454 12.2095440625221
8.39722211891837 48.4867162916684 6.15465249746287 -2.93957943854282 9.84461195317393
10.3809758846702 48.4687796308029 1.53866312436572 -2.93957943854282 9.84461195317393
8.45836907564189 48.8397872359361 5.80650561963962 -3.09429414583454 8.79710320418964
10.4488799969551 48.7858239521583 1.16130112392793 -3.09429414583454 8.79710320418964
10.4488799969551 48.7858239521583 1.16130112392793 -2.93957943854282 7.85185262531963
8.38712370699319 53.4097182191285 5.05421621231524 -3.403723560418 16.9881956205433
8.3807584952087 53.3691841600527 5.47540089667484 -3.24900885312627 17.4548804222573
8.3807584952087 53.3691841600527 5.47540089667484 -3.09429414583454 6.27090792179759
8.42920218593245 53.6776765540415 5.50705061284059 -3.403723560418 17.9781853966033
10.5876142526798 53.5626676052164 1.27085783373245 -3.403723560418 17.9781853966033
8.42228255475478 53.6336119182628 5.93066989075141 -3.24900885312627 29.3883940472381
8.41484402036415 53.5862428749952 6.35428916866223 -3.09429414583454 15.9538631946914
9.71947309553713 53.6066053973492 3.81257350119734 -3.09429414583454 15.9538631946914
8.29594682052697 55.67638821367 4.82049523139893 -3.403723560418 13.2554497809346
10.5161784951691 55.5028101203132 0.876453678436166 -3.403723560418 13.2554497809346
8.33621919894497 55.9466672575931 5.28793719323155 -3.403723560418 6.66516689910405
11.0112320389434 55.7057470691806 1.76264573107719 -3.403723560418 6.66516689910405
-31.318392570622 50.4457689052001 5.5508732967624 -3.403723560418 5.11968524923702
-26.6705614233901 52.9449888210933 6.47601884622281 -3.403723560418 5.11968524923702
-24.4249937278643 52.9515104172118 12.4894649177154 -3.403723560418 5.11968524923702
-16.9989521445862 56.7390613273154 6.93859162095301 -3.403723560418 5.11968524923702
-12.289103983218 57.3778303157612 10.6391738187946 -3.403723560418 5.11968524923702
-9.87802130840795 57.0370546260511 14.3397560166362 -3.403723560418 5.11968524923702
8.3132855580494 58.9593185217015 6.97511052422118 -3.55843826770973 10.7705321059875
11.1386695501785 58.7882243840258 3.7200589462513 -3.55843826770973 10.7705321059875
8.3054227977104 58.9035544091794 7.44011789250259 -3.403723560418 29.6752742064272
-26.7349214074171 53.0727528595302 7.905125260784 -3.24900885312627 9.04203079886118
8.3054227977104 58.9035544091794 7.44011789250259 -3.24900885312627 9.04203079886118
10.2150712080894 58.9832271376927 3.25505157796988 -3.24900885312627 9.04203079886118
11.1548039042025 58.8733790804988 1.86002947312565 -3.24900885312627 9.04203079886118
8.34890668670364 59.2119499820024 7.47907138932197 -3.55843826770973 16.0686158513123
11.202058097781 59.1227796146167 3.27209373282836 -3.55843826770973 16.0686158513123
8.35681061332714 59.2680060532287 7.01162942748935 -3.403723560418 100.041966003113
11.2064510269031 59.1459648345184 2.80465177099574 -3.403723560418 100.041966003113
8.35681061332714 59.2680060532287 7.01162942748935 -3.24900885312627 39.0249180292102
11.2064510269031 59.1459648345184 2.80465177099574 -3.24900885312627 39.0249180292102
11.2604021503736 59.4307107584428 3.28913588768684 -3.403723560418 20.4256999958085
11.2604021503736 59.4307107584428 3.28913588768684 -3.24900885312627 7.98066041734901
-6.93506629075827 6.216392922217 1.3877183241906 -0.10382171147208 5.67205440391348
-6.02359769699225 7.45877290980514 -1.6603928019263 -0.31146513441624 5.28145925554402
7.90987517700489 9.02026887882881 3.7005821978416 -0.934395403248721 5.05557642095077
7.99055107239194 10.7303302052523 -1.77968788593566 -1.14203882619288 7.79180688649383
8.1301771425593 10.6994502947225 -1.25625027242518 -1.0382171147208 6.07695334586022
7.38942456807724 11.662770106043 -0.321366348759929 -1.45350396060912 5.08133842386896
-6.09221286187509 13.8211028662647 -4.26053871462027 -2.38789936385784 7.70013972082772
-12.7310786687406 15.764370308863 -2.37372871243129 0.5191085573604 8.35404560607928
-12.0138602588761 16.4619546501928 -0.949491484972516 0.5191085573604 8.35404560607928
-7.629784831686 18.5679606923638 -3.63971735906131 0.5191085573604 8.35404560607928
-12.7062070057818 15.7335727531114 -2.6902258740888 0.62293026883248 16.1931050034699
-7.66030573562442 18.6422368295191 -3.16497161657506 0.62293026883248 16.1931050034699
-12.7423326582712 15.7783056605351 -2.21548013160254 0.726751980304561 6.19353230606325
-7.90647613339134 18.7907395576544 -0.791242904143764 0.726751980304561 6.19353230606325
0.635714409986176 20.4795289160822 -3.05298031321932 0.5191085573604 43.1819717934048
0.635714409986176 20.4795289160822 -3.05298031321932 0.62293026883248 90.8968016342799
0.635714409986176 20.4795289160822 -3.05298031321932 0.726751980304561 30.3530686116517
0.484009834875839 20.7942064550267 -3.09923759069234 0.5191085573604 101.618050071325
0.484560213641705 20.8178520276189 -2.93611982276116 0.62293026883248 211.484749199216
0.485080267457199 20.8401947686706 -2.77300205482999 0.726751980304561 78.6046953290698
0.327861637090903 21.1317457347249 -2.97994250668297 0.5191085573604 74.3236520780751
0.491792455636358 21.1285662369864 -2.97994250668297 0.62293026883248 255.928184641586
0.492320271449097 21.1512424517851 -2.81439014520059 0.726751980304561 53.8023907109698
0.332683131754005 21.4425067014121 -3.02376519060478 0.5191085573604 12.2392832965874
0.996915779296501 21.3975186599748 -3.19175214563838 0.5191085573604 12.2392832965874
0.333040183627328 21.4655198525332 -2.85577823557118 0.62293026883248 39.8062347239008
0.998049395262017 21.4218502728143 -3.02376519060478 0.62293026883248 39.8062347239008
0.999120550881988 21.4448412544419 -2.85577823557118 0.726751980304561 9.45529212511258
0.679632408526186 21.8943464928242 -1.70421548584811 0.62293026883248 10.5332458494771
-10.2364468062547 32.2530956754819 5.04204324455918 -2.80318620974616 5.66453234046214
-10.5691432866656 32.3837779391481 -5.62391110329875 -2.80318620974616 8.47597373688807
