VERSION .7
FIELDS x y z velocity SNR
SIZE 4 4 4 4 4
TYPE F F F F F
COUNT 1 1 1 1 1
WIDTH 203
HEIGHT 1
VIEWPOINT 0 0 0 1 0 0 0
POINTS 203
DATA ascii
4.97543472543204 8.52229168778849 1.86976784733049 2.93957943854282 5.17602703877565
4.96783159318571 8.50926848191406 1.94767484096926 3.09429414583454 10.4512778407219
5.84510091212384 7.84925373755668 2.25930281552435 4.79615592604354 10.3774154875495
5.19359361786729 8.71476574224638 2.08888126693954 3.09429414583454 7.97203465785836
5.69974835844428 8.46597550324699 1.76751491817961 3.09429414583454 7.97203465785836
6.09556421666958 8.18559524113083 1.76751491817961 3.55843826770973 7.2447367416189
6.65851500213154 7.91403031094555 0.562391110329875 3.55843826770973 7.2447367416189
5.87664225291643 8.05245076755762 2.81195555164938 4.33201180416836 6.92700642615824
6.23390401928228 7.71918656595633 2.97263872602934 4.33201180416836 6.92700642615824
5.98020594720933 8.0306832316836 2.65127237726941 4.64144121875182 5.05600879099998
5.17948157805172 9.24747809182968 1.24164271111791 2.93957943854282 6.58751040552374
5.83742753743761 8.67047375182981 2.15218069927104 2.93957943854282 6.58751040552374
6.3181101502634 8.48444713903667 1.40719507260029 3.403723560418 8.24956841177779
6.31133651399991 8.47535097618894 1.48997125334149 3.55843826770973 8.9615713322897
-0.245616931131023 10.5522838727001 1.57274743408268 4.17729709687663 8.52284973017523
-0.162409879007994 10.4678433819105 2.06940451852984 4.33201180416836 16.3882802487171
6.28796101406181 8.6160590205957 0.331104722964775 4.33201180416836 16.3882802487171
1.97126963436058 10.4040649616318 1.3244188918591 4.48672651146009 7.32314487019992
6.38604020940658 8.40413666302186 1.57274743408268 4.48672651146009 7.32314487019992
-0.162658442946816 10.4838641338369 1.98662833778865 4.64144121875182 6.06361463794503
2.00046243806687 10.1203257003603 2.73161396445939 4.64144121875182 6.06361463794503
6.00692681060384 8.74405030607332 1.15886653037671 4.64144121875182 6.06361463794503
6.05855096789855 8.64320442754198 1.57274743408268 4.79615592604354 6.56907223052805
6.44701781148334 8.48438421618972 -0.579433265188356 4.79615592604354 6.56907223052805
7.08220637657988 7.26387473604086 3.31104722964775 4.79615592604354 6.56907223052805
-8.54783724482392 6.78107263408249 1.27816161438608 -2.47543531666763 5.42756541106584
5.30328858620152 9.46852388149555 1.70421548584811 2.78486473125109 7.20892891403073
6.52778732502527 8.76601787193304 1.10774006580127 3.403723560418 8.16233529485874
-0.252840958517229 10.8626451630737 1.6190047115557 4.02258238958491 13.0790697443394
6.42501465402655 8.45542768973183 2.81195555164937 4.02258238958491 13.0790697443394
6.8852339394922 8.52570157718177 0.766896968631648 4.02258238958491 13.0790697443394
-0.16814546137877 10.8375202656571 1.78942626014051 4.17729709687663 20.5360365748459
6.63663598240932 8.73392492843059 0.596475420046837 4.17729709687663 20.5360365748459
6.87690328543682 8.51538607141348 0.937318517216458 4.17729709687663 20.5360365748459
6.25684847180626 8.92609812156668 1.36337238867848 4.33201180416836 36.298418818731
6.62220316375398 8.71493109556474 0.937318517216458 4.33201180416836 36.298418818731
6.60713545243694 8.69510173324396 1.19295084009368 4.48672651146009 12.5085726826668
6.65814524095369 8.58662276098802 1.6190047115557 4.64144121875182 18.6350435768123
6.65015552872889 8.57631889371562 1.70421548584811 4.79615592604354 18.3611179302487
6.41564577643118 8.6154255241411 3.50581471374468 3.86786768229318 8.65053265170919
7.02973921880203 8.70463651222536 1.5776166211851 3.86786768229318 8.65053265170919
7.07788608307985 8.76425479104015 0.876453678436169 4.02258238958491 32.6128418670772
7.08195490919198 8.76929305081553 0.788808310592553 4.17729709687663 21.5435497676627
6.81140896843267 8.96392912686659 0.964099046279786 4.33201180416836 15.6918289323494
6.84015997240686 8.8213565763932 1.75290735687234 4.64144121875182 21.2844722005018
6.81290676964364 8.78620970550233 2.01584346040319 4.79615592604354 34.6386949954011
7.16966622711495 9.06052035159322 1.17103949813277 3.86786768229318 6.85598578112034
7.17511161060689 9.06740184459276 1.08095953673794 4.02258238958491 23.0800140965925
6.8111829157592 9.33300220389654 1.17103949813277 4.17729709687663 8.7281855150608
7.18468546156253 9.07950060465758 0.900799613948285 4.17729709687663 8.7281855150608
6.95741679885551 9.15607789519684 1.62143930510691 4.64144121875182 6.10853765014464
7.58993751817356 8.65541815204221 1.53135934371208 4.64144121875182 6.10853765014464
6.97009832186688 8.98893051006709 2.34207899626554 4.79615592604354 14.9516028213512
-8.1094738271557 14.7847311083883 -1.70908467295053 2.78486473125109 6.81587901970082
-1.19989197542244 17.1461194115583 -1.60683174379964 2.78486473125109 40.6594698550011
-1.20072914507627 17.1580823308431 -1.47292909848301 2.93957943854282 26.7041344241682
-1.18359542018455 16.9132462131127 -4.63546612150685 2.63015002395936 12.6288530445746
-1.1725226732972 16.755019769205 -5.18081507697824 2.78486473125109 117.413469035849
-1.22333833534713 17.4811613113874 -1.36337238867849 2.93957943854282 65.4818891523419
-1.0776023245536 17.3323643717388 -4.30192680499086 2.63015002395936 8.50937241860359
-1.20733791850389 17.2525198474487 -4.57947046982898 2.78486473125109 67.4970114424227
-1.20986159948086 17.2885825399861 -4.44069863740992 2.93957943854282 33.6091321927519
-1.67968092612044 17.9673100147504 -2.40050924149462 2.78486473125109 15.5982092886635
-1.65966077044795 17.7531572325657 -3.67136707522706 2.93957943854282 6.78536854410274
-1.86052374600707 18.3569133988098 -1.58005121473632 2.78486473125109 13.3795851604079
-1.72114955148198 18.4108940527481 -1.00548713665038 2.93957943854282 7.23145383806768
-1.14327110108049 18.3885936844233 -1.86733325377928 2.93957943854282 7.23145383806768
-0.710362692976976 18.3024955890689 2.72917937090818 2.93957943854282 7.23145383806768
-1.74762619335305 18.6941109573692 -1.46075613072695 2.78486473125109 6.45777081804778
-6.92506448928379 17.6883089115467 4.2264544049033 0.464144121875182 5.40491252139106
5.9786533822459 18.3185503549805 2.71700640315212 0.464144121875182 5.40491252139106
-7.20102028877172 18.3931675355824 0.920276362357977 0.309429414583454 12.3167387570732
-6.05514440439476 17.5727225675336 6.7486933239585 0.309429414583454 12.3167387570732
-2.45399647359926 19.6205145152609 0.153379393726329 0.309429414583454 12.3167387570732
-1.67412972624005 19.5495535089336 2.45407029962127 0.309429414583454 12.3167387570732
6.92207676522505 17.6806775333588 5.52165817414786 0.309429414583454 12.3167387570732
-6.3981831258286 18.5682602259424 2.30069090589494 0.464144121875182 50.1315542366464
-2.44156201247698 19.5210968805724 1.99393211844228 0.464144121875182 50.1315542366464
-1.6601070293119 19.3858042727545 3.52772605570558 0.464144121875182 50.1315542366464
-6.37159215463416 18.491090182027 2.91420848080026 0.618858829166909 20.0272609651671
-1.65768089650212 19.3574732465256 3.68110544943191 0.618858829166909 20.0272609651671
-6.51083203327196 18.8951802572139 2.02558183460803 0.309429414583454 51.6763750198523
5.92093151654656 19.1954245189614 -0 0.309429414583454 51.6763750198523
7.16399273428715 18.7566125036414 0.623255949110165 0.309429414583454 51.6763750198523
-6.49974158814334 18.8629945152431 2.33720980916312 0.464144121875182 333.295413077198
5.92021900468781 19.1931145838498 0.311627974555081 0.464144121875182 333.295413077198
7.15967704496587 18.7453132581944 0.934883923665246 0.464144121875182 333.295413077198
5.92075339662044 19.1948470612442 -0.155813987277541 0.618858829166909 88.5647935498012
6.36912657133111 18.9875796072593 1.55813987277541 0.618858829166909 88.5647935498012
6.99452336710318 18.7784950798697 1.40232588549787 0.618858829166909 88.5647935498012
6.47236276851736 19.295346377235 1.42423722745878 0.309429414583454 63.3141796033315
7.10746257292147 19.0817077806461 1.26598864663002 0.309429414583454 63.3141796033315
6.47236276851736 19.295346377235 1.42423722745878 0.464144121875182 450.509148313793
7.11068140972426 19.0903495290386 1.10774006580127 0.464144121875182 450.509148313793
6.46864417400816 19.2842605386227 1.58248580828753 0.618858829166909 107.736126802168
7.11068140972426 19.0903495290386 1.10774006580127 0.618858829166909 107.736126802168
5.36041224912156 19.0034492190693 6.26664380081861 0.309429414583454 33.265498631344
7.20437487045763 19.3418923574853 1.76751491817961 0.309429414583454 33.265498631344
6.56816177668521 19.5809414699862 1.60683174379964 0.464144121875182 73.3483667220731
7.21680815096641 19.3752725157329 1.28546539503972 0.464144121875182 73.3483667220731
5.83751308105417 20.0735385686855 2.28364875103646 0.154714707291727 8.39185376006704
-6.79798131261113 19.7285203535511 2.60988428689881 0.309429414583454 10.4289368550076
6.80441697508756 19.7471973831451 2.44676651896764 0.309429414583454 10.4289368550076
-9.62279018319527 18.6958295008121 -0.326235535862351 0.464144121875182 5.26165445368293
-8.79536592833586 19.067677796214 -1.14182437551823 0.464144121875182 5.26165445368293
19.0479996954295 8.81529323750828 1.30494214344941 0.464144121875182 5.26165445368293
4.99124047896606 20.1484222936004 4.96657084447163 0.154714707291727 6.90638496346929
5.88028699221758 20.2206258203199 3.47659959113014 0.154714707291727 6.90638496346929
-8.62089747618129 19.1162649722279 -3.9732566755773 0.309429414583454 5.13677495360749
-8.10986912412166 19.7363011459433 -0.496657084447164 0.309429414583454 5.13677495360749
5.62432792201218 19.9390690659785 5.13212320595401 0.309429414583454 5.13677495360749
6.92301309455854 20.091376904865 1.98662833778865 0.309429414583454 5.13677495360749
4.95060112402103 19.9843711146154 6.71947820134396 0.154714707291727 6.43999835297237
5.06800279432893 21.1813699730983 -2.89716632594178 0.154714707291727 7.06085326598126
-9.25971022987567 19.630818213989 3.40843097169621 0.309429414583454 5.73282810909118
-8.85765406005612 20.0949229275851 -0.681686194339243 0.309429414583454 5.73282810909118
-8.17801928482857 20.3859576184132 -0.511264645754433 0.309429414583454 5.73282810909118
-5.56882633588227 21.031089768569 3.06758787452659 0.309429414583454 5.73282810909118
4.60082809163649 21.4812677892876 0.34084309716962 0.309429414583454 5.73282810909118
5.69304550313859 20.822796004573 4.09011716603545 0.309429414583454 5.73282810909118
4.49087844376628 21.8106499694422 -0.864280710680111 0 6.38966012204363
6.35224001192431 21.2024913381021 2.59284213204033 0 6.38966012204363
5.15925306207934 21.562744206658 -2.24712984776829 0.154714707291727 9.16577246720825
5.12290462068446 21.4108283896439 3.45712284272045 0.309429414583454 7.07528275969567
7.13305113040305 20.700931340899 4.14854741126453 0.309429414583454 7.07528275969567
-9.98405478505786 21.6446639392128 0.925145549460401 0 6.37059346220905
-17.8069087250376 23.9124947482806 0.462572774730199 -1.08300295104209 6.07353167166146
-18.2302365114723 23.9912988358495 -0 -1.23771765833382 6.29062991997682
-17.996515530556 24.1671134365217 -0 -1.08300295104209 12.0658302978015
-18.4589578143273 23.8054445459826 0.701162942748937 -0.928288243750363 5.28141491418867
-17.7627945496397 24.3394139798505 -0 -0.928288243750363 5.28141491418867
-18.1839792339993 24.4188542014855 -0 -1.08300295104209 10.052067860468
-18.1839792339993 24.4188542014855 -0 -0.928288243750363 9.37371994405263
15.1845599789066 27.1106062687903 -0 2.47543531666763 6.61000806373937
15.1827327024004 27.1073438381389 0.482049523139891 2.63015002395936 14.4571688223359
15.3374779599954 27.3836269676103 0.243459355121157 2.47543531666763 11.483926778061
15.3337861590536 27.3770356036264 0.730378065363476 2.63015002395936 25.1632668578696
15.4838606549827 27.6449795266491 0.98357579468948 2.63015002395936 6.96584838227562
16.8717333098963 28.3104944821962 -0 2.16600590208418 10.981610555594
16.8712257559949 28.3096428149929 0.255632322877215 2.32072060937591 6.89998260696915
16.7743495678478 28.7323435597307 -0 2.16600590208418 6.106601349985
16.752856574943 30.5428545719594 0.540479768368969 1.85657648750073 5.70571491239715
-6.40667809821589 35.3352760322569 3.63971735906131 1.54714707291727 5.44076867128074
14.8793658467334 32.9940010226023 3.95377992716761 1.54714707291727 19.9163753649663
16.6543363700616 32.3572090107086 1.12965140776217 1.54714707291727 19.9163753649663
16.3621967250443 32.481368087597 1.69447711164326 1.701861780209 16.8525688513453
15.0076362419639 33.2784320659006 3.98786423688457 1.54714707291727 13.3691127311254
15.0076362419639 33.2784320659006 3.98786423688457 1.701861780209 11.8732087853582
16.5032501450878 32.7613798814555 1.70908467295053 1.701861780209 11.8732087853582
-13.5491320706359 40.3925437686353 2.6488377837182 0.773573536458636 6.83496671839614
14.5668546562713 40.1188376906148 0.662209445929548 0.773573536458636 6.83496671839614
-10.4915723869089 40.9458128878988 5.95988501336595 0.928288243750363 6.03526121463893
14.561593927301 40.1043490218752 1.3244188918591 0.928288243750363 6.03526121463893
14.6686644708841 40.3992339411537 1.33415726606395 0.773573536458636 18.2742209880099
14.6686644708841 40.3992339411537 1.33415726606395 0.928288243750363 15.0935237906707
14.7788491361545 40.7026955192558 1.0079217302016 0.773573536458636 7.41084777304699
14.7757350144672 40.6941188604322 1.34389564026879 0.928288243750363 6.2796357457094
14.5194791354623 42.1371913917344 0.345712284272043 0.618858829166909 9.05849025212149
14.5181686447196 42.1333881975064 0.691424568544087 0.773573536458636 9.87009945665694
13.6189509007503 48.2811824597666 2.33720980916312 0.154714707291727 5.50384842735182
16.7318539637789 47.292636491161 2.33720980916312 0.154714707291727 5.50384842735182
13.8701325815165 47.6954205432932 7.40116439568321 0.309429414583454 16.3075892943719
14.748349903159 47.8135638884137 4.28488465013238 0.309429414583454 16.3075892943719
16.3363347259306 47.4099144028322 2.72674477735697 0.309429414583454 16.3075892943719
14.8499681262971 48.1430061267755 3.91969561745065 0.309429414583454 12.522130070663
16.4384368179677 47.7062263678499 2.74378693221545 0.309429414583454 12.522130070663
-24.7323188388588 50.1748693212425 5.22950694800247 0.309429414583454 5.54474652179587
-25.1997988047102 50.0253086100798 4.35792245666873 0.464144121875182 6.86926438444856
50.641401815657 23.4365190099523 6.5368836850031 0.464144121875182 6.86926438444856
-24.9179894953051 50.5515424906561 3.94404155296276 0.309429414583454 13.6847225610606
-25.3796628777851 50.3823652609351 3.06758787452659 0.464144121875182 21.5807028319815
-25.0692961931045 50.8585009218077 3.52529146215437 0.309429414583454 6.27116853114538
-25.5391342917976 50.6989394829076 2.20330716384648 0.464144121875182 10.7041676082318
-39.7026739990605 50.1734494167536 -2.48328542223581 1.54714707291727 6.57041312387659
-35.7496271593935 53.0997947186999 -1.48997125334149 1.54714707291727 6.57041312387659
6.24737121088348 6.26954284695393 3.21366348759929 0.5191085573604 5.38924801759413
7.84975431847744 6.70968416793801 -0.803415871899822 1.0382171147208 12.2766259998624
6.62189524622023 8.36828587885878 0.0827761807411935 0.10382171147208 5.4808683962125
-0.93254104643218 17.1496726168242 -1.74073438911628 1.0382171147208 5.32011991906663
-12.2562537531087 12.031838912109 -1.74073438911628 1.14203882619288 33.0522212233444
-8.09673779760645 15.0755480992767 -2.27634497038283 1.14203882619288 33.0522212233444
-0.930952571218446 17.1204601441082 -2.00853967974955 1.14203882619288 33.0522212233444
-12.2562537531087 12.031838912109 -1.74073438911628 1.24586053766496 28.0360124755899
-11.6323454856515 12.720889606498 -0.937318517216457 1.24586053766496 28.0360124755899
-8.10491375401931 15.0907711467856 -2.14244232506619 1.24586053766496 28.0360124755899
-0.931775512523157 17.1355942489421 -1.87463703443292 1.24586053766496 28.0360124755899
-1.08117392945684 17.3898107563321 -2.31773306075342 1.0382171147208 24.8135640395803
-1.08117392945684 17.3898107563321 -2.31773306075342 1.14203882619288 164.804324229387
-1.08226568160973 17.4073707092817 -2.18139582188558 1.24586053766496 157.90973614783
-1.09673451034372 17.6400901512647 -2.7754366483812 1.0382171147208 29.1053803388616
-1.09805216270339 17.6612835268661 -2.63666481596214 1.14203882619288 181.899975516178
-1.09930078318715 17.6813665804132 -2.49789298354308 1.24586053766496 187.194011924201
-1.96519926277612 17.9899388472471 -1.9768899635838 1.0382171147208 7.67237966892241
-0.969682512900671 17.832713854398 -3.53016064925679 1.24586053766496 32.3212946868228
-2.00072442689086 18.3151453248131 -1.86733325377928 1.14203882619288 13.7072062475804
-2.00364095723838 18.3418439927761 -1.58005121473632 1.24586053766496 9.04334963012749
-0.707670776827047 18.2331383664172 -3.16010242947263 1.24586053766496 9.04334963012749
5.51750396016356 18.9731186910192 0.766896968631648 -1.45350396060912 20.5877285615475
7.61471981990268 18.9817790981012 -4.89353303793528 -1.45350396060912 8.37433074074031
7.8076052614472 19.4625990007676 -3.9732566755773 -1.45350396060912 5.87536666894675
16.9451824975772 22.7553020986868 -5.37558256107517 -0.31146513441624 6.81534151489631
16.9699829662994 22.7886060868878 -5.1515999543637 -0.20764342294416 10.3744032523963
16.9121228419942 24.6183210775667 -5.90388936168808 -0.41528684588832 16.7318409266591
