VERSION .7
FIELDS x y z velocity SNR
SIZE 4 4 4 4 4
TYPE F F F F F
COUNT 1 1 1 1 1
WIDTH 285
HEIGHT 1
VIEWPOINT 0 0 0 1 0 0 0
POINTS 285
DATA ascii
5.21238873534072 4.02923818281848 -0.204505858301773 -0.773573536458636 6.04965665648717
5.31469754361922 4.32450576854829 0.856976930026476 -2.78486473125109 5.79140977608136
1.71679700543436 6.27933042265573 2.30312549944616 -1.701861780209 8.87033546575059
5.56645111377471 4.52935463482049 0.783939123490129 -2.78486473125109 5.62125928955989
1.77621431267909 6.93209141715633 0.951926078523728 -2.01129119479245 5.65217610921194
1.82075294783637 6.87620988386713 1.23190433691306 -1.85657648750073 6.24086948872139
5.74088622165236 4.67129039392308 1.40232588549787 -2.32072060937591 5.54794742427201
5.09724306394639 5.93466033740232 0.608648387802895 -3.24900885312627 6.58540081681285
4.99789696870679 5.81899284348497 -2.78517502258605 -3.55843826770973 5.22032159597662
6.12299216005947 9.28020186465627 2.01584346040319 4.02258238958491 6.18837611304337
-9.71809424989253 5.74098485190613 0.525872207061701 4.17729709687663 10.1615738645171
5.43384933439836 9.90668482381083 0.0876453678436166 4.17729709687663 10.1615738645171
3.82320107948501 10.5295471936633 3.06271868742417 3.09429414583454 6.5943593639432
-1.79502942900291 11.4308575081765 0.990879575343113 4.02258238958491 36.3389559579917
5.72054717422287 10.0033259531844 1.44127938231726 4.02258238958491 36.3389559579917
6.18590568574566 9.56721210959888 2.25199903487071 4.02258238958491 36.3389559579917
6.02372639940934 9.90272058863828 0.720639691158629 4.33201180416836 20.0261015960084
3.9432526205302 10.8601833126711 2.96046575827328 3.09429414583454 10.4512151157393
3.91430719465461 11.0638012782253 2.12783476375892 3.24900885312627 14.7877299938237
4.30070430392162 10.9850509526232 1.75777654397476 3.24900885312627 14.7877299938237
5.25559243975183 10.4331243183674 2.40537842859704 3.55843826770973 10.2050283867703
-1.74881723512736 11.7367950161864 1.20268921429852 4.02258238958491 98.0779312698906
6.01181774807338 10.2974849938276 0.277543664838121 4.02258238958491 98.0779312698906
6.36793064880019 10.0505405426321 0.832630994514361 4.02258238958491 98.0779312698906
5.27269505105008 10.6968047307208 -0.185029109892079 4.17729709687663 280.054740633964
5.54669710280992 10.548808368617 -0.4625727747302 4.17729709687663 280.054740633964
6.18335294883497 10.1651390672806 0.832630994514361 4.17729709687663 280.054740633964
5.54485858101976 10.5453118347904 -0.55508732967624 4.33201180416836 61.2075800831934
6.17587152194785 10.1528399562063 1.01766010440644 4.33201180416836 61.2075800831934
4.01144424737958 11.338359455358 2.27877956393404 3.09429414583454 5.35914726972263
4.39715435228467 11.231407972492 2.08888126693954 3.09429414583454 5.35914726972263
4.02828483903141 11.3859594392575 1.99393211844228 3.24900885312627 10.816335876408
6.06778146963137 10.6105227358187 0.664644039480761 4.02258238958491 68.4626183880691
5.41193865159837 10.9792905545067 -0.0949491484972513 4.17729709687663 207.453708552795
6.06503472889299 10.6057196038667 0.759593187978014 4.17729709687663 207.453708552795
6.43708981218373 10.3684741914897 0.949491484972517 4.17729709687663 207.453708552795
5.31651246144662 11.0245884401108 0.189898296994503 4.33201180416836 48.2071513614934
5.69540628764847 10.831626172517 -0.284847445491756 4.33201180416836 48.2071513614934
5.95130740541265 10.6255006451821 1.23433893046427 4.33201180416836 48.2071513614934
6.3339752157148 10.4127549323512 1.13938978196702 4.33201180416836 48.2071513614934
5.93969340930849 11.059285347422 -0.194767484096926 4.02258238958491 6.2455787430844
6.32975280888698 10.8420676233973 0.0973837420484629 4.02258238958491 6.2455787430844
0.0958214735533561 12.3531243820917 -2.23982606711465 4.17729709687663 16.338713541427
5.54820089476042 11.2557280486462 0.389534968193853 4.17729709687663 16.338713541427
5.93969340930849 11.059285347422 -0.194767484096926 4.17729709687663 16.338713541427
6.22336560987833 10.8825874213525 0.681686194339242 4.17729709687663 16.338713541427
0.0963203651494201 12.4174405495521 -1.8502910989208 4.33201180416836 6.0213560462906
5.54937022899081 11.2581002965776 -0.29215122614539 4.33201180416836 6.0213560462906
6.49145455698246 10.6716435025906 1.26598864663002 4.33201180416836 6.0213560462906
-7.13701822694067 10.3890805364179 -2.59527672559155 4.33201180416836 5.67519084494849
-4.5371157773741 11.8789794569539 3.47659959113014 2.63015002395936 5.532357806639
4.19211179104207 12.1659885472925 2.86308201622482 2.63015002395936 5.532357806639
-2.02030041379106 12.8653969570759 -2.04505858301773 4.17729709687663 31.251945923091
-2.02502775850264 12.8955009781672 -1.84055272471595 4.33201180416836 38.9578380850096
-2.02720111773157 12.9093410630474 -1.73829979556507 4.48672651146009 6.76834573069125
5.69494158945948 12.073419179065 1.98906293133986 3.24900885312627 8.93026246296378
5.63012769653013 11.9360120984706 -2.82656311295664 3.403723560418 6.63460219669564
-2.06840280459561 13.1717159322443 -2.09375045404196 4.17729709687663 116.534170990161
-2.07324270513366 13.2025367157426 -1.88437540863776 4.33201180416836 136.039556504269
-2.07756358523297 13.230052345251 -1.67500036323357 4.48672651146009 21.4509285383901
5.74530729666241 12.4553849453907 1.60683174379964 3.24900885312627 9.75299434936879
-2.56465856793783 13.535882600802 -0.964099046279786 4.17729709687663 115.436504322025
-2.11650519540015 13.4780349074128 -2.14244232506619 4.17729709687663 115.436504322025
-2.12587901744769 13.537727981187 -1.71395386005295 4.33201180416836 96.8807967725383
-1.98315923804202 13.3095288597498 3.10654137134598 4.48672651146009 14.8230388808481
5.02731367010542 13.1624050919434 0.986010388240691 3.09429414583454 6.77489939193011
-3.01396526636749 13.5461242038783 -2.62936103530851 4.02258238958491 6.0501752847479
-3.01837641693073 13.565949911254 -2.51980432550398 4.17729709687663 43.1218334047536
-3.13054360596371 13.5604354719876 2.41024761569946 4.33201180416836 17.8992109129065
4.3338942696604 13.6552760125096 1.79186085369172 2.78486473125109 6.11996414135929
5.19329267858432 13.2649400318254 2.35181737047039 2.78486473125109 6.11996414135929
5.76139137557382 12.7755009786944 3.47173040402771 2.78486473125109 6.11996414135929
-2.99736165264597 13.9946824874579 -1.90385215704746 4.17729709687663 7.79521630580181
5.23246404694823 13.6995254194111 1.60196255669722 2.78486473125109 6.00935949913275
5.32293010806409 13.9363817251078 2.1034888282468 2.63015002395936 8.54379524330236
5.3522454176419 14.0131344414448 1.40232588549787 2.78486473125109 7.7172762585205
5.80847072741709 13.8045646158598 1.63604686641418 2.78486473125109 7.7172762585205
5.45030414422436 14.2698697014214 1.78942626014051 2.63015002395936 6.66372726219939
-10.754753694571 22.3015998019771 1.34633023382 2.47543531666763 6.8938587819779
-10.5095313526925 22.7838567781188 0.973837420484632 2.47543531666763 7.05456554270594
15.1535148326027 24.9116598884313 1.35850320157606 4.79615592604354 5.64167340985982
16.7543687810616 23.9019916142377 0.226417200262676 4.79615592604354 5.64167340985982
-5.43157821275303 29.9572278326061 -0 4.33201180416836 5.97482061932861
2.12021489565315 30.2972755245196 2.12540017020771 4.33201180416836 5.97482061932861
14.9819815939019 26.1984807998318 4.01464476594789 4.33201180416836 5.97482061932861
-5.43010744775373 29.9491160020393 0.708466723402572 4.48672651146009 19.1361748084494
1.88355267505829 30.2954258111847 2.36155574467523 4.48672651146009 19.1361748084494
15.0148933680772 26.8076824639816 1.43154100811241 4.33201180416836 29.0714571703664
15.0198718915564 26.8165711502544 1.19295084009367 4.48672651146009 108.137782739565
15.0271104358725 26.8294948915539 0.715770504056206 4.64144121875182 21.6438962444103
15.180448297463 27.1032652475901 0.723074284709841 4.33201180416836 44.4328637257513
15.1772495529038 27.0975541894878 0.964099046279787 4.48672651146009 154.536390150415
15.180448297463 27.1032652475901 0.723074284709841 4.64144121875182 32.8916756643267
15.3360936387883 27.3811553920595 0.486918710242314 4.33201180416836 8.86402466868188
15.3305551039433 27.3712668580685 0.973837420484633 4.48672651146009 31.51426501236
15.3305551039433 27.3712668580685 0.973837420484633 4.64144121875182 7.17384182037204
1.00111951454484 32.251048150727 2.00610508619834 4.17729709687663 7.14822379064266
2.23942028315228 32.000687040245 4.01221017239668 4.17729709687663 7.14822379064266
3.25009926791629 32.067202005197 2.50763135774793 4.17729709687663 7.14822379064266
14.7410727568253 28.6399867059304 2.75839449352272 4.17729709687663 7.14822379064266
16.5458854459121 27.7637270584871 -0.75228940732438 4.17729709687663 7.14822379064266
16.4558719044776 28.1868315204686 -0.506395458652007 4.02258238958491 11.364024748331
16.4558719044776 28.1868315204686 -0.506395458652007 4.17729709687663 19.7501687041031
16.6156011233283 28.4604275114179 -0.255632322877215 4.02258238958491 5.61325400207267
16.6156011233283 28.4604275114179 -0.255632322877215 4.17729709687663 10.1924274707789
-8.14218707423428 32.8680263466589 -1.5776166211851 3.71315297500145 8.21303764420622
-6.78990862332831 32.9762477792014 3.94404155296276 3.71315297500145 8.21303764420622
-5.47344301787524 33.1534693959463 4.46991376002446 3.71315297500145 8.21303764420622
-4.46129958423378 33.5374921729262 2.10348882824681 3.71315297500145 8.21303764420622
0.261381182733768 33.6967711068494 3.68110544943191 3.71315297500145 8.21303764420622
1.30988634008321 33.7492230357478 2.89229713883936 3.71315297500145 8.21303764420622
2.61381182733769 33.5962600728319 3.68110544943191 3.71315297500145 8.21303764420622
3.88076967891094 33.1279073209812 6.04753038120956 3.71315297500145 8.21303764420622
17.328183620005 29.0764106894035 -1.84055272471595 3.71315297500145 8.21303764420622
-8.14218707423428 32.8680263466589 -1.5776166211851 3.86786768229318 23.3562982854182
-6.78990862332831 32.9762477792014 3.94404155296276 3.86786768229318 23.3562982854182
-4.33876725412368 32.6163643749812 8.15101920945637 3.86786768229318 23.3562982854182
0.26179461281944 33.7500697369186 -3.15523324237021 3.86786768229318 23.3562982854182
1.30180355903741 33.5409701729489 4.73284986355531 3.86786768229318 23.3562982854182
2.60903333959489 33.5348404575089 4.20697765649361 3.86786768229318 23.3562982854182
3.8691765293081 33.0289432449403 6.57340258827127 3.86786768229318 23.3562982854182
-4.06682246232889 32.5155924271076 8.67689141651807 4.02258238958491 5.36824000832291
1.28552598567707 33.1215784768846 7.09927479533297 4.02258238958491 5.36824000832291
4.09149124651487 32.7128275264251 7.88808310592552 4.02258238958491 5.36824000832291
17.3407267319426 29.0974578275237 -1.31468051765425 4.02258238958491 5.36824000832291
16.2918304666201 29.7023380118496 -4.77667254747712 3.71315297500145 30.620695167976
16.3556854899519 29.8187548559018 3.71518975914887 3.86786768229318 88.9819585579588
16.3556854899519 29.8187548559018 3.71518975914887 4.02258238958491 18.3208453847775
16.4589424082492 30.0070069921863 -4.55268994076565 3.71315297500145 36.2958369616683
16.1383521149262 30.0484602111676 -5.35610581266548 3.86786768229318 106.925069171983
15.0410026125613 30.513933831388 5.89171639393202 4.02258238958491 23.3455438550924
16.0965115678288 29.9705560976796 -5.89171639393202 4.02258238958491 23.3455438550924
16.28506440688 30.3216280312691 -5.40479768368971 3.71315297500145 6.18459835557287
16.3046298106681 30.358057417185 -5.13455779950522 3.86786768229318 17.5372012724565
-5.31887660003663 33.8709324405704 -9.07859935246798 3.55843826770973 5.5622716545015
-0.550201590310943 35.4622767471527 0.275109071286908 3.55843826770973 5.5622716545015
17.3912055588262 29.7889400130228 8.25327213860726 3.55843826770973 5.5622716545015
-9.14129032455746 34.5227676032136 2.22034931870496 3.55843826770973 28.8396662908582
-6.59580469912289 34.8116662316314 4.99578596708616 3.55843826770973 28.8396662908582
-5.15638756477136 34.6059397495167 7.49367895062924 3.55843826770973 28.8396662908582
-0.552258074250744 35.5948238060554 3.60806764289556 3.55843826770973 28.8396662908582
14.596092072067 32.3658603271389 4.44069863740992 3.55843826770973 28.8396662908582
-8.8597295983307 34.5771650799721 2.49789298354308 3.71315297500145 19.5902711446333
-6.58831297622036 34.7721260437272 5.27332963192428 3.71315297500145 19.5902711446333
-0.551804719104621 35.5656035967 3.88561130773368 3.71315297500145 19.5902711446333
14.6099102215633 32.3965011517081 4.1631549725718 3.71315297500145 19.5902711446333
15.0294180071917 32.5826238908938 3.91969561745065 3.403723560418 8.16823167075538
14.751095451503 32.709569979304 3.91969561745065 3.55843826770973 91.5385338283117
14.751095451503 32.709569979304 3.91969561745065 3.71315297500145 61.0840640010746
15.1725639346784 32.8929532672262 3.67136707522706 3.55843826770973 45.4446397949361
16.3557827434615 32.4686353903804 1.9768899635838 3.55843826770973 45.4446397949361
14.8662244359767 32.9648608210363 4.23619277910815 3.71315297500145 30.6331906641363
-16.9476006211499 32.9269832999377 0.574564078085931 -2.78486473125109 5.10684103598988
-17.7680322755996 32.393665127845 2.5855383513867 -2.63015002395936 5.71406155032619
-16.9450506729097 32.9220290822287 0.861846117128902 -2.63015002395936 5.71406155032619
-16.0877941864061 33.3604615996847 -0 -2.63015002395936 5.71406155032619
4.76320753879816 40.6607737515066 3.8271810625046 1.54714707291727 13.4875543503484
3.50729934209463 40.9562861739035 -0.956795265626153 1.701861780209 10.3584324711717
4.75959261360841 40.629915206278 4.14611281771332 1.701861780209 10.3584324711717
4.7919883501191 40.906459048226 4.499128882639 1.39243236562554 7.4463838484036
6.73222874083682 40.7781242623563 2.89229713883936 1.39243236562554 7.4463838484036
4.78775608055201 40.8703305877462 4.82049523139893 1.54714707291727 50.365764159114
6.73222874083682 40.7781242623563 2.89229713883936 1.54714707291727 50.365764159114
6.73222874083682 40.7781242623563 2.89229713883936 1.701861780209 35.3624032206019
14.4262044446503 38.7306461022312 2.89229713883936 2.93957943854282 5.29382195368989
15.7393699067151 38.3035705721047 1.28546539503972 2.93957943854282 5.29382195368989
16.6984775937225 37.8830125876167 1.60683174379964 2.93957943854282 5.29382195368989
15.7298882903666 38.2804959659994 1.92819809255957 3.09429414583454 9.37724133589444
16.6984775937225 37.8830125876167 1.60683174379964 3.09429414583454 9.37724133589444
4.81946436341834 41.1410060317982 5.18081507697824 1.39243236562554 5.27453429101411
4.80944092644378 41.055441693122 5.82841696160052 1.54714707291727 32.3635084806689
6.7793332750487 41.0634435263559 3.2380094231114 1.54714707291727 32.3635084806689
4.79214564929497 40.9078018211682 6.79981978853394 1.701861780209 24.3084735849419
6.77502323676369 41.0373369747922 3.56181036542254 1.701861780209 24.3084735849419
15.8490541107481 38.5704997233176 1.94280565386684 3.09429414583454 6.29256807177587
4.52256199398924 41.4006941921081 5.87223964552233 1.54714707291727 5.27135401814459
14.2735925840401 42.5522985664904 -0.348146877823255 2.78486473125109 6.43449238089222
14.3734079167957 42.8498670879344 -0.350581471374466 2.78486473125109 10.2136749617903
-15.0306524225815 43.6206748164996 5.40479768368971 2.63015002395936 5.3093962774911
-3.89423448702085 45.47469905533 8.64767629390353 2.63015002395936 5.3093962774911
-14.7719201495415 44.0379079690481 5.44131658695788 2.47543531666763 5.39664066449312
14.145720656349 44.5704735601316 -0.725508878261048 2.47543531666763 5.39664066449312
15.5867054112733 44.055870599033 1.81377219565263 2.47543531666763 5.39664066449312
17.0366314960429 43.5157248254536 1.81377219565263 2.47543531666763 5.39664066449312
14.145720656349 44.5704735601316 0.725508878261048 2.63015002395936 49.2420605846534
15.5867054112733 44.055870599033 1.81377219565263 2.63015002395936 49.2420605846534
17.0309844924918 43.5013009968537 2.17652663478315 2.63015002395936 49.2420605846534
14.1367793265037 44.542301131512 1.81377219565263 2.78486473125109 14.4944856873501
15.2132117135229 44.1504827876375 2.53928107391368 2.78486473125109 14.4944856873501
16.6686231203112 43.6414324292339 2.17652663478315 2.78486473125109 14.4944856873501
15.31531380556 44.4467947526552 2.55632322877216 2.47543531666763 9.68770742461956
16.7804930741387 43.9343279488932 2.19113419609042 2.47543531666763 9.68770742461956
14.2419438199957 44.8736544354913 -0.365189032681736 2.63015002395936 69.9552019829196
15.31531380556 44.4467947526552 2.55632322877216 2.63015002395936 69.9552019829196
16.7739151203752 43.9171056910844 2.55632322877216 2.63015002395936 69.9552019829196
14.2406583788749 44.869604255166 0.730378065363472 2.78486473125109 19.1630723960358
15.31531380556 44.4467947526552 2.55632322877216 2.78486473125109 19.1630723960358
16.7739151203752 43.9171056910844 2.55632322877216 2.78486473125109 19.1630723960358
15.4234618950997 44.760652894884 2.20574175739769 2.63015002395936 12.5685791623315
16.8857412211777 44.2098863956917 2.57336538363064 2.63015002395936 12.5685791623315
-18.4707021591426 44.9505823843175 2.26417200262677 2.47543531666763 11.5940159410327
-16.5057376504102 45.4587503882035 5.28306800612913 2.47543531666763 11.5940159410327
-14.5886080436754 45.9659274268164 6.41515400744251 2.47543531666763 11.5940159410327
-12.8201592339984 45.4493486062745 11.6982220135716 2.47543531666763 11.5940159410327
-6.39176019651712 48.0495881333489 4.15098200481574 2.47543531666763 11.5940159410327
-4.48880247497705 48.0160871083847 6.41515400744251 2.47543531666763 11.5940159410327
-2.96612454785372 47.7077213587644 9.05668801050707 2.47543531666763 11.5940159410327
13.9283303855336 46.4899474514722 3.39625800394016 2.47543531666763 11.5940159410327
-18.4634616433695 44.9329617547411 2.64153400306456 2.63015002395936 7.74476931464351
-16.4755623852196 45.3756441449533 6.03779200700472 2.63015002395936 7.74476931464351
-6.37721681947667 47.9402593639057 5.28306800612913 2.63015002395936 7.74476931464351
-4.44918682178057 47.5923240523488 9.05668801050707 2.63015002395936 7.74476931464351
-2.95686688987853 47.5588193959542 9.81141201138267 2.63015002395936 7.74476931464351
14.041901612903 46.8690252193206 1.89898296994503 2.47543531666763 45.6383929762345
17.0723277362977 45.8348061149967 2.27877956393404 2.47543531666763 45.6383929762345
14.0372472498448 46.8534898975692 2.27877956393404 2.63015002395936 28.2835346097045
16.6929426754911 45.9743351313281 2.27877956393404 2.63015002395936 28.2835346097045
14.1387244123718 47.1922001250567 1.14669356262066 2.47543531666763 37.1043532262008
16.7999487182827 46.2690424078109 2.29338712524131 2.47543531666763 37.1043532262008
14.1357451744137 47.1822560318107 1.52892475016087 2.63015002395936 20.9488191347216
15.2666937617328 46.7770383308813 2.67561831278152 2.63015002395936 20.9488191347216
16.7933631379061 46.2509049418677 2.67561831278152 2.63015002395936 20.9488191347216
-17.585488570615 47.2125108843785 3.91969561745065 2.32072060937591 6.12232736990769
-7.43306940532198 49.8853797864114 3.13575649396052 2.32072060937591 6.12232736990769
13.7152198422646 48.6224700056526 1.1759086852352 2.32072060937591 6.12232736990769
17.6046380652362 47.2639223489848 3.13575649396052 2.32072060937591 6.12232736990769
-17.5955978453689 47.2396516852971 3.52772605570558 2.47543531666763 9.48190253723384
-7.42925242360023 49.8597629688567 3.52772605570558 2.47543531666763 9.48190253723384
-5.39954003473164 49.4287764442088 9.01529992013648 2.47543531666763 9.48190253723384
-3.83915781669712 49.3460711752065 10.1912086053717 2.47543531666763 9.48190253723384
13.7123298429715 48.6122245334283 1.56787824698026 2.47543531666763 9.48190253723384
17.9239725863546 46.9281615430892 5.4875738644309 2.47543531666763 9.48190253723384
19.5797048651553 45.4577719489579 10.1912086053717 2.47543531666763 9.48190253723384
13.8024842749095 48.9318352442442 -0.788808310592549 2.32072060937591 19.8201519086412
16.5649745224436 48.0734532788173 -0 2.32072060937591 19.8201519086412
16.5649745224436 48.0734532788173 -0 2.47543531666763 34.621105382704
16.6667260498616 48.3687478651599 0.396838748847486 2.32072060937591 14.2874366383305
15.0726124307658 48.864810107967 1.58735499538995 2.47543531666763 16.7885341787279
16.6667260498616 48.3687478651599 0.396838748847486 2.47543531666763 16.7885341787279
-20.1092546804217 52.6496203677737 3.94404155296276 2.16600590208418 5.15070853753442
16.6522551178658 55.5818568306046 2.25199903487071 2.16600590208418 5.47572129026015
13.4519701100533 56.2215861615022 8.15101920945637 2.16600590208418 10.8884675816628
16.277990673338 55.9753561259593 3.16984080367747 2.16600590208418 10.8884675816628
13.6886293476129 61.522896561811 6.88503056282635 2.01129119479245 5.17211914572772
13.7442452332614 61.7728595269156 7.41333736343926 2.01129119479245 6.23541070131576
16.297071882335 61.5471126319307 2.47111245447975 2.01129119479245 6.23541070131576
-1.30601805117773 2.70822491511142 -0.900799613948285 0 5.21834700746411
-0.598884209708478 3.02975109340697 -0.559956516778663 0 5.21834700746411
5.2814799194871 4.51441672711339 1.95984780872532 1.5573256720812 7.21080470493731
6.1722964654305 8.98477249671991 -1.36337238867848 0.20764342294416 31.362346350403
6.16607006643353 8.97570896926706 -1.44858316297089 0.31146513441624 190.767216444589
7.65311044474629 8.72745933737028 0.360319845579314 0.934395403248721 6.24638800471472
-8.34164530318282 8.74215285340047 -3.40843097169621 0.934395403248721 7.85947318245796
-10.0983431112552 8.42370910331814 0.920276362357978 1.66114738355328 10.7399098714937
-7.25422518347454 10.7748779132234 -2.2495644413195 1.76496909502536 82.4938925768529
-7.26388393156289 10.7892242877589 -2.14731151216861 1.86879080649744 52.7072992508393
-1.97169442046035 13.2325853054714 -1.77968788593566 1.66114738355328 57.9017214504011
-1.97169442046035 13.2325853054714 -1.77968788593566 1.76496909502536 453.572909223101
-1.97169442046035 13.2325853054714 -1.77968788593566 1.86879080649744 349.768559824859
-2.01754777907571 13.5403198474591 -1.82107597630626 1.66114738355328 114.732887794334
-2.01754777907571 13.5403198474591 -1.82107597630626 1.76496909502536 880.420725146674
-2.0195850665753 13.5539926460178 -1.71395386005295 1.86879080649744 682.459698000537
-2.17625276388728 13.8585110883608 -1.64335064706782 1.66114738355328 48.6984522796139
-2.17419444966241 13.8454036171231 -1.75290735687234 1.76496909502536 274.324782087289
-2.17419444966241 13.8454036171231 -1.75290735687234 1.86879080649744 197.442642600277
-3.06621753620753 13.7809695569705 -3.02376519060478 1.66114738355328 14.8919114150479
-3.06621753620753 13.7809695569705 -3.02376519060478 1.76496909502536 49.1718893393274
-3.0713262533577 13.8039304443473 -2.91177388724905 1.86879080649744 17.4862954536647
-2.33790946778538 14.1610700499819 -1.56787824698026 1.86879080649744 17.4862954536647
-2.01529760947561 14.2928536309026 -0.335973910067199 1.86879080649744 17.4862954536647
-1.56768957196503 14.3510330302474 -0.223982606711465 1.86879080649744 17.4862954536647
-1.9353254444138 14.5486669788934 -1.48753665979027 1.76496909502536 19.1940790085864
-1.93679533002531 14.5597167360908 -1.37311076288333 1.86879080649744 10.9190922215249
-1.97488004732181 14.846015803016 -1.63604686641418 1.76496909502536 6.97847111033323
16.2112981281528 13.8568273577876 -5.28306800612913 1.76496909502536 7.90538803664508
16.4083664864305 22.483513139234 -4.82049523139893 0.41528684588832 5.8726178601661
16.601070293119 22.2932016067381 -5.03960865100797 0.5191085573604 24.0439676008936
16.6242660454625 22.3243506576295 -4.82049523139893 0.62293026883248 7.93390775263676
16.5906816696131 22.7333299518921 -4.87405628952558 0.41528684588832 5.59120999430526
16.7855266297092 22.5409038468129 -5.09560430268584 0.5191085573604 20.9654291279878
16.8089801126343 22.5723989982699 -4.87405628952558 0.62293026883248 7.02228822347281
16.2617834959862 26.1934954156756 -7.37681846017109 0.31146513441624 7.52978192416574
16.4227912533722 26.4528369544447 -7.44985626670744 0.31146513441624 7.97548159888013
-2.16619224228753 39.8368392710071 6.90937649833846 -0.31146513441624 5.43235280235115
23.0792578657358 33.5955802638696 1.89898296994503 -0.31146513441624 6.22333573550326
