VERSION .7
FIELDS x y z velocity intensity
SIZE 4 4 4 4 4
TYPE F F F F F
COUNT 1 1 1 1 1
WIDTH 836
HEIGHT 1
VIEWPOINT 0 0 0 1 0 0 0
POINTS 836
DATA ascii
7.585360 0.025987 8.244860 -10.300800 5.270000
7.877110 0.026986 8.561970 -10.300800 10.950000
8.168850 0.027986 8.879080 -10.300800 12.040000
7.098500 1.455610 10.180600 -11.366400 6.820000
8.460600 0.028985 9.196190 -10.300800 8.800000
7.261890 1.505810 10.588000 -11.455200 6.900000
7.503950 1.556000 10.940900 -11.455200 8.210000
7.302460 1.648540 11.579600 -11.721600 5.890000
7.871490 1.447560 12.271300 -11.632800 7.880000
-7.521560 0.520958 12.561600 -11.455200 8.530000
8.103000 1.490140 12.632200 -11.632800 9.510000
-7.744340 0.443044 12.933700 -11.455200 9.110000
7.727300 1.484970 13.368600 -11.899200 8.930000
8.334520 1.532710 12.993100 -11.632800 7.330000
7.941950 1.526210 13.739900 -11.899200 7.550000
-7.975150 0.468361 13.797300 -11.544000 6.880000
7.938110 1.567460 14.235300 -11.988000 6.310000
8.340520 2.017230 15.443000 -12.165600 5.960000
-0.451819 1.453690 18.033700 1.420800 10.850000
8.326730 1.453690 16.002600 -12.254400 9.300000
-0.462429 1.559690 18.457100 1.420800 16.410000
8.398460 1.488300 16.448800 -12.254400 9.590000
-0.473089 1.639780 18.882600 1.420800 17.260000
8.463790 1.522910 16.897100 -12.254400 8.710000
-0.372202 1.677050 19.314300 1.420800 13.460000
8.131690 -2.094830 17.478000 -12.432000 8.860000
0.114017 1.958470 19.724100 1.420800 5.710000
8.301360 -2.369770 17.842600 -12.520800 8.770000
8.761820 -2.421290 18.097600 -12.520800 5.700000
-0.791935 2.298070 20.539900 1.420800 5.430000
9.132440 1.485960 18.498200 -12.520800 5.810000
-0.934198 1.076980 21.065900 1.420800 3.990000
8.066470 1.516920 19.453400 -12.609600 7.260000
-0.538856 1.148870 21.507600 1.420800 7.110000
7.107990 1.614330 20.274600 -12.698400 8.500000
-0.676517 1.120940 21.936900 1.420800 8.940000
7.409320 1.646620 20.623500 -12.787200 7.490000
-0.689782 1.142920 22.367000 1.420800 8.240000
-6.239890 1.886140 21.437600 -12.787200 5.670000
-0.875297 2.326770 22.702000 1.420800 4.860000
-6.657360 1.781610 21.773100 -12.787200 10.600000
-6.803700 0.000000 22.251700 -12.787200 11.760000
-6.929680 0.054972 22.663700 -12.876000 8.870000
-7.495750 0.708870 22.925700 -12.787200 4.270000
-6.676450 1.025180 23.614200 -12.964800 6.150000
-6.654570 1.043170 24.067400 -12.964800 8.330000
-6.580410 1.061150 24.533800 -12.876000 7.640000
15.312100 0.379793 20.828500 -10.123200 5.610000
15.567900 0.304838 21.176500 -10.123200 5.850000
18.390300 1.672050 19.306300 -10.123200 10.350000
-10.929300 1.280190 24.344300 -13.053600 7.430000
18.841100 1.615220 19.476800 -10.123200 10.670000
-10.914600 1.300840 24.821800 -13.053600 8.150000
19.140200 1.640860 19.786000 -10.123200 6.470000
-6.051300 1.555710 26.860500 -13.142400 4.350000
18.538600 1.428650 20.946500 -10.567200 8.950000
-5.988060 1.580020 27.315200 -13.142400 6.670000
18.821600 1.516510 21.266100 -10.567200 7.460000
-7.562690 1.867700 27.351700 -13.142400 9.060000
19.106700 1.539480 21.588300 -10.567200 5.680000
-10.465700 1.985090 26.833200 -13.231200 7.030000
-14.039600 2.014720 25.639600 -13.231200 5.990000
18.717200 1.585440 23.046700 -10.833600 9.480000
-14.254600 1.769050 26.032200 -13.231200 10.260000
18.988500 1.608420 23.380700 -10.833600 8.380000
-14.452500 2.073970 26.393700 -13.231200 9.870000
19.259800 1.631390 23.714700 -10.833600 7.000000
18.993100 1.677350 25.018200 -11.100000 4.610000
-10.384500 2.065790 29.620200 -12.698400 4.560000
-10.353000 2.094090 30.086300 -12.787200 5.800000
-10.257500 2.122390 30.572800 -12.787200 9.660000
-11.543900 2.122390 30.110700 -12.609600 4.720000
-5.683090 3.336500 32.078500 -13.231200 9.600000
-9.975520 2.150690 31.117900 -12.876000 9.470000
-11.697900 2.150690 30.512200 -12.609600 5.640000
-5.569900 3.380400 32.533300 -13.231200 6.590000
-11.851800 2.178990 30.913600 -12.609600 6.750000
8.816220 0.815840 32.869500 -13.142400 10.020000
-11.069400 1.210460 32.168300 -12.787200 6.200000
8.734000 1.012670 33.331800 -13.142400 7.950000
10.666800 -3.193780 32.624200 -12.964800 6.140000
8.790850 -1.492810 34.635300 -13.142400 8.670000
19.300800 0.951406 30.605500 -11.721600 9.980000
-19.688800 -1.363680 32.881900 -11.366400 4.950000
-20.417800 -1.498860 32.936800 -11.277600 9.200000
-20.387400 -1.515520 33.460900 -11.277600 6.160000
-5.790600 1.757850 38.742100 -13.320000 9.480000
-5.453430 2.631760 39.613600 -13.320000 6.220000
-10.152300 1.301110 38.744500 -13.053600 7.860000
-10.262400 1.189890 39.164900 -12.964800 7.170000
-10.372500 1.075990 39.584900 -12.964800 5.780000
11.673900 1.486260 40.106400 -13.053600 7.830000
-18.094300 -1.632100 38.120200 -12.076800 6.940000
10.454400 10.894400 39.897600 -13.231200 9.300000
-18.276700 -1.780580 38.504400 -12.076800 10.350000
10.257400 10.875500 40.413600 -13.231200 7.140000
-17.935000 -1.798560 39.138800 -12.165600 5.490000
9.808540 10.984300 40.953700 -13.231200 10.350000
-8.241920 1.970340 43.127100 -13.231200 9.080000
-8.069680 2.126770 43.591100 -13.231200 12.650000
-7.883640 2.168060 44.499600 -13.231200 8.690000
-13.440300 -3.596840 43.956900 -12.520800 9.630000
10.818000 2.912610 45.168600 -13.231200 7.600000
-16.718300 -6.989870 42.864300 -12.432000 12.070000
11.269200 2.939580 45.501300 -13.320000 4.770000
-19.555900 1.524960 42.676000 -12.165600 11.360000
-19.983900 1.538950 42.952800 -12.165600 6.400000
-20.163500 1.700770 43.338700 -12.165600 6.530000
-20.089700 1.865250 43.840900 -12.165600 9.120000
23.955100 -0.740596 44.354300 -12.165600 7.490000
11.543600 2.436490 49.458500 -13.320000 7.090000
11.641400 2.457140 49.877700 -13.320000 7.670000
20.393700 2.098410 50.273900 -12.698400 5.800000
-16.303300 0.296181 52.238500 -12.787200 8.430000
20.555500 2.115060 50.672900 -12.787200 7.720000
-16.118800 1.790770 52.716900 -12.787200 6.420000
11.902100 -0.644657 54.293100 -13.320000 8.890000
11.994800 -0.476418 54.715700 -13.320000 8.330000
13.146700 -0.654652 54.891700 -13.320000 7.670000
10.997800 -1.011430 55.796300 -13.408800 8.440000
12.271800 -0.310174 55.979500 -13.320000 8.930000
11.602400 0.133932 56.562700 -13.320000 10.110000
11.689000 0.134931 56.984800 -13.320000 7.960000
19.601100 -3.216830 56.962000 -12.964800 8.500000
21.889400 -3.216830 56.122500 -12.787200 6.960000
19.754500 -2.348220 57.407700 -12.964800 6.570000
22.060600 -2.348220 56.561600 -12.787200 8.110000
19.389400 -3.331720 59.302300 -12.964800 7.090000
19.982700 -3.354700 59.559000 -12.964800 9.010000
20.116200 -3.573280 59.956800 -12.964800 9.860000
22.481000 -3.820130 60.018200 -12.787200 8.810000
22.631800 -3.845770 60.421000 -12.787200 7.410000
-15.740300 -1.721590 63.554000 -13.053600 6.250000
-14.979600 -1.732920 64.180000 -13.053600 6.130000
-15.450600 -1.744240 64.511200 -13.053600 8.880000
16.665300 0.732951 84.550100 -13.320000 8.430000
16.748600 0.736616 84.972900 -13.320000 5.760000
16.832000 0.740281 85.395600 -13.320000 5.610000
16.999000 0.475755 86.243000 -13.320000 6.430000
17.082300 0.478087 86.665700 -13.320000 7.050000
17.249200 0.206894 87.512300 -13.320000 5.410000
17.332500 0.207894 87.935100 -13.320000 5.670000
17.414700 1.044440 88.352100 -13.408800 10.580000
17.497300 1.329280 88.771300 -13.408800 8.330000
17.580700 1.335600 89.194000 -13.408800 10.580000
17.664700 1.059440 89.620300 -13.320000 7.880000
14.263200 2.537080 95.428200 -13.408800 8.480000
18.279800 0.225885 95.652100 -13.408800 9.250000
18.358800 1.436880 96.065200 -13.408800 8.640000
17.133500 2.354580 96.711000 -13.408800 10.610000
16.646900 2.364900 97.233000 -13.408800 12.840000
27.412900 1.254330 104.617000 -13.231200 10.120000
27.521000 1.595130 105.029000 -13.231200 7.810000
27.630200 1.601460 105.446000 -13.231200 8.610000
17.745800 2.383610 112.776000 -13.408800 5.880000
17.812700 2.392610 113.202000 -13.408800 6.740000
17.879700 2.401600 113.627000 -13.408800 6.780000
17.946700 2.410600 114.053000 -13.408800 8.420000
-10.763400 1.474220 126.650000 -13.497600 11.730000
-10.799800 1.479210 127.080000 -13.497600 10.380000
-10.836300 1.484210 127.509000 -13.497600 13.790000
-10.019100 1.509200 129.737000 -13.497600 13.560000
-10.052300 1.514190 130.166000 -13.497600 10.450000
-10.085800 1.114090 130.600000 -13.497600 7.530000
-10.119000 1.117750 131.030000 -13.497600 6.850000
17.197900 3.732830 177.955000 -13.497600 5.850000
17.239300 3.741820 178.384000 -13.497600 5.260000
17.280700 3.750820 178.813000 -13.497600 5.030000
7.409980 1.082410 5.812670 -8.347200 3.910000
7.239920 1.009730 6.692230 -9.146400 3.230000
7.500650 1.053630 7.041220 -9.235200 3.900000
7.558360 0.062968 8.844450 -10.212000 6.460000
7.838300 0.065300 9.172020 -10.212000 5.730000
8.044780 0.067632 9.561880 -10.212000 12.510000
8.245700 0.069964 9.955450 -10.300800 16.900000
7.260700 1.360940 11.129400 -11.188800 6.900000
8.421150 0.030984 10.369000 -10.389600 5.830000
6.864490 1.404840 11.875900 -11.455200 11.550000
7.729130 1.448740 11.847400 -11.277600 14.550000
7.906780 0.430386 12.326300 -11.277600 7.460000
8.236890 0.443044 12.625700 -11.188800 7.550000
8.557470 5.028390 12.476900 -11.277600 6.480000
8.887250 5.164300 12.746000 -11.277600 8.170000
7.760840 -2.646980 14.173100 -11.721600 9.970000
7.768160 -2.716640 14.652200 -11.810400 8.830000
7.923950 1.543810 15.228500 -11.810400 5.050000
7.888170 1.378230 15.747900 -11.810400 5.500000
8.084320 1.300220 16.139500 -11.899200 5.250000
7.790770 1.488300 16.745200 -12.076800 4.850000
8.103780 1.522910 17.072700 -12.076800 5.410000
9.129560 1.301730 17.545500 -11.810400 7.820000
8.325850 -3.273900 18.169100 -12.165600 8.300000
8.944130 1.392520 18.116800 -11.988000 8.020000
8.436690 -0.109610 18.411000 -12.076800 6.910000
8.470840 -0.175908 18.868200 -12.076800 6.470000
18.439900 1.384480 14.123700 -8.258400 5.220000
18.610300 1.483270 14.598700 -8.436000 8.000000
18.948700 1.510240 14.864100 -8.436000 8.980000
18.356300 1.385560 16.259900 -8.968800 5.610000
18.356300 1.385560 16.259900 -8.968800 6.340000
-6.923660 0.989209 22.644000 -12.520800 10.640000
18.678300 1.409870 16.545200 -8.968800 10.020000
-7.052650 0.708870 23.065900 -12.520800 3.730000
18.639400 1.434170 17.229300 -9.146400 10.430000
-6.997420 0.721529 23.532400 -12.520800 9.020000
18.329300 0.299841 18.231200 -9.590400 11.380000
-7.113990 1.274800 23.924400 -12.520800 3.640000
18.634700 0.304838 18.535100 -9.590400 12.120000
-6.766390 1.296780 24.471800 -12.609600 8.240000
-7.024820 1.318760 24.846400 -12.609600 7.360000
-7.141030 1.401620 25.257400 -12.609600 7.520000
18.657800 1.065860 20.279900 -9.945600 6.530000
18.949300 1.082510 20.596800 -9.945600 9.410000
-10.714300 1.699020 24.885000 -12.520800 7.600000
-11.076700 1.811110 25.190300 -12.520800 6.120000
-5.396130 2.422400 27.376800 -12.876000 8.640000
-10.911700 1.493530 25.752300 -12.343200 6.690000
18.842200 1.404080 22.395500 -10.389600 5.210000
-5.708900 1.274920 27.831300 -12.876000 6.130000
19.114100 1.585440 22.718600 -10.389600 5.290000
-6.342320 0.848113 28.152300 -12.787200 4.570000
18.364800 1.424730 23.338800 -10.567200 5.420000
-5.497770 0.860771 28.767900 -12.876000 4.240000
18.631000 1.445380 23.677100 -10.567200 8.040000
-5.747260 0.873429 29.158300 -12.787200 5.720000
18.894200 1.560530 24.011700 -10.567200 6.850000
18.924900 1.582510 24.533300 -10.656000 4.660000
19.185400 1.677350 24.871000 -10.656000 13.150000
18.868000 1.429460 25.665400 -10.833600 15.810000
18.871500 1.448780 26.195200 -10.922400 6.230000
-10.257500 2.122390 30.572800 -12.432000 14.130000
-10.394300 2.150690 30.980500 -12.432000 7.780000
-10.279700 2.588380 31.440300 -12.432000 8.120000
-20.936000 -1.600720 32.091300 -10.922400 7.640000
10.665100 0.939765 37.721900 -12.698400 6.550000
10.667500 -0.926461 43.071700 -12.964800 7.490000
11.128200 -0.944450 43.844400 -12.876000 8.830000
10.978200 -0.953445 44.326200 -12.876000 7.100000
-19.929900 1.731420 44.392400 -11.810400 5.670000
-20.106200 1.746740 44.785200 -11.810400 7.670000
-17.955600 -3.712960 46.036500 -12.165600 6.150000
-18.111700 -3.745240 46.436800 -12.165600 6.560000
-16.157200 -2.279410 48.156900 -12.343200 8.660000
-16.667900 -2.298720 48.438000 -12.343200 7.530000
-17.096500 -1.838680 48.765200 -12.254400 8.260000
20.295100 1.270230 48.944500 -12.343200 6.190000
20.460100 1.280560 49.342500 -12.343200 6.530000
-30.240400 1.607620 45.581600 -10.833600 9.730000
20.350400 1.169320 52.176600 -12.432000 5.600000
12.928000 0.131933 55.390000 -12.964800 9.780000
-16.521100 -1.972650 58.434300 -12.609600 5.170000
-16.638300 -1.986640 58.848700 -12.609600 6.040000
-16.755500 -2.000630 59.263100 -12.609600 6.440000
23.469200 -0.734609 58.829500 -12.343200 5.810000
19.319600 -2.643880 60.266100 -12.698400 5.800000
20.047200 -4.045290 61.314200 -12.609600 6.690000
20.180800 -4.072260 61.722900 -12.609600 7.750000
22.929300 -4.099230 61.215000 -12.432000 8.150000
-15.448700 0.445438 80.837800 -12.876000 5.440000
-18.021100 6.554180 85.344900 -12.787200 4.740000
-18.109900 6.586460 85.765300 -12.787200 5.710000
-18.198600 6.618750 86.185800 -12.787200 5.860000
-62.898300 -12.251000 110.779000 -11.188800 8.160000
-10.909900 0.697308 128.374000 -13.053600 8.190000
-9.986280 1.103090 129.311000 -13.053600 6.370000
-10.019700 0.704304 129.744000 -13.053600 8.530000
-10.052600 1.110420 130.170000 -13.053600 10.470000
-10.085800 1.114090 130.600000 -13.053600 7.880000
-10.119000 1.117750 131.030000 -13.053600 5.460000
-11.164300 1.936940 131.368000 -13.053600 4.330000
-11.962900 1.534180 131.735000 -13.053600 9.770000
-9.453190 1.539180 132.371000 -13.053600 10.930000
-9.637640 1.150730 134.954000 -13.053600 7.240000
18.749000 3.210530 179.542000 -13.142400 5.600000
18.793700 3.218190 179.971000 -13.142400 6.100000
-6.959920 1.130670 8.144190 -9.945600 2.260000
-7.172830 1.175900 8.525490 -10.034400 5.850000
6.722050 1.043500 9.964650 -11.011200 6.080000
8.118230 0.067632 9.499590 -10.300800 13.380000
7.041460 1.080760 10.266600 -11.011200 5.150000
8.322180 0.069964 9.891600 -10.389600 16.910000
8.520560 0.072296 10.287300 -10.389600 15.830000
7.035030 0.392410 11.348500 -11.366400 9.690000
8.692510 0.117272 10.703200 -10.478400 9.520000
7.261970 0.405069 11.714600 -11.366400 10.040000
7.489550 0.373767 12.081700 -11.277600 7.870000
9.003920 3.930400 11.442600 -10.833600 6.020000
7.203410 -1.582940 13.155100 -11.721600 7.820000
7.023720 -1.437200 13.756300 -11.810400 6.350000
7.220860 -1.428020 14.142400 -11.810400 5.580000
7.775360 1.887760 16.712100 -12.165600 4.880000
7.973520 0.704826 18.133200 -12.165600 8.320000
8.293350 0.360131 18.472900 -12.165600 10.010000
8.470840 0.175908 18.868200 -12.165600 10.880000
8.498790 0.114275 19.327800 -12.254400 8.990000
7.010280 0.116607 20.372300 -12.520800 6.080000
8.519970 0.116607 19.788500 -12.254400 5.930000
7.498240 -2.559870 20.497900 -12.432000 4.880000
18.272000 1.456310 14.333200 -8.524800 8.280000
18.610300 1.483270 14.598700 -8.524800 9.640000
-6.956610 1.499820 21.700600 -12.520800 6.750000
18.948700 1.510240 14.864100 -8.524800 6.560000
18.367100 1.101070 16.269500 -9.057600 7.090000
18.686600 1.197600 16.552500 -9.057600 6.140000
-6.251070 0.825434 24.628800 -12.698400 8.490000
-6.549870 0.839425 24.996500 -12.698400 10.370000
-6.314280 1.015900 25.495000 -12.787200 10.340000
-6.417790 1.032550 25.912900 -12.787200 6.190000
17.568900 1.274920 22.327300 -10.389600 4.990000
-10.901400 1.925830 25.727900 -12.520800 9.700000
18.562300 1.472610 22.062800 -10.389600 9.640000
-10.867400 1.955460 26.208300 -12.520800 7.120000
18.839300 1.494590 22.392100 -10.389600 13.990000
19.116400 1.516570 22.721400 -10.389600 13.710000
-10.464300 2.014720 27.294700 -12.876000 6.200000
-10.622500 1.860830 27.707300 -12.876000 12.680000
19.187700 1.604490 24.874100 -10.656000 5.590000
19.255600 1.626470 25.364000 -10.744800 9.010000
19.115000 1.723300 26.001300 -10.922400 8.370000
19.115100 1.746280 26.533400 -10.922400 8.130000
19.115100 1.746280 26.533400 -10.922400 8.750000
-10.640600 1.746280 30.922200 -12.432000 4.950000
-10.780600 1.769260 31.329100 -12.432000 7.200000
-9.998950 1.792240 32.038300 -12.520800 10.810000
-10.131400 1.526040 32.462600 -12.520800 10.850000
19.048800 1.672510 29.198600 -11.366400 8.100000
-21.622300 -0.635976 28.481300 -10.389600 11.280000
19.284000 1.693160 29.559100 -11.366400 13.440000
-21.882800 -0.643638 28.824500 -10.389600 10.390000
8.941950 -1.993260 34.125400 -12.964800 10.550000
9.719160 -1.713800 34.376100 -12.876000 15.430000
9.837670 -1.622630 34.795200 -12.876000 9.000000
9.269090 -2.066180 35.373900 -12.876000 9.260000
9.584870 -2.090490 35.735300 -12.698400 10.710000
-20.480200 -0.666625 31.392500 -11.011200 7.900000
-5.047290 1.890220 36.663400 -13.053600 6.280000
-20.470200 -0.674288 31.912100 -11.011200 5.300000
-5.105980 1.912200 37.089700 -13.053600 6.880000
10.099000 1.348360 36.524800 -12.876000 5.890000
-19.898200 -2.873510 32.657900 -11.100000 6.490000
9.928760 1.363680 37.017400 -12.876000 6.430000
-22.386700 -2.236340 32.640200 -10.744800 9.400000
-22.630100 -2.260650 32.995000 -10.833600 8.150000
19.884100 1.032710 38.213900 -11.899200 12.120000
-16.966600 1.682060 40.042200 -11.988000 6.330000
-17.134500 1.698710 40.438600 -11.988000 10.920000
10.810300 -0.917466 42.591700 -12.876000 7.240000
-17.298000 1.989650 40.824500 -11.988000 12.040000
10.916300 -0.926461 43.009300 -12.876000 9.220000
11.124800 -1.468990 43.830900 -12.876000 9.570000
11.229600 -1.624160 44.243700 -12.876000 6.490000
-14.842200 -5.362870 44.237400 -12.432000 6.430000
-16.874000 -4.974950 44.013400 -12.165600 8.640000
-16.684600 -5.020170 44.543500 -12.165600 7.500000
-19.753500 1.716100 43.999500 -11.988000 10.060000
-20.526800 1.731420 44.119500 -11.899200 8.760000
-17.584800 0.000000 45.867300 -12.165600 8.690000
-17.739000 0.000000 46.269600 -12.254400 9.970000
-18.319300 0.000000 46.969200 -12.165600 7.300000
-18.201800 0.000000 47.476600 -12.165600 5.340000
-18.356000 0.000000 47.879000 -12.165600 6.800000
-28.693700 0.980782 47.093600 -11.100000 6.820000
-29.281100 1.160320 47.234400 -11.100000 8.160000
-16.560200 0.128934 53.061800 -12.520800 9.460000
-29.504300 1.472410 47.594500 -11.100000 9.060000
-16.379200 0.129934 53.568700 -12.520800 13.540000
-29.731300 1.483740 47.960600 -11.100000 8.420000
-16.505200 0.130933 53.980800 -12.520800 8.910000
-29.955600 1.670910 48.322500 -11.100000 16.580000
-17.363300 0.131933 54.163600 -12.432000 4.600000
11.840200 -0.132932 56.073100 -13.053600 12.330000
11.000100 0.317170 57.559900 -13.053600 7.770000
11.859600 1.232280 57.816600 -13.053600 7.310000
11.946200 1.241280 58.238600 -13.053600 6.170000
21.004900 -2.364870 57.420800 -12.609600 6.680000
20.818200 -2.381530 57.946500 -12.609600 7.020000
21.122800 -0.917833 58.794500 -12.609600 7.670000
21.267400 -1.118700 59.197000 -12.698400 9.150000
20.609100 -0.734609 59.891300 -12.698400 9.360000
22.284700 -5.075920 60.919600 -12.520800 5.650000
21.630800 -3.897040 61.698900 -12.520800 7.760000
22.608800 -3.922680 61.805500 -12.609600 7.340000
20.999900 -0.854546 70.622900 -12.787200 7.370000
21.122700 -0.859543 71.035900 -12.787200 5.480000
21.245500 -0.864540 71.448900 -12.787200 6.190000
-13.743100 0.000000 80.272100 -12.964800 6.640000
34.644700 0.192902 75.603600 -12.254400 7.240000
34.823000 0.710963 75.992800 -12.254400 5.810000
35.443500 0.714627 76.180900 -12.254400 5.560000
-17.527500 6.554180 85.447700 -12.876000 6.050000
-17.613800 6.586460 85.868600 -12.876000 8.330000
-17.700100 6.618750 86.289500 -12.876000 9.090000
-18.287400 6.651040 86.606200 -12.787200 5.120000
17.883300 -0.622680 113.650000 -13.142400 5.630000
17.950300 -0.625012 114.076000 -13.142400 6.210000
18.016900 -0.985819 114.499000 -13.053600 7.520000
18.083900 -0.989484 114.925000 -13.053600 5.470000
-10.872800 1.489210 127.938000 -13.142400 12.800000
-10.909600 1.095760 128.372000 -13.142400 13.590000
-9.361400 1.117750 131.086000 -13.142400 10.790000
-9.392090 1.121420 131.516000 -13.142400 5.070000
-9.422790 1.125080 131.945000 -13.142400 6.500000
-9.453480 1.128740 132.375000 -13.142400 6.450000
-9.606650 1.564170 134.520000 -13.142400 7.920000
-9.637640 1.150730 134.954000 -13.142400 10.280000
-9.668330 1.154400 135.384000 -13.142400 9.400000
-9.698720 1.579160 135.809000 -13.142400 5.770000
17.323200 3.202870 179.253000 -13.142400 7.780000
17.364700 3.210530 179.681000 -13.142400 11.860000
-8.578120 0.958135 5.696180 -7.192800 6.470000
-8.005430 0.799961 8.404170 -9.412800 4.740000
7.782190 1.442470 9.106360 -10.389600 7.480000
-8.301920 0.829589 8.715440 -9.412800 3.940000
7.970840 0.067632 9.623600 -10.478400 14.190000
8.322180 0.069964 9.891600 -10.389600 16.330000
8.599590 0.072296 10.221300 -10.389600 14.080000
8.828140 -1.000880 9.974750 -10.123200 6.590000
8.795410 0.074628 10.619100 -10.478400 6.210000
6.762910 0.753549 11.494700 -11.544000 8.160000
7.957830 0.862996 11.227600 -11.011200 5.800000
6.889410 0.777857 11.919000 -11.632800 8.320000
7.104710 0.802165 12.291400 -11.721600 9.290000
7.448900 5.251560 12.016100 -11.721600 9.030000
8.790770 -1.130030 12.202300 -10.922400 5.320000
7.566240 5.401610 12.418100 -11.810400 6.450000
8.330100 4.331410 12.348400 -11.366400 7.650000
8.463420 4.451730 12.757000 -11.455200 10.020000
8.504280 4.474700 13.257800 -11.544000 9.920000
8.368880 1.344610 15.007800 -11.810400 5.420000
7.428410 1.419080 15.966300 -11.988000 3.670000
7.609590 1.453690 16.355800 -12.076800 5.210000
7.937290 0.830632 16.721900 -12.165600 8.970000
8.121870 0.849949 17.110800 -12.165600 11.650000
8.310440 0.629569 17.508000 -12.165600 11.630000
8.606700 1.668510 17.777200 -12.165600 7.770000
8.845690 1.668510 17.659500 -11.988000 7.000000
8.007140 0.422754 18.597400 -12.254400 9.260000
8.143690 -3.686600 20.075600 -12.520800 7.240000
18.272000 1.456310 14.333200 -8.524800 6.210000
8.460890 -3.758890 20.404600 -12.432000 6.290000
18.610300 1.483270 14.598700 -8.524800 8.590000
18.948700 1.510240 14.864100 -8.524800 6.080000
9.073220 0.755482 21.413400 -12.343200 6.600000
18.184000 1.435750 15.797300 -9.146400 8.710000
8.903960 0.769473 21.949800 -12.432000 4.210000
18.508700 1.461390 16.079400 -9.146400 10.480000
-5.619750 0.354473 23.464200 -12.787200 8.640000
9.065860 0.783463 22.348900 -12.432000 6.680000
18.681500 1.332690 16.548000 -9.146400 10.490000
-6.474290 0.212556 24.138100 -12.787200 8.160000
-6.573240 1.591150 24.507000 -12.787200 6.130000
16.222400 1.645090 20.616100 -10.567200 7.860000
-6.490660 -3.566770 24.770500 -12.787200 5.430000
-11.245300 1.754510 24.170200 -12.432000 10.980000
18.627500 1.896200 20.247100 -10.034400 8.790000
-10.898900 1.950320 24.786100 -12.520800 10.270000
18.926300 1.752960 20.571800 -10.034400 5.030000
-11.071900 1.981280 25.179600 -12.520800 10.010000
-11.042400 2.185000 25.647000 -12.609600 5.400000
-10.263400 1.823100 30.590200 -12.520800 10.080000
-10.400200 1.847410 30.998100 -12.520800 7.440000
-10.294700 1.871720 31.486200 -12.609600 8.980000
-10.243800 1.896030 31.954900 -12.609600 6.130000
-9.946130 1.315670 32.529100 -12.698400 10.080000
-11.496300 1.631210 31.999500 -12.343200 10.940000
8.468430 -1.838190 33.365000 -12.964800 7.080000
18.823200 1.672510 29.344500 -11.366400 6.430000
-10.197900 1.348980 33.352600 -12.698400 7.040000
19.284000 1.693160 29.559100 -11.366400 8.900000
10.321200 -1.584000 33.755600 -12.876000 7.570000
19.288000 1.713800 30.069100 -11.366400 6.260000
10.447000 -1.603310 34.167300 -12.787200 7.370000
19.520400 1.734450 30.431400 -11.366400 7.360000
10.314800 -0.643638 34.688800 -12.876000 5.780000
10.437600 -0.651301 35.101700 -12.876000 6.030000
-19.992600 -0.782545 31.702600 -11.011200 13.110000
10.560400 -0.658963 35.514700 -12.698400 9.340000
-20.958400 -0.791539 31.590900 -10.922400 13.710000
-4.436370 1.565480 40.230500 -13.142400 7.120000
-4.718510 1.582130 40.631900 -13.142400 7.400000
19.451500 0.474748 36.015700 -11.899200 5.050000
-4.768180 1.598790 41.059600 -13.142400 7.330000
19.293100 -0.096950 37.078100 -11.988000 8.350000
19.492000 -0.097950 37.460300 -11.988000 8.850000
19.690900 -0.098949 37.842600 -11.988000 7.170000
-17.344700 -0.099949 39.444900 -11.988000 7.870000
9.319330 0.100948 42.511300 -13.053600 8.860000
11.385500 -0.509729 42.448500 -12.876000 7.940000
-17.396700 -4.884490 42.886000 -12.343200 8.790000
-19.386700 -0.107945 42.306700 -11.899200 8.070000
-19.566200 -0.108944 42.698400 -11.899200 7.620000
11.028900 2.124870 46.049000 -13.053600 5.250000
-16.874000 -4.974950 44.013400 -12.165600 8.530000
11.129100 2.144190 46.467700 -12.964800 9.890000
-16.684600 -5.020170 44.543500 -12.254400 7.590000
11.229400 2.163510 46.886300 -12.964800 8.090000
-15.261200 -5.213810 45.486400 -12.432000 8.280000
-19.419400 1.268540 44.163100 -11.988000 8.620000
-16.979600 -5.260360 45.331000 -12.343200 6.100000
-19.592800 1.279870 44.557500 -11.988000 7.410000
-19.766100 1.291190 44.951800 -11.988000 8.700000
19.760900 1.197940 45.896700 -12.432000 6.180000
-18.679500 0.584689 46.823500 -12.254400 7.210000
-18.839200 0.589686 47.223700 -12.254400 12.640000
-29.047900 1.620270 46.858200 -11.188800 7.580000
-16.705100 -0.465424 52.110200 -12.520800 7.720000
-29.277300 1.461090 47.228400 -11.188800 7.870000
-16.837200 -0.127935 52.522300 -12.520800 8.860000
-29.504300 1.472410 47.594500 -11.100000 7.620000
-29.733000 1.352850 47.963400 -11.188800 8.240000
-29.962000 1.187310 48.332900 -11.188800 6.050000
-30.186900 1.373500 48.695600 -11.188800 9.170000
-19.231100 0.131933 53.528900 -12.432000 9.480000
11.839400 0.664647 56.069500 -13.142400 9.800000
11.771600 1.540370 57.387300 -13.142400 14.710000
12.195900 0.502072 57.757600 -13.142400 16.220000
22.330600 -2.704380 55.975500 -12.520800 11.270000
20.377400 -1.810150 58.123600 -12.698400 7.230000
20.519900 -1.822810 58.530000 -12.698400 6.800000
20.321300 -1.835470 59.055000 -12.698400 7.180000
18.723800 -2.820280 59.994200 -12.787200 4.940000
-14.802900 -1.538100 72.165300 -12.876000 7.070000
36.053600 -0.429113 70.612800 -11.988000 6.940000
35.701200 -0.431445 71.273800 -12.076800 4.980000
35.478600 -0.681645 71.863800 -12.076800 7.470000
-16.868400 6.554180 85.580200 -12.964800 5.000000
-16.951500 6.586460 86.001800 -12.876000 5.890000
-17.034600 6.618750 86.423400 -12.876000 10.560000
17.066400 0.492080 89.302400 -13.053600 9.680000
17.146900 0.776928 89.723700 -13.053600 7.350000
17.227800 0.780593 90.147000 -13.053600 6.760000
17.308600 0.784258 90.570200 -13.053600 9.310000
17.389500 0.787923 90.993400 -13.053600 6.930000
-17.133200 6.779700 92.550700 -12.964800 7.320000
-17.211400 6.810660 92.973300 -12.964800 7.680000
17.950600 0.000000 114.078000 -13.142400 8.620000
18.017500 0.000000 114.503000 -13.142400 9.270000
18.084500 0.000000 114.929000 -13.142400 7.640000
-10.873500 -0.297848 127.947000 -13.142400 6.500000
-10.910000 0.298847 128.376000 -13.142400 6.400000
-9.953430 0.299847 128.886000 -13.142400 5.900000
-8.596170 2.405980 135.008000 -13.231200 7.060000
-8.623550 2.413640 135.438000 -13.231200 8.150000
-8.650930 2.421310 135.868000 -13.231200 7.890000
17.324100 2.645890 179.262000 -13.231200 9.070000
17.365500 2.652220 179.690000 -13.231200 10.360000
17.407000 2.658550 180.119000 -13.231200 6.350000
-8.231050 0.773153 5.465710 -7.104000 3.000000
-8.588920 0.806768 5.703350 -7.104000 3.760000
7.420440 0.170907 8.959060 -10.478400 3.530000
7.766650 0.177237 9.231300 -10.478400 7.440000
8.044780 0.067632 9.561880 -10.478400 13.970000
8.245800 0.029985 9.955560 -10.567200 15.620000
8.520560 0.072296 10.287300 -10.567200 12.790000
6.556830 -1.443110 11.548100 -11.721600 5.840000
6.942050 -1.648540 11.799200 -11.721600 8.700000
7.158990 -1.700060 12.167900 -11.721600 8.360000
9.089800 -1.211410 11.973300 -10.833600 3.840000
7.035950 -1.350830 13.271100 -11.899200 5.680000
7.666840 2.172970 12.804300 -11.721600 7.470000
9.351230 -1.210150 12.317700 -10.833600 5.000000
7.236970 -1.389430 13.650300 -11.899200 7.590000
7.987170 2.235050 13.108900 -11.721600 7.550000
7.218820 -1.477130 14.138400 -12.076800 4.250000
8.188060 -0.382102 13.674700 -11.632800 8.500000
8.915520 0.184902 13.216200 -11.366400 7.750000
6.389940 -1.477130 14.531900 -12.165600 2.610000
9.156480 0.189899 13.573400 -11.277600 8.180000
8.027270 -3.279150 14.395200 -11.721600 6.100000
8.440990 1.799950 15.415200 -11.899200 5.730000
8.646870 1.843850 15.791200 -11.899200 6.010000
7.990830 0.791367 17.175200 -12.254400 7.400000
8.307570 0.809352 17.502000 -12.165600 10.880000
8.493240 0.766086 17.893200 -12.165600 11.760000
8.533290 0.970467 18.341100 -12.254400 11.360000
8.616300 0.047975 18.803000 -12.343200 12.430000
8.906640 0.000000 19.143600 -12.343200 9.980000
7.246620 -2.195060 20.170700 -12.520800 9.070000
7.391550 -2.238970 20.574100 -12.609600 8.560000
8.096950 2.351790 20.759900 -12.520800 6.440000
8.689500 -5.173730 20.956000 -12.520800 7.750000
8.850420 -5.269540 21.344000 -12.520800 9.060000
18.349500 1.537210 16.253900 -9.235200 9.250000
18.675000 1.487030 16.542200 -9.235200 9.290000
-6.962100 2.007480 23.918800 -12.698400 8.120000
18.996900 1.512670 16.827400 -9.235200 4.700000
-7.082130 2.042090 24.331200 -12.787200 7.620000
18.287100 1.777690 18.189300 -9.679200 5.320000
-5.919400 0.668249 24.715300 -12.876000 6.970000
18.591900 1.807320 18.492500 -9.679200 7.530000
-6.016560 1.079140 25.121000 -12.876000 7.240000
-7.339540 1.097120 25.215500 -12.698400 6.550000
18.896700 1.836950 18.795600 -9.679200 5.540000
-5.969100 1.097120 25.574600 -12.876000 5.180000
-11.259800 1.115110 24.201400 -12.609600 5.820000
-11.094400 1.782810 24.711900 -12.698400 9.490000
18.635100 1.725990 20.255300 -10.212000 10.050000
-11.608000 1.811110 24.949900 -12.609600 8.210000
18.926300 1.752960 20.571800 -10.212000 10.010000
-10.735900 1.811110 25.337400 -12.876000 7.250000
-12.393500 0.822796 25.103800 -12.520800 5.140000
19.217500 1.779930 20.888300 -10.123200 5.330000
18.553600 1.717780 22.052400 -10.478400 11.190000
18.833900 1.652950 22.385600 -10.478400 14.200000
19.110800 1.677250 22.714800 -10.478400 12.730000
-11.054800 1.847410 30.770700 -12.520800 6.170000
-10.112500 1.871720 31.545200 -12.609600 11.170000
-10.428400 1.896030 31.895100 -12.609600 13.000000
18.985600 1.714380 27.681300 -11.277600 10.270000
8.499160 -2.311000 32.435600 -12.964800 5.740000
-10.379800 1.631210 32.378900 -12.609600 11.390000
19.226700 1.815210 28.032800 -11.277600 11.590000
8.608120 -2.340630 32.851500 -12.964800 9.320000
-10.068000 1.651860 32.927600 -12.698400 9.260000
19.250700 1.838190 28.536800 -11.277600 8.680000
8.715190 -2.476600 33.260000 -12.964800 8.440000
-10.193800 1.672510 33.339200 -12.698400 6.080000
9.119340 -3.055950 33.999600 -12.876000 7.150000
9.586080 -2.647500 33.905400 -12.964800 10.880000
-21.683100 -1.189190 29.494600 -10.567200 7.560000
9.753610 -1.415590 35.275500 -12.964800 8.410000
11.783400 -0.974058 35.120600 -12.698400 5.680000
-20.228000 -1.333040 31.534500 -11.011200 8.060000
-20.460500 -1.348360 31.897000 -11.011200 9.000000
-19.603300 -1.757850 33.914500 -11.277600 8.080000
-5.916110 2.044070 39.581800 -13.053600 7.540000
-4.976570 1.940930 40.150800 -13.142400 8.700000
-4.716620 1.961580 40.615500 -13.142400 8.440000
19.685300 1.022380 37.831800 -11.988000 8.030000
-19.384200 -1.648750 37.964900 -11.721600 7.650000
-17.989800 -1.562870 40.071000 -11.988000 9.930000
-18.882900 -0.392129 42.060300 -11.988000 11.940000
-19.059400 -0.395794 42.453400 -11.988000 7.360000
-19.236500 -0.108944 42.848000 -11.988000 5.340000
11.034200 1.538950 46.071100 -13.053600 7.610000
10.863200 1.848600 46.543200 -13.053600 6.970000
-19.759200 1.268540 44.012200 -11.988000 9.110000
-19.935600 1.279870 44.405100 -11.988000 5.060000
-20.112000 1.291190 44.798100 -12.076800 13.260000
-19.112400 0.432441 47.115400 -12.254400 8.970000
-18.631800 0.436106 47.770400 -12.254400 5.960000
20.167600 1.239250 47.596800 -12.432000 7.960000
-7.167880 1.097360 52.067300 -13.142400 7.910000
-7.529960 1.106360 52.451400 -13.142400 7.650000
-7.591180 1.115350 52.877800 -13.142400 7.240000
-30.250100 0.803895 45.596400 -10.922400 8.190000
-29.054100 1.151330 46.868200 -11.188800 10.010000
-28.916200 1.160320 47.458700 -11.188800 4.960000
20.596000 0.472753 51.627500 -12.520800 5.710000
-29.504300 1.472410 47.594500 -11.188800 5.680000
20.755700 0.476418 52.027700 -12.609600 8.920000
-29.731300 1.483740 47.960600 -11.188800 8.850000
20.914700 -0.654652 52.426300 -12.520800 10.560000
21.074300 -0.659649 52.826500 -12.520800 14.210000
12.179600 -0.307842 55.558600 -13.053600 16.870000
-3.310840 0.487413 57.211900 -13.231200 6.670000
13.025800 -0.310174 55.808900 -13.053600 14.230000
-3.335730 0.491077 57.642100 -13.231200 15.540000
20.671000 -0.338159 58.961100 -12.698400 4.540000
20.813500 -0.340492 59.367700 -12.698400 7.570000
17.065500 1.054440 89.297700 -13.142400 7.670000
17.146300 1.059440 89.720900 -13.142400 8.860000
17.227200 1.064430 90.144200 -13.142400 6.690000
17.307400 1.354590 90.563700 -13.142400 6.480000
17.913900 1.360920 90.884900 -13.142400 5.550000
-16.415700 7.070760 92.658900 -12.964800 5.730000
-17.207500 7.103050 92.952200 -12.964800 6.670000
18.447200 7.167620 93.590200 -13.142400 6.240000
18.558300 4.901370 94.154100 -13.142400 7.330000
17.802300 1.739360 96.164900 -13.142400 14.640000
-9.886960 0.694976 128.025000 -13.231200 6.190000
-9.919920 1.095760 128.452000 -13.231200 6.900000
-9.953430 0.299847 128.886000 -13.231200 4.880000
-9.986610 0.300846 129.316000 -13.231200 9.280000
-10.019800 0.301846 129.745000 -13.231200 11.760000
-8.597220 1.150730 135.024000 -13.231200 11.540000
-8.624330 1.574160 135.450000 -13.231200 8.300000
17.322200 3.759810 179.242000 -13.231200 5.910000
17.363600 3.768810 179.671000 -13.231200 6.420000
7.695990 0.065300 9.291750 -10.744800 5.390000
7.970840 0.067632 9.623600 -10.744800 13.080000
8.245700 0.069964 9.955450 -10.744800 14.470000
6.516830 -1.396560 11.076500 -11.721600 3.730000
8.520370 0.113607 10.287100 -10.744800 11.370000
6.734050 -1.443110 11.445700 -11.721600 7.840000
7.035370 -1.606190 11.749700 -11.721600 8.330000
6.917470 -0.681392 12.405000 -11.988000 6.660000
7.533430 -1.656390 11.945900 -11.632800 7.540000
7.421750 -0.656779 12.614500 -11.899200 5.220000
7.831800 0.943902 12.853900 -11.810400 6.600000
7.089250 3.402370 13.371600 -12.076800 5.730000
7.953420 0.970870 13.282900 -11.810400 8.750000
8.175900 0.948623 13.654400 -11.810400 10.350000
-0.347195 1.676740 18.016600 1.420800 10.030000
-0.355461 1.716660 18.445600 1.420800 14.130000
6.230090 1.944750 17.341200 -12.343200 5.990000
-0.473089 1.639780 18.882600 1.509600 13.170000
8.383450 0.908522 16.981100 -12.254400 8.580000
-0.596024 1.452900 19.326800 1.420800 11.760000
8.572670 0.989067 17.364400 -12.254400 9.550000
-1.143510 1.056960 19.760100 1.420800 9.510000
7.722120 1.056960 18.224700 -12.520800 6.960000
-0.389651 1.079940 20.219700 1.420800 5.510000
8.147720 0.657549 18.529400 -12.520800 7.060000
-1.748660 1.166790 20.576100 1.509600 5.600000
8.465790 0.735470 18.856900 -12.432000 9.890000
-0.649798 1.191090 21.070500 1.509600 3.530000
8.635320 1.125890 19.234600 -12.432000 8.020000
6.949200 -2.840260 20.194800 -12.609600 6.630000
-15.820300 1.849860 15.140600 -10.922400 4.840000
-0.845571 1.120940 21.931000 1.509600 6.520000
-15.981000 1.886140 15.592100 -11.011200 4.720000
8.907910 0.755482 21.482700 -12.609600 5.570000
-6.135050 0.915972 22.873300 -12.876000 10.270000
-6.873280 0.858049 23.114900 -12.787200 7.180000
18.188400 1.613020 16.426700 -9.324000 6.720000
-7.177140 0.873371 23.473000 -12.787200 7.260000
18.671400 1.564180 16.539100 -9.324000 7.080000
-5.817400 0.888693 24.289500 -12.964800 8.500000
18.993300 1.591150 16.824200 -9.324000 7.720000
-6.418200 2.277120 24.494000 -12.876000 4.840000
18.290900 1.697910 18.193100 -9.856800 6.510000
18.595800 1.726210 18.496300 -9.856800 7.830000
15.272100 0.867406 21.903100 -10.212000 8.000000
18.900600 1.754510 18.799500 -9.856800 5.930000
-11.237900 2.001770 24.154400 -12.698400 7.420000
15.518400 0.881396 22.256400 -10.212000 9.420000
-5.799310 1.866570 26.454200 -12.964800 6.520000
-11.424300 1.866570 24.554900 -12.787200 4.930000
18.459200 1.151080 20.456200 -10.300800 6.520000
-10.875100 2.066340 25.258400 -12.964800 10.000000
18.941700 1.342140 20.588500 -10.300800 7.270000
-10.905800 1.752960 25.738400 -12.964800 9.610000
-10.873900 1.692140 26.223900 -13.053600 7.100000
-6.553400 1.472610 28.078100 -13.053600 7.050000
18.657400 1.743410 22.526000 -10.656000 7.400000
-10.464300 2.014720 27.294700 -13.231200 7.020000
-6.430600 1.562460 28.544100 -12.964800 8.570000
-12.342600 1.562460 26.528800 -12.787200 7.460000
18.931800 1.769050 22.857300 -10.656000 9.130000
-10.622500 1.860830 27.707300 -13.675200 7.330000
-10.618200 2.044340 27.696100 -13.231200 8.970000
-6.520360 1.952600 28.942500 -13.053600 8.370000
-12.524200 1.585440 26.918900 -12.787200 5.780000
-14.305100 1.820330 26.982100 -13.142400 6.620000
18.605600 1.897250 25.826100 -11.188800 5.150000
18.857000 1.922880 26.175100 -11.188800 4.270000
19.108400 1.948520 26.524100 -11.188800 5.280000
-9.982880 1.746280 31.140800 -12.787200 7.700000
-10.114200 1.769260 31.550600 -12.787200 5.730000
-10.245600 1.792240 31.960300 -12.787200 6.810000
-10.376900 1.815210 32.370100 -12.787200 7.970000
8.379880 -1.780320 33.835200 -13.142400 5.580000
9.521650 -1.603310 34.436600 -13.053600 5.550000
11.101800 -1.713800 33.954800 -12.876000 7.750000
9.636370 -1.622630 34.851500 -13.053600 5.810000
10.304600 -1.734450 34.654400 -12.876000 5.100000
10.427300 -1.755100 35.067000 -12.876000 6.900000
-19.673200 -2.044990 32.855900 -11.277600 9.950000
10.546400 1.139260 37.302000 -13.053600 5.680000
-5.040970 2.090940 38.830300 -13.231200 7.690000
-22.369400 -2.725790 32.614900 -10.922400 7.440000
-5.398780 2.113920 39.216500 -13.231200 6.170000
-5.458120 2.044070 39.647600 -13.231200 8.080000
-5.517650 1.940930 40.080100 -13.231200 6.860000
-10.067100 1.075990 39.663700 -12.964800 5.290000
-9.941220 1.087320 40.139400 -12.964800 4.840000
-10.045400 1.001730 40.559900 -12.964800 7.930000
-17.974400 -2.044180 38.633400 -11.988000 7.900000
-18.640700 -2.085470 39.271400 -11.899200 7.570000
-17.668600 -2.241880 40.181500 -12.165600 10.810000
-18.519000 -2.106120 39.804100 -11.899200 7.720000
-8.401030 2.285840 43.959700 -13.142400 8.560000
-8.484330 2.028290 44.395600 -13.142400 8.520000
-8.565130 2.047600 44.818400 -13.142400 7.040000
-19.582900 -0.812210 41.256400 -11.988000 7.620000
-8.647090 1.924460 45.247300 -13.142400 8.090000
-19.446100 -0.819872 41.796700 -11.988000 8.670000
-14.977600 -6.847550 43.525800 -12.520800 6.010000
-19.627800 -0.827535 42.187400 -11.988000 10.020000
-14.505900 -5.218540 44.366100 -12.520800 4.290000
11.381800 2.271310 45.956100 -13.142400 5.870000
11.127500 2.291950 46.461000 -13.231200 4.910000
-15.482100 -4.873040 44.991800 -12.520800 8.670000
-19.916600 1.405080 43.463200 -12.076800 7.490000
11.227800 2.312600 46.879600 -13.231200 9.630000
-19.757500 1.417740 44.008400 -12.076800 5.940000
-19.933900 1.430400 44.401300 -12.076800 9.250000
-20.110300 1.443060 44.794200 -12.076800 14.530000
-17.870200 -13.983500 44.053000 -12.343200 16.370000
-19.937800 1.455720 45.342200 -11.988000 14.280000
-16.817300 1.218600 47.969000 -12.520800 7.210000
-16.959800 1.228920 48.375600 -12.520800 5.700000
-7.765230 2.031790 51.953400 -13.231200 8.640000
-7.222810 2.048450 52.466300 -13.231200 8.430000
-7.283830 1.569640 52.909500 -13.231200 5.030000
20.197500 0.472753 51.784700 -12.698400 15.030000
20.352600 0.822885 52.182400 -12.698400 11.440000
11.660900 0.829214 55.224100 -13.231200 9.260000
20.509200 0.829214 52.583800 -12.698400 7.090000
11.428100 0.835544 55.712700 -13.320000 6.720000
11.332100 0.679639 57.492300 -13.320000 8.100000
21.313300 -1.103380 58.263900 -12.787200 10.320000
19.519800 -3.548970 59.701100 -12.876000 9.890000
20.116200 -3.573280 59.956800 -12.876000 8.130000
20.866900 -3.076590 60.640500 -12.787200 6.190000
-4.708120 1.776260 73.943800 -13.408800 8.240000
17.581400 1.054440 89.197600 -13.320000 6.110000
17.146300 1.059440 89.720900 -13.320000 6.520000
17.748000 1.064430 90.043100 -13.320000 5.330000
17.308100 1.069430 90.567400 -13.320000 6.190000
-16.411800 7.361760 92.637000 -13.142400 9.040000
-16.486700 7.395370 93.060000 -13.142400 7.000000
-17.281600 7.428990 93.352500 -13.142400 5.520000
17.463500 5.420690 94.334900 -13.320000 7.450000
18.112900 2.313270 94.778600 -13.320000 8.120000
14.329600 1.724030 95.872200 -13.320000 6.340000
16.983200 2.333920 95.862700 -13.320000 7.490000
17.795700 3.175820 96.129400 -13.320000 9.820000
18.521300 1.144390 96.915600 -13.320000 7.580000
18.601400 1.455870 97.334800 -13.320000 6.990000
27.630200 1.601460 105.446000 -13.142400 7.260000
27.739400 1.607790 105.863000 -13.142400 9.420000
27.848600 1.614120 106.280000 -13.142400 7.390000
27.956400 1.961560 106.691000 -13.142400 7.090000
17.882400 1.334290 113.644000 -13.320000 6.120000
17.949400 1.339290 114.070000 -13.320000 14.070000
18.015600 1.702740 114.491000 -13.320000 19.100000
18.081700 2.068840 114.911000 -13.320000 19.470000
17.259200 2.076500 115.473000 -13.320000 14.980000
-9.390950 2.344680 131.500000 -13.408800 6.150000
-10.184100 2.352340 131.873000 -13.408800 7.710000
-10.218200 1.539180 132.314000 -13.408800 8.580000
17.323200 3.202870 179.253000 -13.408800 8.000000
17.364700 3.210530 179.681000 -13.408800 5.700000
17.406100 3.218190 180.110000 -13.408800 5.410000
