VERSION .7
FIELDS x y z velocity SNR
SIZE 4 4 4 4 4
TYPE F F F F F
COUNT 1 1 1 1 1
WIDTH 276
HEIGHT 1
VIEWPOINT 0 0 0 1 0 0 0
POINTS 276
DATA ascii
-1.29949387857492 2.69469606167982 -0.949491484972516 0 5.31972526007261
0.072859618407325 3.13022140920966 -0.219113419609042 0 5.31972526007261
5.40873155455242 8.19764574996533 -2.1034888282468 -4.79615592604354 8.97509970899977
-9.5664555785146 5.84749641068204 -1.40232588549787 4.17729709687663 24.7545721679277
-6.75357566895867 8.88781952897571 -1.75290735687234 4.17729709687663 24.7545721679277
5.42992453222445 9.8995293478784 -0.438226839218085 4.17729709687663 24.7545721679277
-9.57551216110403 5.85303224720479 -1.31468051765425 4.33201180416836 15.8415341610793
-6.60858650128445 8.69701133800988 -2.89229713883936 4.33201180416836 15.8415341610793
-2.34504534659439 10.539695292169 3.33052397805744 4.33201180416836 15.8415341610793
5.33770448180667 9.52997023202762 2.89229713883936 4.33201180416836 15.8415341610793
4.79706231754198 9.73188064074106 3.15523324237021 4.79615592604354 5.13603029253685
5.01233353164614 9.53254611255817 3.41816934590106 4.79615592604354 5.13603029253685
3.84349263268099 10.8636437018474 1.44127938231726 3.71315297500145 12.6098131325785
4.55557242956865 10.3350025009481 2.70239884184486 3.71315297500145 12.6098131325785
3.84349263268099 10.8636437018474 1.44127938231726 3.86786768229318 18.5164988713291
3.91855289338982 10.5203060118169 2.97263872602934 3.86786768229318 18.5164988713291
4.34310828880588 10.5694545479609 2.07183911208105 3.86786768229318 18.5164988713291
4.60901287791644 10.4562402105588 2.07183911208105 3.86786768229318 18.5164988713291
-2.21587157592137 11.2100790456058 -2.07183911208105 4.17729709687663 159.79971129247
-2.22473557471039 11.254921954448 -1.80159922789657 4.33201180416836 138.583177479757
5.38723788472887 9.82170548179385 3.06271868742417 4.48672651146009 11.1932766312074
-3.03413746602864 11.0976147072978 3.14549486816536 3.55843826770973 10.4383485788354
3.81185539554057 11.0624409361359 2.312863873651 3.55843826770973 10.4383485788354
4.18739839428167 10.9633568867274 2.12783476375892 3.55843826770973 10.4383485788354
-2.59896195444036 11.2578070499325 -2.96046575827328 4.02258238958491 59.6402272533076
-2.24937308112797 11.3795629297775 -2.7754366483812 4.02258238958491 59.6402272533076
-1.89301563631284 11.4662810519051 -2.68292209343516 4.02258238958491 59.6402272533076
-2.27575999689221 11.5130541549465 -2.12783476375892 4.17729709687663 452.152254465607
-2.28486356321607 11.5591090342979 -1.8502910989208 4.33201180416836 342.648410834904
3.86281880556688 11.51579871395 1.51918637595603 3.403723560418 8.59455525055823
4.28475474912267 11.2182532120377 2.37372871243129 3.403723560418 8.59455525055823
4.67782377902624 11.1174392795621 2.08888126693954 3.403723560418 8.59455525055823
4.29131245068514 11.2354224459668 2.27877956393404 3.55843826770973 15.5517627969498
-3.32071997602436 11.7724403464434 0.474745742486258 4.02258238958491 57.3504421564054
-2.70125842879473 11.7009201044357 -2.37372871243129 4.17729709687663 225.29966718821
-2.24222248114854 11.8341133783393 -2.18383041543679 4.17729709687663 225.29966718821
-2.34499155172176 11.8632961141479 -1.89898296994503 4.33201180416836 143.288964963032
6.04577260232396 10.572036579367 1.23433893046427 4.79615592604354 12.5610960558385
3.4952523867061 12.0191736819482 0.973837420484632 3.403723560418 8.35028762891782
4.3179911806396 11.5926950107743 2.14244232506619 3.403723560418 8.35028762891782
4.70181261891868 11.4424028746365 2.14244232506619 3.403723560418 8.35028762891782
4.3292151724094 11.622828539989 1.94767484096926 3.55843826770973 9.33172535332601
-3.30842818941893 11.7288641564579 -3.01889600350236 4.02258238958491 56.5019624592418
-3.28776505606819 11.6556103119608 -3.31104722964775 4.17729709687663 73.1520371894221
-2.21270997700925 12.2039404225294 -1.94767484096926 4.33201180416836 30.6394968560672
6.29250995470184 10.7782753149525 1.36337238867849 4.79615592604354 8.43144935534992
-4.25862489410049 11.4333118103509 4.09255175958667 3.09429414583454 7.84265444792584
3.32995306384824 11.8051729997249 3.89291508838732 3.09429414583454 7.84265444792584
4.56448991329526 11.9506498339544 1.39745669839545 3.71315297500145 17.3452497254294
4.95233180200882 11.7698422817754 1.5970933695948 3.71315297500145 17.3452497254294
5.33133221102042 11.5579187554677 1.89654837639382 3.71315297500145 17.3452497254294
4.44795122148322 11.6455307243916 3.19418673918959 3.86786768229318 13.4507613226484
-3.39773723307225 12.0454778415617 -2.99455006799024 4.02258238958491 23.1929651871586
-3.32940251966388 12.1775716434819 -2.49545838999187 4.17729709687663 35.3302582235263
-3.23147891614436 12.2039221680815 -2.49545838999187 4.33201180416836 15.7410130577688
-2.27577458812008 12.5517658333439 -1.69691170519447 4.33201180416836 15.7410130577688
3.33034603050322 12.1810226142715 3.7833583785828 2.93957943854282 5.23411096211382
3.33034603050322 12.1810226142715 3.7833583785828 3.09429414583454 6.32721611253723
4.66256257078261 12.2074215675281 1.73829979556507 3.71315297500145 8.43318993537653
5.16936285021551 12.001596509491 1.73829979556507 3.71315297500145 8.43318993537653
4.80458632983678 12.2720889207397 -0.30675878745266 3.86786768229318 9.62125784294603
5.30930878592745 12.0449670001321 -0.715770504056204 3.86786768229318 9.62125784294603
5.91280195417781 11.7377819085104 1.02252929150886 4.02258238958491 9.96203985412933
-3.09954598768805 12.5121123178802 2.76082908707393 4.48672651146009 5.12375510293606
5.2604008211761 11.6645878501123 3.16984080367748 4.48672651146009 5.12375510293606
5.92746502385606 11.5162934396687 2.45407029962127 4.48672651146009 5.12375510293606
3.37222598156956 12.7354640027671 2.93125063565874 3.403723560418 6.56311887024846
4.23174478021016 12.2810080210919 3.66406329457343 3.403723560418 6.56311887024846
4.14023556703444 12.3428309268853 3.55937577187133 3.55843826770973 15.4608414531133
4.56561519811966 11.9535960306062 4.29218843078602 3.55843826770973 15.4608414531133
-11.5866259821934 6.36377822881481 -2.72187559025455 4.33201180416836 5.3688655577973
-0.731024838020159 13.4437370824346 -0.942187704318882 4.33201180416836 5.3688655577973
4.18622670883779 12.4799392817657 4.17776253387907 3.55843826770973 14.5792502245933
6.48393100321545 12.0726169174285 1.71395386005295 4.33201180416836 6.99704926166449
6.47739023808516 12.0604384794214 1.82107597630626 4.48672651146009 6.73274504076252
3.23849338547971 13.5350609178897 2.41024761569946 3.55843826770973 7.63688605759488
3.63601532896506 13.2990339569216 3.06758787452659 3.55843826770973 7.63688605759488
-3.26437914583092 13.643248677306 -1.64335064706782 4.33201180416836 5.58701539584467
-1.77969114913449 14.2292201312986 -1.67986955033599 4.48672651146009 5.56077904551879
-5.95809645579806 16.4093011357316 2.04505858301773 3.09429414583454 12.6941117148163
-2.44156201247698 17.3159975534262 1.77238410528203 3.09429414583454 12.6941117148163
-1.73307947698686 17.0994806922403 3.68110544943191 3.09429414583454 12.6941117148163
-0.538746777010949 17.3557182673926 2.72674477735697 3.09429414583454 12.6941117148163
4.98340768735127 16.6336061179918 2.72674477735697 3.09429414583454 12.6941117148163
-5.92621454712043 16.3214945948079 2.72674477735697 3.24900885312627 10.1087289876373
-2.43003331020317 17.2342339204129 2.45407029962127 3.24900885312627 10.1087289876373
-1.72038265849784 16.9742071514196 4.2264544049033 3.24900885312627 10.1087289876373
4.90095693712359 16.8529897466288 3.4692958104765 2.93957943854282 12.3619070987261
4.98359789906102 17.1371683880759 1.24894649177154 3.09429414583454 57.5468918196608
6.09419354970497 16.7841286018837 1.11017465935248 3.09429414583454 57.5468918196608
4.98073465105619 17.1273224967762 1.3877183241906 3.24900885312627 44.282564587481
6.09106409885236 16.7755097247287 1.24894649177154 3.24900885312627 44.282564587481
4.92434896630804 16.9334282473249 4.51860563104869 2.93957943854282 22.9590779330642
6.05358295308681 17.1104707636812 1.41206425970272 2.93957943854282 22.9590779330642
6.05706294359561 17.1203069675162 1.27085783373245 3.09429414583454 171.222337912188
5.47898142085609 17.2632276917693 1.83568353761353 3.24900885312627 129.080437283807
6.05358295308681 17.1104707636812 1.41206425970272 3.24900885312627 129.080437283807
5.4744836605906 17.2490561051911 1.9768899635838 3.403723560418 7.12980301189796
6.04973431882873 17.0995925871594 1.55327068567299 3.403723560418 7.12980301189796
6.14508216830765 17.3690935758354 1.86733325377928 2.93957943854282 7.04736798044215
5.42607973786213 17.5911347312371 2.01097427330077 3.09429414583454 42.0939693112524
6.15795507296762 17.4054788802964 1.43641019521483 3.09429414583454 42.0939693112524
5.42128744070586 17.5755982944317 2.15461529282225 3.24900885312627 20.3925534828103
6.15404008294646 17.394413149007 1.58005121473632 3.24900885312627 20.3925534828103
5.45755832010399 18.2162249524539 2.2276530993586 2.93957943854282 6.88153440538607
5.55192993695617 18.5312183067848 2.11322720245165 2.78486473125109 6.90702925771987
5.54702648928602 18.5148515910187 2.26417200262677 2.93957943854282 10.5912984955046
5.66119235024914 18.8959141254371 1.38041454353697 2.78486473125109 7.48520568818412
5.51351297000158 18.9593948168572 1.07365575608431 2.93957943854282 11.1386421110843
4.80561411979597 19.3990938873367 2.02558183460803 2.78486473125109 5.35936118300365
5.60778465245387 19.2835681809877 0.467441961832625 2.78486473125109 5.35936118300365
5.75887066660298 19.2219445733617 0.934883923665246 2.93957943854282 5.97870813845017
-15.7883174799617 18.7653287640336 6.70487064003669 -3.403723560418 6.15183732686942
15.3111472606542 20.9800519080527 -2.02071264750561 -3.24900885312627 5.23524588499512
15.4749704466603 21.2045301190998 -2.45407029962127 -3.403723560418 11.2111581190346
16.442964861756 21.6392191893675 -4.92761734765224 -4.02258238958491 6.01530813356081
9.79049852042141 29.9980160548009 8.35552506775814 4.64144121875182 5.25209306209479
-5.84616729798114 33.75657463344 4.28488465013238 4.33201180416836 11.9317756920297
14.4087497409153 31.237062760621 2.94585819696601 4.33201180416836 11.9317756920297
15.5097939808687 30.7892232150159 1.87463703443291 4.33201180416836 11.9317756920297
16.3238322630941 30.3938110135603 1.33902645316637 4.33201180416836 11.9317756920297
17.9186155544776 28.862220093959 6.1595216845653 4.33201180416836 11.9317756920297
-5.8402698867981 33.7225221695611 4.55268994076565 4.48672651146009 8.718131709968
16.3282578964221 30.4020512270603 1.0712211625331 4.48672651146009 8.718131709968
14.7752974128672 31.3240015474559 3.7833583785828 4.33201180416836 15.2239917457438
16.1968237498209 30.8034108858351 1.62143930510691 4.33201180416836 15.2239917457438
16.1968237498209 30.8034108858351 1.62143930510691 4.48672651146009 10.9803287735009
14.5259525678374 35.3505796360898 2.3761633059825 3.86786768229318 22.7321330061332
16.3356312875506 34.6319485443513 0.297020413247812 3.86786768229318 22.7321330061332
14.5184932946329 35.332426635093 2.67318371923032 4.02258238958491 22.3855654414728
16.3356312875506 34.6319485443513 0.297020413247812 4.02258238958491 22.3855654414728
14.6374973380316 35.622036689479 2.69509506119122 3.86786768229318 42.1130052458464
16.4680434073655 34.9126655634465 0.598910013598047 3.86786768229318 42.1130052458464
14.6374973380316 35.622036689479 2.69509506119122 4.02258238958491 42.365570843127
16.4680434073655 34.9126655634465 0.598910013598047 4.02258238958491 42.365570843127
14.7565013814302 35.911646743865 2.71700640315213 3.86786768229318 10.2521707975643
16.5994320007532 35.1912126808134 0.90566880105071 3.86786768229318 10.2521707975643
14.7565013814302 35.911646743865 2.71700640315213 4.02258238958491 10.9127561621589
16.6019299391327 35.1965083729054 0.60377920070047 4.02258238958491 10.9127561621589
-8.92768110198148 38.6716362191143 3.71032057204645 3.71315297500145 11.7384540630076
-7.6265977125371 38.5829053161747 6.49306100108128 3.71315297500145 11.7384540630076
-2.16272531771843 39.77308162562 1.54596690501935 3.71315297500145 11.7384540630076
0.609316533268031 39.2724265248945 6.80225438208515 3.71315297500145 11.7384540630076
2.13544735951039 39.2714328727708 6.49306100108128 3.71315297500145 11.7384540630076
-12.0145685970965 37.8556190244666 3.40112719104258 3.86786768229318 7.40188277455527
-9.2040898369042 38.4678619986665 4.94709409606193 3.86786768229318 7.40188277455527
-7.60582946329767 38.4778388862685 7.11144776308902 3.86786768229318 7.40188277455527
-3.99574382123567 39.42412637714 4.32870733405419 3.86786768229318 7.40188277455527
-2.15155436528074 39.5676449021027 4.32870733405419 3.86786768229318 7.40188277455527
2.12963224972334 39.1644914899114 7.11144776308902 3.86786768229318 7.40188277455527
14.3331618008231 37.5267775696294 0.623255949110162 3.55843826770973 5.16956344732995
14.3310052229377 37.5211312635496 0.934883923665249 3.71315297500145 55.3109254808722
14.3310052229377 37.5211312635496 0.934883923665249 3.86786768229318 33.2483518228563
14.4399228550475 37.8062970776523 1.25625027242518 3.71315297500145 57.0442053743592
15.6955683207038 37.3025013353467 1.25625027242518 3.71315297500145 57.0442053743592
18.6379906564129 35.4460660400895 5.96718879401959 3.71315297500145 57.0442053743592
14.4429662012419 37.8142651015461 0.942187704318884 3.86786768229318 34.829540026716
15.6988763056977 37.3103631796667 0.942187704318884 3.86786768229318 34.829540026716
18.6156252413604 35.4035310912543 6.28125136212588 3.86786768229318 34.829540026716
14.5518602415208 38.0993691480217 1.26598864663002 3.71315297500145 6.49008679868085
15.8129522667827 37.5814791153089 1.58248580828753 3.71315297500145 6.49008679868085
18.7362085536344 35.6328586045571 6.64644039480761 3.71315297500145 6.49008679868085
-13.3651832061174 38.787292401301 5.78459427767871 3.55843826770973 5.08371152522397
-11.3334430409999 37.828738753037 12.5332876016372 3.55843826770973 5.08371152522397
-3.20892289259352 41.2454358518394 2.2495644413195 3.55843826770973 5.08371152522397
14.7186748985152 38.5361197139732 3.85639618511914 3.55843826770973 5.08371152522397
17.6549092003984 36.6101103483463 -8.03415871899822 3.55843826770973 5.08371152522397
23.3741940241514 34.0249073869693 3.53502983635921 3.55843826770973 5.08371152522397
-13.333982731021 38.6967450491276 6.42732697519857 3.71315297500145 5.95355862960934
-3.14239685387729 40.3903528367005 8.67689141651807 3.71315297500145 5.95355862960934
12.3848985323448 36.9217418082461 -14.1401193454369 3.71315297500145 5.95355862960934
15.0587123660588 38.4636354727324 3.21366348759929 3.71315297500145 5.95355862960934
17.6819295626893 36.6661411346783 -7.71279237023828 3.71315297500145 5.95355862960934
-13.2562549494791 39.5194212783175 2.26660659617798 3.55843826770973 76.3725761031677
-10.2815239752925 40.1260498779061 5.18081507697824 3.55843826770973 76.3725761031677
-3.22150543312936 41.4071637542836 4.20941225004482 3.55843826770973 76.3725761031677
-10.27115232984 40.085572107904 5.50461601928938 3.71315297500145 50.237084974106
-3.21601797330009 41.3366314666739 4.8570141346671 3.71315297500145 50.237084974106
14.2262248238312 39.1807029125376 2.26660659617798 3.71315297500145 50.237084974106
14.3526362054438 39.5288547833999 0.652471071724701 3.403723560418 15.1469029409965
14.3474528401349 39.5145791833183 1.30494214344941 3.55843826770973 335.90845510708
14.3435640869155 39.5038690977914 1.63117767931176 3.71315297500145 231.487389520066
14.4597454308576 39.8238462370074 0.657340258827124 3.403723560418 10.5687377941287
15.7756916159952 39.3252411719615 0.328670129413562 3.403723560418 10.5687377941287
14.4545233837179 39.8094641025968 1.31468051765425 3.55843826770973 246.39905554969
15.7718943350265 39.3157754069397 0.986010388240693 3.55843826770973 246.39905554969
14.4506056099522 39.7986740910585 1.64335064706782 3.71315297500145 151.86281685864
15.7685709640559 39.3074909926584 1.31468051765425 3.71315297500145 151.86281685864
14.5646629167899 40.1128013812956 0.993314168894327 3.55843826770973 16.2622729771358
15.5450596709993 39.7058854736383 1.98662833778865 3.55843826770973 16.2622729771358
15.538966007165 39.6903207654004 2.31773306075342 3.71315297500145 7.23080148624998
-18.2253001204751 41.346839554799 1.05174441412341 -1.23771765833382 5.24824197536062
-14.0785017079378 41.9706955006449 9.11511825573616 3.403723560418 5.94195079410075
-4.90090041777919 44.8641013063211 -2.45407029962127 3.403723560418 5.94195079410075
14.7027012533376 42.668922962549 -2.45407029962127 3.403723560418 5.94195079410075
17.4831534052082 40.590254343259 9.46569972711062 3.403723560418 5.94195079410075
14.1138443814081 43.244716238435 1.41206425970272 3.24900885312627 28.4841987484261
14.1100189457446 43.2329951314645 1.7650803246284 3.403723560418 37.3167273419089
14.2175986168846 43.5626184591529 0.35545065847689 3.24900885312627 67.5129329105487
14.216315373099 43.5586866095538 0.710901316953779 3.403723560418 91.5515230182561
16.6936120699481 42.6395692920552 1.77725329238445 3.403723560418 91.5515230182561
15.3663648515785 43.4330773319829 2.50519676419671 3.403723560418 31.4967195412007
16.7957941400974 42.900567297896 2.50519676419671 3.403723560418 31.4967195412007
-23.911537827867 40.9574461968197 5.18081507697825 2.16600590208418 5.8703943422634
-15.4368862718404 44.7996119737023 5.5508732967624 2.16600590208418 5.8703943422634
-12.5360974176852 45.8518378393433 4.07064041762576 2.16600590208418 5.8703943422634
4.42142012761722 47.2953076402675 4.44069863740992 2.16600590208418 5.8703943422634
11.8243946587688 46.1474632548632 -2.59040753848912 3.24900885312627 5.46665889174673
13.315682147425 45.7888240151787 -1.48023287913664 3.24900885312627 5.46665889174673
16.6400913084298 44.6743625496448 1.8502910989208 3.24900885312627 5.46665889174673
4.44348010647407 47.5312801234196 5.21489938669521 2.16600590208418 24.0056503157857
6.69498003500192 47.4820042718139 2.6074496933476 2.16600590208418 24.0056503157857
4.44348010647407 47.5312801234196 5.21489938669521 2.32072060937591 13.302004488301
6.69194937635067 47.4605102947934 2.97994250668298 2.32072060937591 13.302004488301
6.73873807444638 47.7923441690153 2.62449184820608 2.16600590208418 19.6681182107253
13.8688675017015 49.1671735392693 2.77787124193241 3.09429414583454 6.21131825614413
16.6667260498616 48.3687478651599 -0.396838748847486 3.09429414583454 6.21131825614413
14.7571060831701 49.2562329692395 2.39564005439219 3.09429414583454 10.5913054089685
16.7689759029283 48.6654886496087 -0.399273342398698 3.09429414583454 10.5913054089685
-8.57657573111358 51.9496119891771 2.86308201622482 2.93957943854282 5.51401787388465
-4.81082169228375 51.4606812679553 11.9319429944879 2.93957943854282 23.5818902259195
13.5368212226805 51.1228192699888 4.11446310154757 2.93957943854282 23.5818902259195
16.44001930162 50.3720992268743 2.46867786092854 2.93957943854282 23.5818902259195
-6.42600356177878 51.3780266253096 11.5204966843332 3.09429414583454 18.526706591413
-4.78284468566701 51.1614151732163 13.1662819249522 3.09429414583454 18.526706591413
13.4974338528355 50.9740699176125 5.7602483421666 3.09429414583454 18.526706591413
16.433574813585 50.352353362541 2.8801241710833 3.09429414583454 18.526706591413
13.5773003253374 51.2756916331013 5.79433265188356 2.93957943854282 33.5798638080574
16.5308149012393 50.6502962818459 2.89716632594178 2.93957943854282 33.5798638080574
13.5884552480118 51.3178190340967 5.38045174817759 3.09429414583454 25.6663375190543
16.5233317934585 50.6273680941871 3.31104722964775 3.09429414583454 25.6663375190543
13.603847191941 51.3759478632185 7.49367895062924 2.93957943854282 6.40606775335202
16.2050146662609 51.0589170584217 3.33052397805745 2.93957943854282 6.40606775335202
13.618447508761 51.4310870532689 7.07736345337206 3.09429414583454 5.08107070696836
16.6119929968701 50.8990253747466 3.74683947531462 3.09429414583454 5.08107070696836
16.2820718407062 52.7858294184215 0.428488465013237 2.78486473125109 11.3086859411491
16.2820718407062 52.7858294184215 0.428488465013237 2.93957943854282 17.3783251704909
16.282561670503 52.7874174271438 -0 3.09429414583454 6.65745998122504
15.9422344826071 53.211951672631 0.861846117128896 2.78486473125109 11.4144463209819
16.3731056848397 53.0809575209595 0.861846117128896 2.93957943854282 18.9425998067287
5.99558673716302 7.89029330568553 -1.63604686641418 0.726751980304561 5.43039415938712
4.87058909020387 9.06868938288793 2.81439014520059 0.10382171147208 9.39751667862956
4.81276840029356 8.96103138362136 3.22827104890655 0.20764342294416 27.2942270857763
6.03811500402379 8.78944974921922 0.413880903705969 0.31146513441624 14.3789195863733
5.17890247421786 9.64274690661404 -0.937318517216458 0.10382171147208 22.2072075744392
4.67724821617418 10.6110423572593 0.630559729763799 0.10382171147208 14.667366479139
5.35405550270435 9.96886934897134 2.61231888045002 0.10382171147208 14.667366479139
5.77699763737062 9.89526778307039 -1.8916791892914 0.5191085573604 12.9732334473329
6.10686771828269 9.63850345993571 -2.16191907347588 0.5191085573604 12.9732334473329
-6.92317919295884 9.11102062816828 -1.98175915068623 1.76496909502536 42.2223812479119
-6.91351931687467 9.0983080682568 -2.07183911208105 1.86879080649744 27.1460938708815
-2.27575999689221 11.5130541549465 -2.12783476375892 1.66114738355328 29.0433916405721
-2.19069515396341 11.5621598870518 -1.94280565386684 1.76496909502536 329.430167643602
-2.19346902068743 11.5767999388685 -1.8502910989208 1.86879080649744 193.309135791348
-2.34499155172176 11.8632961141479 -1.89898296994503 1.66114738355328 76.0975942855726
-2.34499155172176 11.8632961141479 -1.89898296994503 1.76496909502536 737.483969599404
-2.25389654449644 11.8957273307488 -1.80403382144778 1.86879080649744 424.31761515441
5.56583503854741 10.813693422522 -3.11627974555082 0.10382171147208 7.10940296261244
-3.15266235721401 11.9062655298357 -2.43459355121158 1.66114738355328 70.659592096896
-3.15266235721401 11.9062655298357 -2.43459355121158 1.76496909502536 340.26767468224
-2.41333466396616 12.2090434484282 -1.65552361482387 1.76496909502536 340.26767468224
-2.31431743828873 12.214619730397 -1.75290735687234 1.86879080649744 163.091277837666
5.17577776366371 11.2206886611052 3.59346008158829 -0.10382171147208 5.49043809030556
6.09175928159659 10.8762642840511 3.19418673918959 -0.10382171147208 5.49043809030556
5.53345777957481 11.2258184440254 2.99455006799024 0 10.2504806064543
-3.31281396639039 12.1168976051952 -2.79491339679089 1.66114738355328 28.6294354541711
-3.32940251966388 12.1775716434819 -2.49545838999187 1.76496909502536 79.3488070692472
-1.98093272080353 12.6147010733788 -1.5970933695948 1.86879080649744 25.1453367250105
-3.49948740545425 12.4061971564259 -2.76082908707393 1.66114738355328 5.95604649205701
-3.47384959888988 12.3153073642808 -3.16984080367748 1.76496909502536 14.0559030376862
-2.3261368183585 12.8295327633806 -1.94280565386684 1.86879080649744 7.71924834835313
-1.81998749459069 14.5514027584708 -1.60196255669722 1.86879080649744 10.8644685864972
-1.85871063277347 14.8610070724808 -1.63604686641418 1.86879080649744 8.06507047432654
14.2782308003351 9.88454382847109 -4.30192680499086 0.20764342294416 5.27822015368165
3.43926802605164 24.3919083031067 4.86918710242316 1.14203882619288 6.73582317220215
21.346295912467 45.2546833752576 -4.28488465013238 -0.31146513441624 6.46553081885095
