VERSION .7
FIELDS x y z velocity intensity
SIZE 4 4 4 4 4
TYPE F F F F F
COUNT 1 1 1 1 1
WIDTH 839
HEIGHT 1
VIEWPOINT 0 0 0 1 0 0 0
POINTS 839
DATA ascii
-0.436239 0.271805 0.691749 0.000000 0.780000
7.539870 -0.023988 7.078030 -9.768000 5.080000
7.854030 -0.024987 7.372950 -9.768000 11.610000
8.168190 -0.025987 7.667870 -9.768000 13.030000
6.796980 0.377741 9.434790 -11.188800 4.750000
8.482370 0.000000 7.962810 -9.768000 10.080000
7.365380 0.391732 9.548130 -11.100000 5.790000
6.819910 -0.429024 9.943530 -11.455200 2.870000
7.625800 0.521583 9.885730 -11.100000 6.320000
7.063470 -0.444347 10.298700 -11.455200 6.840000
7.305290 -0.539568 10.651200 -11.544000 8.300000
7.963080 0.703336 11.235000 -11.366400 7.490000
8.526230 0.159915 10.835500 -11.011200 8.170000
8.211930 0.725316 11.586100 -11.366400 7.580000
8.792680 0.164912 11.174100 -11.011200 8.170000
8.563100 0.169910 11.886300 -11.277600 5.700000
9.147590 0.169910 11.442600 -11.011200 6.550000
7.944340 1.712150 14.709400 -12.165600 7.150000
8.248810 1.450870 15.064300 -12.165600 9.300000
8.365630 1.487150 15.489500 -12.165600 10.710000
-0.347293 1.621000 18.021700 1.332000 9.150000
8.011570 0.041979 16.227900 -12.432000 9.220000
-0.355730 1.559690 18.459500 1.332000 8.670000
8.298220 -0.042978 16.566500 -12.432000 15.710000
-0.364003 1.595960 18.888800 1.332000 10.690000
8.490920 -0.161249 16.951200 -12.432000 17.040000
-0.372276 1.632230 19.318100 1.332000 8.770000
7.288640 -0.164914 17.967700 -12.520800 14.430000
-1.029400 1.011050 19.768800 1.332000 6.270000
8.325370 1.836430 17.894200 -12.520800 8.440000
-0.896068 1.033030 20.206100 1.332000 5.450000
8.647020 1.876350 18.217100 -12.520800 6.640000
-0.636645 1.102910 20.644000 1.332000 6.330000
8.712450 1.102910 18.726200 -12.520800 7.270000
-0.649908 1.125890 21.074000 1.332000 7.700000
8.893960 1.125890 19.116400 -12.520800 6.490000
9.077960 1.032410 19.511800 -12.520800 10.000000
-0.672540 2.627360 21.807900 1.332000 10.980000
9.258100 1.120940 19.899000 -12.520800 6.360000
-0.862629 0.866010 22.373400 1.332000 9.870000
-6.951010 1.333200 21.259600 -12.787200 7.460000
-0.879218 0.882664 22.803700 1.332000 7.460000
-7.417840 1.358840 21.556700 -12.698400 6.890000
-6.491440 1.384480 22.301800 -12.964800 6.990000
-6.919930 1.384480 22.172600 -12.787200 4.590000
-7.226430 1.135650 22.542300 -12.787200 5.380000
-7.178730 1.286730 23.001900 -12.787200 4.330000
-11.467600 1.972870 21.630100 -12.698400 8.260000
-11.498800 2.007480 22.098800 -12.698400 8.830000
-12.134900 1.949690 21.761300 -12.520800 9.440000
-11.349200 2.042090 22.657500 -12.787200 10.230000
-12.344100 1.983300 22.136500 -12.520800 8.960000
18.465300 1.697910 18.016000 -9.945600 9.400000
-11.229700 2.076700 23.195000 -12.964800 9.690000
-11.541500 2.076700 23.041500 -12.787200 8.750000
-12.726400 2.016920 22.414300 -12.432000 8.060000
18.776800 1.645090 18.320000 -9.945600 8.080000
-9.394400 1.482790 24.503900 -13.053600 7.450000
-11.733900 2.111310 23.425500 -12.787200 8.980000
-6.217110 1.115110 25.958400 -13.142400 7.660000
18.503900 1.531410 19.804100 -10.389600 4.650000
-6.160360 1.531410 26.394100 -13.142400 8.810000
18.800800 1.470550 20.121900 -10.389600 8.620000
-5.895930 1.555710 26.895000 -13.231200 8.370000
-10.718800 2.385130 25.297100 -12.964800 11.020000
19.087900 1.666500 20.429200 -10.389600 6.440000
-14.551200 2.547280 24.301700 -13.053600 8.790000
-10.708200 2.009200 28.588200 -12.698400 9.490000
-11.251300 1.941740 28.847500 -12.609600 4.900000
-10.616600 1.871610 29.550800 -12.787200 7.030000
-11.632700 1.968710 29.159300 -12.609600 8.300000
8.258800 0.665613 30.791300 -13.231200 6.150000
-10.120800 2.094090 30.165200 -12.964800 7.950000
8.354160 2.122390 31.146800 -13.142400 8.780000
9.844260 2.122390 30.708400 -13.142400 8.000000
9.941880 -3.437240 31.012900 -13.053600 7.110000
18.754700 1.179820 27.344700 -11.455200 7.150000
9.389120 -0.987355 32.257000 -13.142400 6.780000
19.000300 1.091250 27.702800 -11.455200 9.300000
19.243900 1.105240 28.057900 -11.544000 10.670000
19.062500 1.025330 29.219500 -11.721600 6.230000
19.296000 1.147210 29.577400 -11.721600 7.000000
-18.653100 -4.993470 30.614500 0.177600 7.390000
-19.356000 -4.993470 30.175000 0.355200 9.260000
-18.875200 -5.052920 30.978900 0.177600 7.730000
-20.394900 -3.393400 30.233000 0.621600 8.580000
-20.870000 -3.433320 30.428700 0.710400 7.720000
-21.106500 -3.588670 30.773600 0.621600 7.820000
-4.815830 2.461970 37.096100 -13.408800 6.890000
-4.654210 2.490270 37.550000 -13.497600 5.090000
-4.929340 2.163410 37.970400 -13.408800 8.930000
-4.762690 2.187720 38.425200 -13.408800 7.510000
-10.041400 1.259140 37.437300 -13.053600 7.300000
-10.152900 1.273130 37.853300 -13.053600 5.970000
-10.265500 1.164570 38.272900 -13.053600 9.540000
-19.273100 -2.358740 34.562100 -11.632800 6.480000
-19.212700 -2.384380 35.086900 -11.721600 8.830000
-19.394500 -3.159840 35.418800 -11.721600 5.420000
8.996400 -0.348152 39.933200 -13.320000 6.280000
9.091100 -0.351817 40.353500 -13.320000 7.590000
-18.455100 -3.002880 37.381900 -11.988000 9.790000
-8.560810 2.175950 41.734600 -13.231200 8.190000
-19.684100 -1.121300 37.829600 -11.810400 8.450000
-8.646240 2.297740 42.151100 -13.231200 4.930000
-19.882900 -1.132630 38.211700 -11.810400 8.900000
-8.729650 2.589480 42.557700 -13.231200 12.520000
10.530300 1.748670 43.967300 -13.320000 7.080000
10.629300 1.906470 44.380500 -13.320000 6.540000
-20.082600 1.354450 41.480700 -12.076800 4.280000
-19.947000 1.367110 42.023300 -12.076800 10.970000
-20.133400 1.234560 42.416100 -12.076800 13.600000
11.039200 0.549708 46.092300 -13.320000 9.320000
11.139900 0.406788 46.512700 -13.320000 7.490000
-17.978100 -0.554705 44.319100 -12.432000 14.330000
11.240300 0.410453 46.931800 -13.320000 8.250000
-18.140100 -0.559702 44.718300 -12.432000 9.540000
11.932300 -0.293849 52.965100 -13.408800 9.190000
-17.962600 -0.125936 51.235800 -12.787200 11.720000
12.027000 -0.296181 53.385500 -13.408800 16.610000
12.120600 -0.810225 53.800800 -13.320000 7.910000
11.482900 -0.816555 54.381000 -13.408800 17.710000
19.314400 -3.538110 56.128700 -13.053600 6.580000
21.282200 -1.241280 55.511400 -12.876000 5.640000
19.811600 -1.250270 56.509800 -12.964800 7.290000
22.509700 -1.250270 55.490300 -12.787200 7.640000
19.941100 -2.517990 56.879200 -12.964800 5.970000
22.656800 -2.517990 55.853000 -12.787200 6.270000
20.086000 -2.348220 57.292600 -12.964800 7.950000
22.821500 -2.348220 56.258900 -12.787200 7.660000
20.234900 -1.797490 57.717100 -13.053600 8.940000
20.041000 -1.810150 58.240400 -13.053600 5.650000
-14.110000 -2.140530 64.364500 -13.142400 5.960000
17.227800 1.524810 83.986800 -13.408800 7.030000
17.315200 1.265980 84.413100 -13.408800 5.720000
16.747400 1.272310 84.966800 -13.408800 4.320000
17.164700 1.029450 87.083900 -13.408800 5.910000
17.247400 1.310290 87.503100 -13.408800 5.750000
17.330700 1.316620 87.925800 -13.408800 7.380000
17.414700 1.044440 88.352100 -13.408800 7.040000
17.499000 0.489748 88.779500 -13.408800 10.250000
17.529000 7.092840 88.931700 -13.408800 12.810000
17.616200 6.844760 89.374400 -13.408800 9.870000
17.699300 6.877040 89.796000 -13.408800 9.220000
17.436800 5.825220 91.240700 -13.408800 18.510000
17.510400 6.429310 91.625800 -13.408800 18.250000
15.971800 5.347770 93.289700 -13.497600 8.860000
18.189100 2.356630 111.396000 -13.497600 6.960000
17.611800 2.365620 111.925000 -13.497600 11.130000
17.678800 2.374620 112.350000 -13.497600 11.040000
17.744500 2.736680 112.768000 -13.497600 7.010000
-10.726400 1.860990 126.216000 -13.497600 7.000000
-11.494800 1.867310 126.581000 -13.497600 12.780000
-10.799400 1.873640 127.075000 -13.497600 9.420000
17.113800 4.265090 177.086000 -13.586400 5.030000
17.156400 3.723830 177.527000 -13.586400 4.660000
6.748930 0.968960 8.889840 -10.567200 6.080000
8.088990 0.062968 8.361890 -9.768000 13.380000
7.008500 1.006230 9.231760 -10.656000 5.150000
8.321500 0.065300 8.735990 -9.856800 16.910000
8.460500 0.067632 9.196080 -9.945600 15.830000
7.064890 0.367094 10.300700 -11.011200 9.690000
8.752050 0.109943 9.512980 -9.945600 9.520000
7.226170 0.379752 10.711900 -11.100000 10.040000
7.552780 0.351114 11.012100 -11.011200 7.870000
9.019030 3.705810 10.350100 -10.389600 6.020000
7.170880 -1.492480 12.188100 -11.455200 7.820000
7.006190 -1.357360 12.795000 -11.632800 6.350000
7.214300 -1.350830 13.175000 -11.632800 5.580000
7.780140 1.799950 15.759100 -11.988000 4.880000
7.811080 0.658859 16.788900 -12.076800 8.320000
8.128760 0.337144 17.125300 -12.076800 10.010000
8.314520 0.164914 17.516700 -12.076800 10.880000
8.361210 0.107278 17.971300 -12.165600 8.990000
6.847350 0.109610 19.059300 -12.432000 6.080000
8.436690 0.109610 18.411000 -12.076800 5.930000
7.464460 -2.409290 19.138200 -12.343200 4.880000
18.189400 1.402370 13.009300 -7.992000 8.280000
18.539200 1.429340 13.259500 -7.992000 9.640000
-6.838360 1.414930 20.381900 -12.432000 6.750000
18.889000 1.456310 13.509700 -7.992000 6.560000
18.499200 1.081750 15.455900 -8.791200 7.090000
18.826900 1.176950 15.729600 -8.791200 6.140000
-6.113210 0.783463 23.330000 -12.698400 8.490000
-6.359540 0.797454 23.710300 -12.698400 10.370000
-6.330150 0.965934 24.157900 -12.698400 10.340000
-6.439290 0.982588 24.574500 -12.698400 6.190000
17.573400 1.236290 21.217200 -10.123200 4.990000
-10.916000 1.836950 24.314600 -12.432000 9.700000
18.538600 1.428650 20.946500 -10.212000 9.640000
-10.901300 1.866570 24.791500 -12.432000 7.120000
18.823800 1.450630 21.268700 -10.212000 13.990000
19.109100 1.472610 21.591000 -10.212000 13.710000
-10.512900 1.955460 26.352500 -12.787200 6.200000
-10.676600 1.806900 26.762700 -12.787200 12.680000
19.262100 1.560530 23.717600 -10.478400 5.590000
19.078700 1.560530 23.865300 -10.567200 9.010000
18.732900 1.654370 24.675500 -10.744800 8.370000
18.799700 1.677350 25.163800 -10.744800 8.130000
19.057300 1.700330 25.508500 -10.744800 8.750000
-10.392100 1.677350 29.642100 -12.432000 4.950000
-10.534500 1.700330 30.048100 -12.432000 7.200000
-10.029000 1.723300 30.673600 -12.520800 10.810000
-10.167000 1.468090 31.095600 -12.520800 10.850000
19.015200 1.631210 28.187900 -11.188800 8.100000
19.255900 1.651860 28.544700 -11.188800 13.440000
8.916160 -1.944640 33.242100 -12.876000 10.550000
9.743240 -1.672510 33.473600 -12.787200 15.430000
9.864940 -1.584000 33.891800 -12.787200 9.000000
9.250510 -2.017570 34.488700 -12.787200 9.260000
9.516050 -2.017570 34.416400 -12.609600 10.710000
-20.479700 -0.651301 30.358800 -10.922400 7.900000
-5.136840 1.846260 35.781600 -13.053600 6.280000
-20.483300 -0.658963 30.874800 -10.922400 5.300000
-5.197990 1.868240 36.207600 -13.053600 6.880000
10.075700 1.317720 35.637000 -12.787200 5.890000
9.984250 1.333040 36.109700 -12.787200 6.430000
-22.638400 -2.212030 31.940300 -10.656000 8.150000
20.061400 1.012050 37.144800 -11.810400 12.120000
10.919800 -0.899476 41.673700 -12.876000 7.240000
11.029000 -0.908471 42.090400 -12.876000 9.220000
11.243900 -1.441010 42.910600 -12.876000 9.570000
11.351900 -1.593520 43.322700 -12.876000 6.490000
-15.012600 -5.215270 42.821300 -12.343200 6.430000
-19.733200 1.685450 43.063000 -11.899200 10.060000
-20.829100 1.700770 43.022700 -11.810400 8.760000
-17.536400 0.000000 44.962000 -12.254400 9.970000
-29.540500 1.142340 46.052200 -11.011200 8.160000
-16.574100 0.125936 51.701600 -12.432000 9.460000
-29.769300 1.449760 46.408900 -11.011200 9.060000
-16.303500 0.126935 52.239200 -12.432000 13.540000
-30.001800 1.461090 46.771500 -11.011200 8.420000
-16.431900 0.127935 52.650500 -12.432000 8.910000
-30.231800 1.645590 47.130000 -11.011200 16.580000
-17.274400 0.128934 52.833600 -12.343200 4.600000
12.087500 -0.130933 55.138400 -13.053600 12.330000
11.166000 0.312506 56.649800 -13.053600 7.770000
12.015600 1.214290 56.904100 -13.053600 7.310000
12.104600 1.223290 57.325600 -13.053600 6.170000
20.993700 -2.314910 56.047600 -12.520800 6.680000
20.709000 -2.331560 56.612100 -12.520800 7.020000
21.018300 -0.898843 57.457600 -12.520800 7.670000
21.165200 -1.095720 57.859300 -12.609600 9.150000
20.527300 -0.719617 58.551400 -12.609600 9.360000
22.301500 -4.975070 59.539200 -12.432000 5.650000
21.669400 -3.820130 60.315900 -12.432000 7.760000
22.631800 -3.845770 60.421000 -12.520800 7.340000
21.165600 -0.839554 69.222800 -12.787200 7.370000
21.291600 -0.844551 69.634800 -12.787200 5.480000
21.417600 -0.849548 70.046900 -12.787200 6.190000
-14.056500 0.000000 79.342800 -12.964800 6.640000
34.535800 0.189903 74.230000 -12.165600 7.240000
34.716400 0.699968 74.618200 -12.165600 5.810000
35.475300 0.703633 74.737700 -12.165600 5.560000
-17.754800 6.457320 84.083700 -12.876000 6.050000
-17.843500 6.489600 84.504100 -12.876000 8.330000
-17.932300 6.521890 84.924500 -12.876000 9.090000
-18.678300 6.554180 85.203500 -12.787200 5.120000
17.749400 -0.618016 112.799000 -13.142400 5.630000
17.816300 -0.620348 113.225000 -13.142400 6.210000
17.882900 -0.978490 113.648000 -13.053600 7.520000
17.949900 -0.982155 114.073000 -13.053600 5.470000
-10.799800 1.479210 127.080000 -13.142400 12.800000
-10.836700 1.088430 127.513000 -13.142400 13.590000
-9.300010 1.110420 130.226000 -13.142400 10.790000
-9.330710 1.114090 130.656000 -13.142400 5.070000
-9.361400 1.117750 131.086000 -13.142400 6.500000
-9.392090 1.121420 131.516000 -13.142400 6.450000
-9.545260 1.554170 133.660000 -13.142400 7.920000
-9.576250 1.143400 134.094000 -13.142400 10.280000
-9.606950 1.147070 134.524000 -13.142400 9.400000
-9.637340 1.569170 134.950000 -13.142400 5.770000
17.240300 3.187540 178.395000 -13.142400 7.780000
17.281800 3.195200 178.824000 -13.142400 11.860000
7.733640 1.339440 7.994560 -9.768000 7.480000
7.942770 0.062968 8.500910 -9.856800 14.190000
8.321500 0.065300 8.735990 -9.856800 16.330000
8.531120 0.067632 9.130600 -9.945600 14.080000
8.749760 -0.936311 8.872290 -9.590400 6.590000
8.825300 0.069964 9.445450 -9.945600 6.210000
6.736190 0.704933 10.501400 -11.277600 8.160000
7.712270 0.782090 9.801110 -10.656000 5.800000
6.968470 0.729241 10.863500 -11.277600 8.320000
7.200750 0.753549 11.225600 -11.366400 9.290000
7.454530 4.951470 11.050500 -11.455200 9.030000
8.768550 -1.065460 11.143500 -10.567200 5.320000
7.504020 5.101520 11.502400 -11.632800 6.450000
8.332650 4.090780 11.334600 -11.100000 7.650000
8.577730 4.211090 11.667900 -11.100000 10.020000
8.440020 4.239190 12.305700 -11.277600 9.920000
8.493830 1.277380 13.940500 -11.544000 5.420000
7.502000 1.349860 14.977000 -11.810400 3.670000
7.694350 1.384470 15.361000 -11.899200 5.210000
8.025710 0.791998 15.718800 -11.988000 8.970000
8.221460 0.811315 16.102200 -11.988000 11.650000
8.293870 0.601588 16.557900 -11.988000 11.630000
8.591030 1.595960 16.826000 -11.988000 7.770000
8.849370 1.595960 16.691600 -11.810400 7.000000
8.177780 0.404764 17.577000 -12.165600 9.260000
8.120710 -3.542030 19.165400 -12.432000 7.240000
18.189400 1.402370 13.009300 -8.080800 6.210000
8.399350 -3.614310 19.508300 -12.432000 6.290000
18.539200 1.429340 13.259500 -8.080800 8.590000
18.731600 1.456310 13.727100 -8.169600 6.080000
9.014500 0.727502 20.500600 -12.343200 6.600000
18.300200 1.410110 14.992600 -8.791200 8.710000
9.026540 0.741492 20.965000 -12.343200 4.210000
18.633000 1.435750 15.265200 -8.791200 10.480000
-5.723720 0.341814 22.551100 -12.698400 8.640000
9.196850 0.755482 21.360600 -12.343200 6.680000
18.821700 1.309710 15.725300 -8.791200 10.490000
-6.564810 0.205226 23.219300 -12.698400 8.160000
-6.669180 1.537210 23.588500 -12.698400 6.130000
16.185000 1.591150 19.540900 -10.389600 7.860000
-6.596690 -3.447870 23.858000 -12.698400 5.430000
-11.420400 1.697910 23.132700 -12.343200 10.980000
18.531000 1.836950 19.156200 -9.768000 8.790000
-10.921600 1.888410 23.833800 -12.432000 10.270000
18.837600 1.699020 19.473100 -9.768000 5.030000
-11.100700 1.919370 24.224500 -12.432000 10.010000
-11.274500 2.117770 24.603800 -12.432000 5.400000
-10.390400 1.774490 29.637000 -12.432000 10.080000
-10.532700 1.798790 30.043000 -12.432000 7.440000
-10.498800 1.823100 30.510200 -12.520800 8.980000
-10.400200 1.847410 30.998100 -12.520800 6.130000
-9.877440 1.282360 31.649000 -12.609600 10.080000
-11.624900 1.589910 31.035500 -12.343200 10.940000
8.398140 -1.769260 32.050100 -12.964800 7.080000
18.559500 1.610560 27.974900 -11.277600 6.430000
-10.134000 1.315670 32.471000 -12.609600 7.040000
19.015200 1.631210 28.187900 -11.277600 8.900000
10.381300 -1.526040 32.383600 -12.787200 7.570000
19.035400 1.651860 28.692200 -11.277600 6.260000
10.644100 -1.564680 33.203400 -12.698400 7.370000
19.273300 1.672510 29.050900 -11.277600 7.360000
10.203900 -0.620651 33.372200 -12.876000 5.780000
10.329900 -0.628313 33.784200 -12.876000 6.030000
10.581900 -0.643638 34.608300 -12.698400 9.340000
-20.955500 -0.773550 30.553500 -10.833600 13.710000
-4.519840 1.515520 38.921000 -13.142400 7.120000
-4.872650 1.532170 39.312400 -13.142400 7.400000
19.515800 0.464753 34.997400 -11.810400 5.050000
-4.925610 1.548830 39.739700 -13.142400 7.330000
19.452800 -0.094951 36.018000 -11.899200 8.350000
19.657500 -0.095951 36.397100 -11.899200 8.850000
19.862300 -0.096950 36.776300 -11.899200 7.170000
-17.295200 -0.097950 38.523900 -11.988000 7.870000
9.280810 0.097950 41.195600 -13.053600 8.860000
11.050600 -0.494737 41.200000 -12.876000 7.940000
-17.398500 -4.794040 41.958900 -12.343200 8.790000
-19.267400 -0.105946 41.412600 -11.899200 8.070000
-19.449100 -0.106945 41.803200 -11.899200 7.620000
11.073000 2.066920 44.709100 -13.053600 5.250000
11.176500 2.086240 45.127000 -12.964800 9.890000
11.280000 2.105550 45.544800 -12.964800 8.090000
-15.332600 -5.120710 44.557300 -12.432000 8.280000
-19.406300 1.245890 43.226200 -11.988000 8.620000
-17.278100 -5.167260 44.299700 -12.254400 6.100000
-19.582800 1.257210 43.619200 -11.988000 7.410000
-19.759200 1.268540 44.012200 -11.988000 8.700000
19.767300 1.177290 44.954400 -12.343200 6.180000
-18.979300 0.574694 45.771200 -12.165600 7.210000
-19.144300 0.579692 46.169200 -12.165600 12.640000
-28.718900 1.582300 45.540000 -11.100000 7.580000
-16.738200 -0.458094 51.193700 -12.520800 7.720000
-28.951200 1.427110 45.908200 -11.100000 7.870000
-16.872700 -0.125936 51.604900 -12.520800 8.860000
-29.412400 1.321870 46.639700 -11.100000 8.240000
-29.644300 1.160320 47.007300 -11.100000 6.050000
-29.872000 1.342520 47.368400 -11.100000 9.170000
-19.244100 0.129934 52.607500 -12.343200 9.480000
11.572400 0.649655 54.804800 -13.142400 9.800000
11.511900 1.506390 56.121400 -13.142400 14.710000
11.928800 0.491077 56.492800 -13.142400 16.220000
22.330200 -2.665750 55.047700 -12.432000 11.270000
20.533500 -1.784830 57.154100 -12.698400 7.230000
20.679100 -1.797490 57.559400 -12.698400 6.800000
20.377400 -1.810150 58.123600 -12.698400 7.180000
18.922800 -2.781650 59.028300 -12.787200 4.940000
-14.952800 -1.511120 70.814000 -12.876000 7.070000
35.661700 -0.424448 69.845200 -11.988000 6.940000
35.857600 -0.426781 70.229000 -11.988000 4.980000
35.507500 -0.674315 70.887000 -11.988000 7.470000
-16.619100 6.457320 84.315500 -12.964800 5.000000
-16.702200 6.489600 84.737100 -12.876000 5.890000
-16.785300 6.521890 85.158600 -12.876000 10.560000
17.332300 0.485084 87.934000 -13.053600 9.680000
17.415300 0.765934 88.354900 -13.053600 7.350000
17.498600 0.769599 88.777600 -13.053600 6.760000
17.581900 0.773263 89.200400 -13.053600 9.310000
17.665200 0.776928 89.623100 -13.053600 6.930000
-16.898500 6.686830 91.282900 -12.964800 7.320000
-16.976700 6.717780 91.705500 -12.964800 7.680000
17.749600 0.000000 112.801000 -13.142400 8.620000
17.816600 0.000000 113.226000 -13.142400 9.270000
17.883600 0.000000 113.652000 -13.142400 7.640000
-11.496000 -0.294850 126.594000 -13.142400 6.500000
-11.535000 0.295849 127.023000 -13.142400 6.400000
-10.837000 0.296849 127.517000 -13.142400 5.900000
-9.544400 2.382990 133.648000 -13.231200 7.060000
-9.575080 2.390660 134.078000 -13.231200 8.150000
-9.605770 2.398320 134.508000 -13.231200 7.890000
17.199700 2.626900 177.975000 -13.231200 9.070000
17.241200 2.633230 178.404000 -13.231200 10.360000
17.282600 2.639560 178.833000 -13.231200 6.350000
7.429210 0.158247 7.799260 -9.856800 3.530000
7.726380 0.164577 8.111230 -9.856800 7.440000
8.024300 0.062968 8.423990 -9.856800 13.970000
8.237050 0.027986 8.815860 -9.945600 15.620000
8.531120 0.067632 9.130600 -9.945600 12.790000
6.398150 -1.303450 10.145600 -11.366400 5.840000
6.778830 -1.493990 10.390800 -11.366400 8.700000
6.929520 -1.545510 10.802800 -11.455200 8.360000
9.124960 -1.142190 10.845800 -10.389600 3.840000
6.872670 -1.235050 11.890000 -11.721600 5.680000
7.688490 2.048800 11.785100 -11.455200 7.470000
9.403200 -1.142920 11.176500 -10.389600 5.000000
7.087440 -1.273640 12.261600 -11.721600 7.590000
8.014830 2.110880 12.080800 -11.366400 7.550000
7.104600 -1.357360 12.740600 -11.899200 4.250000
8.002710 -0.351121 12.266800 -11.366400 8.500000
8.932430 0.174907 12.150400 -11.100000 7.750000
6.255290 -1.357360 13.178400 -11.988000 2.610000
9.292640 -3.026900 12.046500 -11.188800 6.430000
9.187640 0.179904 12.497600 -11.011200 8.180000
8.136130 -3.110980 13.353400 -11.544000 6.100000
8.260040 1.668250 14.039300 -11.721600 5.730000
8.477410 1.712150 14.408800 -11.721600 6.010000
7.905380 0.737410 15.782300 -12.076800 7.400000
8.222560 0.755396 16.104300 -11.988000 10.880000
8.419390 0.716123 16.489800 -11.988000 11.760000
8.383450 0.908522 16.981100 -12.165600 11.360000
8.449560 0.044977 17.452600 -12.254400 12.430000
8.774600 0.000000 17.773400 -12.254400 9.980000
7.212130 -2.063360 18.811800 -12.432000 9.070000
7.365580 -2.107260 19.212000 -12.520800 8.560000
8.042700 2.216110 19.396100 -12.343200 6.440000
8.775280 -4.886300 19.546300 -12.343200 7.750000
8.947350 -4.982110 19.929600 -12.343200 9.060000
18.296800 1.483270 14.989800 -8.791200 9.250000
18.633000 1.435750 15.265200 -8.791200 9.290000
-6.907300 1.903640 22.590500 -12.609600 8.120000
18.965700 1.461390 15.537800 -8.791200 4.700000
-7.032890 1.938250 23.001300 -12.698400 7.620000
18.309300 1.718430 16.924200 -9.324000 5.320000
-5.902600 0.645597 23.832800 -12.876000 6.970000
18.624900 1.748060 17.216000 -9.324000 7.530000
-6.002990 1.043170 24.238100 -12.876000 7.240000
-7.301310 1.043170 23.879100 -12.609600 6.550000
18.805100 1.777690 17.653200 -9.412800 5.540000
-6.106490 1.061150 24.656000 -12.876000 5.180000
-11.068700 1.061150 22.862500 -12.520800 5.820000
-11.062500 1.697910 23.306000 -12.520800 9.490000
18.538600 1.672050 19.164000 -9.945600 10.050000
-11.429200 1.726210 23.607000 -12.520800 8.210000
18.837600 1.699020 19.473100 -9.945600 10.010000
-10.918300 1.754510 24.319700 -12.698400 7.250000
-12.143400 0.784821 23.783500 -12.432000 5.140000
19.136600 1.725990 19.782200 -9.856800 5.330000
18.529900 1.666500 20.936600 -10.212000 11.190000
18.818400 1.604330 21.262500 -10.212000 14.200000
19.103500 1.628640 21.584700 -10.212000 12.730000
-11.016100 1.774490 29.410200 -12.432000 6.170000
-9.893600 1.798790 30.259500 -12.609600 11.170000
-10.263400 1.823100 30.590200 -12.520800 13.000000
19.117400 1.670420 26.536600 -11.100000 10.270000
8.463780 -2.251740 31.555500 -12.964800 5.740000
-10.165500 1.569270 31.091100 -12.609600 11.390000
19.366600 1.769260 26.882500 -11.100000 11.590000
8.575150 -2.281370 31.970700 -12.964800 9.320000
-10.117000 1.589910 31.559200 -12.698400 9.260000
19.196000 1.792240 27.530800 -11.188800 8.680000
8.684620 -2.414690 32.378900 -12.964800 8.440000
-10.248400 1.610560 31.969100 -12.698400 6.080000
9.037900 -2.944150 32.687100 -12.876000 7.150000
9.606940 -2.582930 33.005400 -12.964800 10.880000
-21.833100 -1.161200 28.303400 -10.389600 7.560000
9.723060 -1.382280 34.389900 -12.964800 8.410000
11.828400 -0.940080 33.739000 -12.609600 5.680000
-20.235500 -1.302400 30.501300 -10.922400 8.060000
-20.473600 -1.317720 30.860100 -10.922400 9.000000
-19.681400 -1.719210 32.869700 -11.188800 8.080000
-5.788880 2.000110 38.730600 -13.053600 7.540000
-4.870690 1.899640 39.296600 -13.142400 8.700000
-4.617320 1.920290 39.760500 -13.142400 8.440000
19.370900 0.991400 36.537200 -11.988000 8.030000
-19.080000 -1.598790 36.668500 -11.632800 7.650000
-17.759900 -1.516910 38.756700 -11.899200 9.930000
-18.903200 -0.381135 40.629800 -11.899200 11.940000
-19.085000 -0.384799 41.020500 -11.899200 7.360000
-19.267400 -0.105946 41.412600 -11.899200 5.340000
10.833500 1.510960 45.233400 -13.053600 7.610000
10.667400 1.815290 45.704600 -13.053600 6.970000
-19.805900 1.234560 42.570000 -11.899200 9.110000
-19.987600 1.245890 42.960600 -11.899200 5.060000
-20.169300 1.257210 43.351100 -11.988000 13.260000
-19.332100 0.421447 45.625000 -12.165600 8.970000
-18.520400 0.425112 46.424700 -12.254400 5.960000
19.931300 1.208270 46.292400 -12.432000 7.960000
-7.050380 1.079370 51.213700 -13.142400 7.910000
-7.407520 1.088370 51.598500 -13.142400 7.650000
-7.468740 1.097360 52.025000 -13.142400 7.240000
-30.118800 0.791235 44.647500 -10.922400 8.190000
-29.307900 1.133340 45.689600 -11.100000 10.010000
-29.184700 1.142340 46.278500 -11.100000 4.960000
20.408200 0.461759 50.309700 -12.520800 5.710000
-29.769300 1.449760 46.408900 -11.100000 5.680000
20.570200 0.465424 50.709000 -12.609600 8.920000
-30.001800 1.461090 46.771500 -11.100000 8.850000
20.731500 -0.639660 51.106700 -12.520800 10.560000
20.893500 -0.644657 51.505900 -12.520800 14.210000
12.311100 -0.303177 54.646600 -13.053600 16.870000
-3.586740 0.480083 56.331800 -13.231200 6.670000
12.829900 -0.305510 54.969700 -13.053600 14.230000
-3.614120 0.483748 56.761800 -13.231200 15.540000
20.243300 -0.331163 57.741200 -12.698400 4.540000
20.385900 -0.333495 58.147800 -12.698400 7.570000
16.903700 1.044440 88.451300 -13.142400 7.670000
16.984600 1.049440 88.874500 -13.142400 8.860000
17.065500 1.054440 89.297700 -13.142400 6.690000
17.145700 1.341930 89.717300 -13.142400 6.480000
17.747300 1.348260 90.039400 -13.142400 5.550000
-16.972900 7.006190 91.684700 -12.964800 5.730000
-17.583200 7.038480 92.007100 -12.964800 6.670000
18.281000 7.103050 92.747000 -13.142400 6.240000
18.391900 4.857420 93.309600 -13.142400 7.330000
17.645400 1.724030 95.317600 -13.142400 14.640000
-9.820600 0.690312 127.166000 -13.231200 6.190000
-9.853570 1.088430 127.593000 -13.231200 6.900000
-9.887080 0.297848 128.027000 -13.231200 4.880000
-9.920260 0.298847 128.456000 -13.231200 9.280000
-9.953430 0.299847 128.886000 -13.231200 11.760000
-8.542460 1.143400 134.164000 -13.231200 11.540000
-8.569580 1.564170 134.590000 -13.231200 8.300000
17.239300 3.741820 178.384000 -13.231200 5.910000
17.280700 3.750820 178.813000 -13.231200 6.420000
7.648590 0.060636 8.186060 -10.123200 5.390000
7.942770 0.062968 8.500910 -10.123200 13.080000
8.236950 0.065300 8.815750 -10.123200 14.470000
6.553770 -1.303450 10.045800 -11.366400 3.730000
8.530940 0.106278 9.130400 -10.123200 11.370000
6.787840 -1.350000 10.404600 -11.366400 7.840000
7.097820 -1.505810 10.698600 -11.366400 8.330000
6.942370 -0.640095 11.394200 -11.632800 6.660000
7.588060 -1.556000 10.882700 -11.277600 7.540000
7.437410 -0.618144 11.594600 -11.544000 5.220000
7.845710 0.889964 11.825900 -11.455200 6.600000
7.153150 3.213350 12.375300 -11.810400 5.730000
7.989310 0.916933 12.246200 -11.455200 8.750000
8.225850 0.897346 12.608800 -11.455200 10.350000
8.467470 0.867226 15.971200 -11.988000 8.580000
8.667750 0.945108 16.349000 -11.988000 9.550000
7.754170 1.011010 17.271900 -12.343200 6.960000
8.175250 0.629569 17.571600 -12.343200 7.060000
8.494220 0.704826 17.895200 -12.254400 9.890000
8.672010 1.079940 18.269800 -12.254400 8.020000
6.932110 -2.726650 19.295200 -12.520800 6.630000
9.014500 0.727502 20.500600 -12.432000 5.570000
-6.208700 0.882664 21.959800 -12.787200 10.270000
-6.927830 0.827404 22.197900 -12.698400 7.180000
18.147900 1.556420 15.162400 -8.880000 6.720000
-7.230170 0.842726 22.554000 -12.698400 7.260000
18.629400 1.510240 15.262400 -8.880000 7.080000
-5.826650 0.842726 22.956600 -12.876000 8.500000
18.811600 1.537210 15.716900 -8.968800 7.720000
-6.519240 2.199930 23.577900 -12.787200 4.840000
18.182100 1.641310 17.068400 -9.501600 6.510000
18.495500 1.669610 17.362600 -9.501600 7.830000
18.809000 1.697910 17.656900 -9.501600 5.930000
-11.413000 1.937200 23.117500 -12.520800 7.420000
-5.763170 1.807320 25.581500 -12.876000 6.520000
-11.608300 1.807320 23.513300 -12.609600 4.930000
18.410400 1.115110 19.327400 -10.034400 6.520000
18.852900 1.300840 19.489000 -10.034400 7.270000
-10.732600 1.672050 24.408000 -12.876000 9.610000
-6.414900 1.406670 26.784200 -12.964800 7.050000
18.650600 1.692140 21.403100 -10.389600 7.400000
-6.357010 1.493530 27.236600 -12.876000 8.570000
-12.571700 1.516510 25.464700 -12.609600 7.460000
18.933200 1.717780 21.727400 -10.389600 9.130000
-6.450050 1.867700 27.635300 -12.964800 8.370000
-12.562600 1.539480 25.948100 -12.609600 5.780000
18.726400 1.845970 24.666800 -10.922400 5.150000
18.986500 1.871610 25.009400 -10.922400 4.270000
19.246600 1.897250 25.352000 -10.922400 5.280000
-10.128200 1.700330 30.187500 -12.698400 7.700000
-10.265100 1.723300 30.595400 -12.698400 5.730000
-10.402000 1.746280 31.003300 -12.698400 6.810000
-10.538800 1.769260 31.411300 -12.698400 7.970000
8.257720 -1.714380 32.534900 -13.053600 5.580000
9.369210 -1.545360 33.138300 -12.964800 5.550000
11.089400 -1.672510 33.052100 -12.787200 7.750000
9.486320 -1.564680 33.552600 -12.964800 5.810000
10.319700 -1.693160 33.750800 -12.787200 5.100000
10.445500 -1.713800 34.162400 -12.787200 6.900000
-19.723900 -1.999030 31.817400 -11.100000 9.950000
10.472500 1.101280 35.979000 -12.964800 5.680000
-5.164050 2.022010 37.511500 -13.142400 7.690000
-22.372300 -2.666540 31.564800 -10.744800 7.440000
-5.441940 2.044990 37.906900 -13.142400 6.170000
-5.503750 1.978130 38.337500 -13.142400 8.080000
-5.565760 1.878990 38.769400 -13.142400 6.860000
-10.045000 1.042020 38.334900 -12.876000 5.290000
-9.855170 1.053340 38.828700 -12.876000 4.840000
-10.067700 0.981073 39.666000 -12.876000 7.930000
-18.192600 -2.002880 37.577000 -11.810400 7.900000
-18.862800 -2.044180 38.207500 -11.721600 7.570000
-17.927300 -2.197930 39.122000 -12.076800 10.810000
-18.755300 -2.064820 38.739200 -11.810400 7.720000
-8.405340 2.219910 42.643800 -13.053600 8.560000
-8.491080 1.970340 43.078800 -13.053600 8.520000
-8.574320 1.989650 43.501100 -13.053600 7.040000
-19.835100 -0.796885 40.177000 -11.899200 7.620000
-8.658730 1.870500 43.929300 -13.053600 8.090000
-19.712600 -0.804548 40.716500 -11.810400 8.670000
-14.946900 -6.720740 42.634100 -12.432000 6.010000
-19.900300 -0.812210 41.104300 -11.810400 10.020000
-14.575000 -5.122790 43.441000 -12.432000 4.290000
11.329600 2.209360 44.638000 -13.053600 5.870000
11.174900 2.230010 45.120500 -13.142400 4.910000
-15.458200 -4.785240 44.092500 -12.432000 8.670000
-19.804200 1.379770 42.566300 -11.988000 7.490000
11.278400 2.250660 45.538300 -13.142400 9.630000
-19.737200 1.392420 43.071700 -11.988000 5.940000
-19.916600 1.405080 43.463200 -11.988000 9.250000
-20.096100 1.417740 43.854800 -11.988000 14.530000
-17.892500 -13.740300 43.150200 -12.254400 16.370000
-16.895200 1.197940 47.027200 -12.432000 7.210000
-17.040900 1.208270 47.432600 -12.432000 5.700000
-7.964630 1.981830 50.616000 -13.142400 8.640000
-7.342410 1.998480 51.145000 -13.142400 8.430000
-7.405940 1.531670 51.587500 -13.142400 5.030000
20.276700 0.465424 50.827000 -12.609600 15.030000
20.434900 0.810225 51.223600 -12.609600 11.440000
11.809400 0.810225 53.870000 -13.142400 9.260000
20.594500 0.816555 51.623800 -12.609600 7.090000
11.482900 0.816555 54.381000 -13.231200 6.720000
11.082100 0.664647 56.224100 -13.231200 8.100000
21.459400 -1.088060 57.291000 -12.698400 10.320000
19.705700 -3.500360 58.733200 -12.787200 9.890000
20.297700 -3.524660 58.986400 -12.787200 8.130000
20.932300 -3.035290 59.706500 -12.698400 6.190000
-4.626010 1.745280 72.654100 -13.320000 8.240000
17.331400 1.039450 87.929400 -13.231200 6.110000
16.903700 1.044440 88.451300 -13.231200 6.520000
17.498000 1.049440 88.774900 -13.231200 5.330000
17.065500 1.054440 89.297700 -13.231200 6.190000
-16.186900 7.260910 91.368000 -13.053600 9.040000
-16.261900 7.294530 91.791000 -13.053600 7.000000
-17.047100 7.328140 92.085300 -13.053600 5.520000
17.228600 5.347770 93.065800 -13.231200 7.450000
17.870300 2.282290 93.509300 -13.231200 8.120000
14.138500 1.701040 94.593900 -13.231200 6.340000
16.757800 2.302940 94.590100 -13.231200 7.490000
17.560500 3.133850 94.859000 -13.231200 9.820000
18.278700 1.129400 95.645900 -13.231200 7.580000
18.358800 1.436880 96.065200 -13.231200 6.990000
27.302600 1.582470 104.196000 -13.053600 7.260000
27.411800 1.588800 104.612000 -13.053600 9.420000
27.521000 1.595130 105.029000 -13.053600 7.390000
27.628800 1.938580 105.441000 -13.053600 7.090000
17.681500 1.319300 112.367000 -13.231200 6.120000
17.748400 1.324300 112.793000 -13.231200 14.070000
17.814700 1.683750 113.214000 -13.231200 19.100000
17.880800 2.045850 113.634000 -13.231200 19.470000
17.068100 2.053510 114.194000 -13.231200 14.980000
-9.298880 2.321700 130.210000 -13.320000 6.150000
-10.084600 2.329360 130.584000 -13.320000 7.710000
-10.118700 1.524190 131.026000 -13.320000 8.580000
17.198900 3.179880 177.966000 -13.320000 8.000000
17.240300 3.187540 178.395000 -13.320000 5.700000
17.281800 3.195200 178.824000 -13.320000 5.410000
7.585360 0.025987 8.244860 -10.300800 5.270000
7.877110 0.026986 8.561970 -10.300800 10.950000
8.168850 0.027986 8.879080 -10.300800 12.040000
7.098500 1.455610 10.180600 -11.366400 6.820000
8.460600 0.028985 9.196190 -10.300800 8.800000
7.261890 1.505810 10.588000 -11.455200 6.900000
7.503950 1.556000 10.940900 -11.455200 8.210000
7.302460 1.648540 11.579600 -11.721600 5.890000
7.871490 1.447560 12.271300 -11.632800 7.880000
-7.521560 0.520958 12.561600 -11.455200 8.530000
8.103000 1.490140 12.632200 -11.632800 9.510000
-7.744340 0.443044 12.933700 -11.455200 9.110000
7.727300 1.484970 13.368600 -11.899200 8.930000
8.334520 1.532710 12.993100 -11.632800 7.330000
7.941950 1.526210 13.739900 -11.899200 7.550000
-7.975150 0.468361 13.797300 -11.544000 6.880000
7.938110 1.567460 14.235300 -11.988000 6.310000
8.340520 2.017230 15.443000 -12.165600 5.960000
-0.451819 1.453690 18.033700 1.420800 10.850000
8.326730 1.453690 16.002600 -12.254400 9.300000
-0.462429 1.559690 18.457100 1.420800 16.410000
8.398460 1.488300 16.448800 -12.254400 9.590000
-0.473089 1.639780 18.882600 1.420800 17.260000
8.463790 1.522910 16.897100 -12.254400 8.710000
-0.372202 1.677050 19.314300 1.420800 13.460000
8.131690 -2.094830 17.478000 -12.432000 8.860000
0.114017 1.958470 19.724100 1.420800 5.710000
8.301360 -2.369770 17.842600 -12.520800 8.770000
8.761820 -2.421290 18.097600 -12.520800 5.700000
-0.791935 2.298070 20.539900 1.420800 5.430000
9.132440 1.485960 18.498200 -12.520800 5.810000
-0.934198 1.076980 21.065900 1.420800 3.990000
8.066470 1.516920 19.453400 -12.609600 7.260000
-0.538856 1.148870 21.507600 1.420800 7.110000
7.107990 1.614330 20.274600 -12.698400 8.500000
-0.676517 1.120940 21.936900 1.420800 8.940000
7.409320 1.646620 20.623500 -12.787200 7.490000
-0.689782 1.142920 22.367000 1.420800 8.240000
-6.239890 1.886140 21.437600 -12.787200 5.670000
-0.875297 2.326770 22.702000 1.420800 4.860000
-6.657360 1.781610 21.773100 -12.787200 10.600000
-6.803700 0.000000 22.251700 -12.787200 11.760000
-6.929680 0.054972 22.663700 -12.876000 8.870000
-7.495750 0.708870 22.925700 -12.787200 4.270000
-6.676450 1.025180 23.614200 -12.964800 6.150000
-6.654570 1.043170 24.067400 -12.964800 8.330000
-6.580410 1.061150 24.533800 -12.876000 7.640000
15.312100 0.379793 20.828500 -10.123200 5.610000
15.567900 0.304838 21.176500 -10.123200 5.850000
18.390300 1.672050 19.306300 -10.123200 10.350000
-10.929300 1.280190 24.344300 -13.053600 7.430000
18.841100 1.615220 19.476800 -10.123200 10.670000
-10.914600 1.300840 24.821800 -13.053600 8.150000
19.140200 1.640860 19.786000 -10.123200 6.470000
-6.051300 1.555710 26.860500 -13.142400 4.350000
18.538600 1.428650 20.946500 -10.567200 8.950000
-5.988060 1.580020 27.315200 -13.142400 6.670000
18.821600 1.516510 21.266100 -10.567200 7.460000
-7.562690 1.867700 27.351700 -13.142400 9.060000
19.106700 1.539480 21.588300 -10.567200 5.680000
-10.465700 1.985090 26.833200 -13.231200 7.030000
-14.039600 2.014720 25.639600 -13.231200 5.990000
18.717200 1.585440 23.046700 -10.833600 9.480000
-14.254600 1.769050 26.032200 -13.231200 10.260000
18.988500 1.608420 23.380700 -10.833600 8.380000
-14.452500 2.073970 26.393700 -13.231200 9.870000
19.259800 1.631390 23.714700 -10.833600 7.000000
18.993100 1.677350 25.018200 -11.100000 4.610000
-10.384500 2.065790 29.620200 -12.698400 4.560000
-10.353000 2.094090 30.086300 -12.787200 5.800000
-10.257500 2.122390 30.572800 -12.787200 9.660000
-11.543900 2.122390 30.110700 -12.609600 4.720000
-5.683090 3.336500 32.078500 -13.231200 9.600000
-9.975520 2.150690 31.117900 -12.876000 9.470000
-11.697900 2.150690 30.512200 -12.609600 5.640000
-5.569900 3.380400 32.533300 -13.231200 6.590000
-11.851800 2.178990 30.913600 -12.609600 6.750000
8.816220 0.815840 32.869500 -13.142400 10.020000
-11.069400 1.210460 32.168300 -12.787200 6.200000
8.734000 1.012670 33.331800 -13.142400 7.950000
10.666800 -3.193780 32.624200 -12.964800 6.140000
8.790850 -1.492810 34.635300 -13.142400 8.670000
19.300800 0.951406 30.605500 -11.721600 9.980000
-19.688800 -1.363680 32.881900 -11.366400 4.950000
-20.417800 -1.498860 32.936800 -11.277600 9.200000
-20.387400 -1.515520 33.460900 -11.277600 6.160000
-5.790600 1.757850 38.742100 -13.320000 9.480000
-5.453430 2.631760 39.613600 -13.320000 6.220000
-10.152300 1.301110 38.744500 -13.053600 7.860000
-10.262400 1.189890 39.164900 -12.964800 7.170000
-10.372500 1.075990 39.584900 -12.964800 5.780000
11.673900 1.486260 40.106400 -13.053600 7.830000
-18.094300 -1.632100 38.120200 -12.076800 6.940000
10.454400 10.894400 39.897600 -13.231200 9.300000
-18.276700 -1.780580 38.504400 -12.076800 10.350000
10.257400 10.875500 40.413600 -13.231200 7.140000
-17.935000 -1.798560 39.138800 -12.165600 5.490000
9.808540 10.984300 40.953700 -13.231200 10.350000
-8.241920 1.970340 43.127100 -13.231200 9.080000
-8.069680 2.126770 43.591100 -13.231200 12.650000
-7.883640 2.168060 44.499600 -13.231200 8.690000
-13.440300 -3.596840 43.956900 -12.520800 9.630000
10.818000 2.912610 45.168600 -13.231200 7.600000
-16.718300 -6.989870 42.864300 -12.432000 12.070000
11.269200 2.939580 45.501300 -13.320000 4.770000
-19.555900 1.524960 42.676000 -12.165600 11.360000
-19.983900 1.538950 42.952800 -12.165600 6.400000
-20.163500 1.700770 43.338700 -12.165600 6.530000
-20.089700 1.865250 43.840900 -12.165600 9.120000
23.955100 -0.740596 44.354300 -12.165600 7.490000
11.543600 2.436490 49.458500 -13.320000 7.090000
11.641400 2.457140 49.877700 -13.320000 7.670000
20.393700 2.098410 50.273900 -12.698400 5.800000
-16.303300 0.296181 52.238500 -12.787200 8.430000
20.555500 2.115060 50.672900 -12.787200 7.720000
-16.118800 1.790770 52.716900 -12.787200 6.420000
11.902100 -0.644657 54.293100 -13.320000 8.890000
11.994800 -0.476418 54.715700 -13.320000 8.330000
13.146700 -0.654652 54.891700 -13.320000 7.670000
10.997800 -1.011430 55.796300 -13.408800 8.440000
12.271800 -0.310174 55.979500 -13.320000 8.930000
11.602400 0.133932 56.562700 -13.320000 10.110000
11.689000 0.134931 56.984800 -13.320000 7.960000
19.601100 -3.216830 56.962000 -12.964800 8.500000
21.889400 -3.216830 56.122500 -12.787200 6.960000
19.754500 -2.348220 57.407700 -12.964800 6.570000
22.060600 -2.348220 56.561600 -12.787200 8.110000
19.389400 -3.331720 59.302300 -12.964800 7.090000
19.982700 -3.354700 59.559000 -12.964800 9.010000
20.116200 -3.573280 59.956800 -12.964800 9.860000
22.481000 -3.820130 60.018200 -12.787200 8.810000
22.631800 -3.845770 60.421000 -12.787200 7.410000
-15.740300 -1.721590 63.554000 -13.053600 6.250000
-14.979600 -1.732920 64.180000 -13.053600 6.130000
-15.450600 -1.744240 64.511200 -13.053600 8.880000
16.665300 0.732951 84.550100 -13.320000 8.430000
16.748600 0.736616 84.972900 -13.320000 5.760000
16.832000 0.740281 85.395600 -13.320000 5.610000
16.999000 0.475755 86.243000 -13.320000 6.430000
17.082300 0.478087 86.665700 -13.320000 7.050000
17.249200 0.206894 87.512300 -13.320000 5.410000
17.332500 0.207894 87.935100 -13.320000 5.670000
17.414700 1.044440 88.352100 -13.408800 10.580000
17.497300 1.329280 88.771300 -13.408800 8.330000
17.580700 1.335600 89.194000 -13.408800 10.580000
17.664700 1.059440 89.620300 -13.320000 7.880000
14.263200 2.537080 95.428200 -13.408800 8.480000
18.279800 0.225885 95.652100 -13.408800 9.250000
18.358800 1.436880 96.065200 -13.408800 8.640000
17.133500 2.354580 96.711000 -13.408800 10.610000
16.646900 2.364900 97.233000 -13.408800 12.840000
27.412900 1.254330 104.617000 -13.231200 10.120000
27.521000 1.595130 105.029000 -13.231200 7.810000
27.630200 1.601460 105.446000 -13.231200 8.610000
17.745800 2.383610 112.776000 -13.408800 5.880000
17.812700 2.392610 113.202000 -13.408800 6.740000
17.879700 2.401600 113.627000 -13.408800 6.780000
17.946700 2.410600 114.053000 -13.408800 8.420000
-10.763400 1.474220 126.650000 -13.497600 11.730000
-10.799800 1.479210 127.080000 -13.497600 10.380000
-10.836300 1.484210 127.509000 -13.497600 13.790000
-10.019100 1.509200 129.737000 -13.497600 13.560000
-10.052300 1.514190 130.166000 -13.497600 10.450000
-10.085800 1.114090 130.600000 -13.497600 7.530000
-10.119000 1.117750 131.030000 -13.497600 6.850000
17.197900 3.732830 177.955000 -13.497600 5.850000
17.239300 3.741820 178.384000 -13.497600 5.260000
17.280700 3.750820 178.813000 -13.497600 5.030000
