VERSION .7
FIELDS x y z velocity intensity
SIZE 4 4 4 4 4
TYPE F F F F F
COUNT 1 1 1 1 1
WIDTH 977
HEIGHT 1
VIEWPOINT 0 0 0 1 0 0 0
POINTS 977
DATA ascii
6.729720 0.175908 19.557000 -10.389600 8.790000
-7.624030 2.107260 19.110900 -9.945600 5.290000
-8.574160 2.043620 18.711000 -9.768000 8.570000
7.405920 0.179573 19.771800 -10.300800 5.810000
-7.367650 2.151160 19.669700 -10.034400 7.990000
7.401110 0.249867 20.232400 -10.389600 6.600000
-7.537800 1.547880 20.123900 -10.034400 9.510000
7.549130 0.254864 20.637000 -10.389600 6.080000
7.549130 0.254864 20.637000 -10.300800 15.880000
7.697150 0.259862 21.041600 -10.300800 16.930000
4.970840 1.599920 22.675100 -10.656000 7.970000
4.884740 1.629550 23.133300 -10.656000 5.660000
7.529810 -1.135650 22.442800 -10.478400 6.620000
5.161970 -1.081750 23.547000 -10.656000 6.930000
17.869400 1.584720 16.138500 -7.725600 7.180000
5.254150 -1.101070 23.967500 -10.656000 6.950000
-7.487160 1.309710 23.355600 -10.300800 4.580000
-8.425830 1.309710 23.033600 -10.123200 7.720000
17.997300 1.613020 16.635900 -7.725600 5.530000
6.653680 -1.120390 24.064100 -10.567200 9.430000
-7.755760 1.332690 23.720900 -10.212000 5.710000
7.755110 -0.982588 24.191500 -10.478400 8.080000
-8.075220 1.355670 24.068400 -10.212000 6.220000
7.696700 -0.999242 24.661500 -10.478400 9.900000
6.117600 -1.015900 25.542900 -10.656000 9.760000
7.824980 -1.015900 25.072600 -10.478400 7.550000
7.263010 -1.032550 25.688800 -10.656000 11.210000
7.383120 -0.713554 26.113700 -10.567200 5.690000
5.165430 -1.811110 27.028900 -10.744800 7.030000
7.704550 -0.724881 26.469600 -10.567200 9.530000
6.568840 -3.661930 27.427000 -10.656000 6.130000
18.174700 1.539480 22.378700 -8.702400 7.570000
18.446000 1.562460 22.712700 -8.702400 4.540000
7.635230 -3.919550 28.466400 -10.567200 5.240000
18.717200 1.585440 23.046700 -8.702400 7.270000
7.401260 -2.167030 29.160500 -10.656000 4.130000
18.002100 2.260060 24.096100 -8.968800 6.730000
5.905920 -1.820330 29.963200 -10.656000 8.840000
18.267400 2.103600 24.451300 -8.968800 9.260000
18.528500 2.037490 24.800800 -8.968800 8.930000
6.320730 -0.072963 30.814000 -10.744800 10.180000
18.785900 2.065790 25.145300 -8.968800 4.550000
6.407310 -0.073962 31.236100 -10.744800 6.410000
6.493900 -0.074962 31.658200 -10.744800 6.920000
18.343500 2.130520 28.596700 -9.412800 8.410000
18.575700 2.157490 28.958700 -9.324000 5.600000
-8.127100 0.836494 33.933200 -10.567200 6.770000
18.807900 2.184460 29.320700 -9.324000 9.710000
-7.097970 0.846821 34.603200 -10.567200 8.660000
19.040100 2.211430 29.682700 -9.412800 7.790000
-7.386880 0.857148 34.983000 -10.656000 6.760000
9.166660 1.510790 34.983000 -10.656000 9.250000
7.566540 -0.424774 35.833900 -10.656000 12.740000
7.655560 -0.429771 36.255500 -10.656000 5.680000
-13.929200 1.126600 35.713300 -13.764000 6.190000
-14.085700 1.139260 36.114600 -13.764000 5.040000
19.016200 2.136900 35.209700 -9.768000 6.800000
19.220700 2.159870 35.588200 -9.768000 10.400000
-26.577800 1.455620 31.100100 -8.080800 5.580000
18.786300 2.110010 36.794000 -9.856800 9.650000
-27.159100 1.470940 31.167300 -8.080800 6.310000
-27.442000 1.486260 31.491900 -8.080800 9.100000
19.177700 2.153970 37.560600 -9.856800 4.910000
-27.721700 1.632100 31.813000 -8.080800 8.090000
19.367800 2.406500 37.932800 -9.856800 9.030000
19.858100 2.430800 38.164000 -9.856800 9.620000
19.240900 2.219910 38.973400 -9.945600 6.390000
19.431400 2.241880 39.359300 -9.945600 10.430000
19.621900 2.263860 39.745200 -9.945600 13.350000
19.815400 2.147420 40.137200 -9.945600 17.700000
19.693000 2.168060 40.676100 -9.945600 15.720000
19.877600 2.329800 41.057200 -10.034400 19.620000
20.065100 2.351780 41.444600 -10.034400 17.110000
19.731000 1.831940 43.058100 -10.034400 11.950000
19.907900 1.996400 43.444100 -10.034400 6.650000
20.084500 2.163510 43.829600 -10.034400 10.960000
19.238600 2.032370 44.683600 -10.123200 5.780000
19.755700 2.050360 44.928100 -10.123200 7.240000
19.929000 2.068350 45.322200 -10.123200 7.130000
-11.530200 2.221460 48.142200 -12.698400 7.500000
20.102300 2.086330 45.716300 -10.123200 9.860000
-13.309100 2.086330 48.134800 -12.609600 9.290000
20.275600 2.104320 46.110400 -10.123200 10.700000
19.461200 1.965180 46.933300 -10.212000 11.710000
10.303000 0.594684 50.227800 -10.744800 8.330000
19.990300 1.981830 47.178400 -10.212000 6.390000
9.998880 0.599681 50.728500 -10.744800 7.200000
20.155800 2.158270 47.568900 -10.212000 6.840000
10.082200 0.604678 51.151200 -10.744800 7.310000
20.321000 2.337360 47.958900 -10.212000 15.860000
10.165500 0.609676 51.574000 -10.744800 8.620000
19.741200 2.356680 48.665400 -10.212000 7.470000
19.903000 2.375990 49.064200 -10.212000 6.590000
11.712800 -3.838730 51.990500 -10.744800 16.210000
20.067500 2.230220 49.469800 -10.212000 7.150000
8.356050 -3.371080 53.103500 -10.744800 8.970000
20.229300 2.248200 49.868700 -10.212000 10.350000
7.791950 -13.011400 52.132200 -10.744800 14.710000
8.965670 -13.114700 52.367600 -10.833600 14.440000
20.026700 2.131720 51.346700 -10.300800 9.800000
20.185500 1.976580 51.753800 -10.300800 8.670000
20.201200 1.352850 52.692000 -10.300800 7.020000
20.356900 1.187310 53.097900 -10.300800 15.670000
20.511100 1.196300 53.500200 -10.300800 6.860000
20.665300 1.205300 53.902400 -10.300800 12.410000
20.381400 2.331560 56.730800 -10.389600 6.610000
20.527000 2.348220 57.136100 -10.389600 6.140000
20.672600 2.364870 57.541300 -10.389600 6.950000
20.818200 2.381530 57.946500 -10.389600 5.460000
20.963700 2.398180 58.351700 -10.389600 6.630000
20.317300 2.221730 59.043100 -10.389600 9.600000
20.457400 2.237060 59.450300 -10.389600 8.530000
20.595100 2.448140 59.850600 -10.389600 8.210000
20.737600 2.267700 60.264700 -10.389600 9.440000
20.409500 2.283020 60.831000 -10.478400 6.530000
20.541600 2.697840 61.224600 -10.478400 10.800000
20.678500 2.715830 61.632700 -10.478400 15.360000
20.818000 2.531410 62.048600 -10.478400 15.280000
-9.483950 2.581380 66.062300 -10.744800 10.520000
-9.546230 2.390280 66.496200 -10.744800 10.670000
-9.607420 2.405600 66.922400 -10.744800 18.050000
21.407800 2.378370 70.014700 -10.478400 9.510000
21.535800 2.164590 70.433300 -10.478400 12.970000
21.661700 2.177240 70.845100 -10.478400 16.400000
21.787600 2.189900 71.257000 -10.478400 8.200000
21.685800 1.171030 76.701200 -10.567200 7.730000
21.358400 0.681645 77.246100 -10.567200 8.220000
-16.994600 -2.672170 80.483800 -10.567200 12.620000
-17.575700 1.014460 85.682800 -10.656000 5.620000
-16.998100 1.019460 86.238400 -10.656000 6.380000
21.831000 2.127380 86.012700 -10.656000 6.080000
22.604000 1.861920 86.264500 -10.656000 9.030000
22.713200 1.870910 86.681300 -10.656000 7.610000
23.043400 1.335600 87.941200 -10.656000 5.320000
23.153500 1.059440 88.361500 -10.656000 6.390000
22.168000 0.499077 89.507000 -10.656000 7.210000
22.271100 0.787923 89.923300 -10.656000 7.270000
22.374700 0.791587 90.341500 -10.656000 5.230000
21.778100 0.795252 90.930300 -10.656000 9.420000
22.576200 2.251300 91.155100 -10.656000 5.730000
22.679700 2.261630 91.573300 -10.656000 11.110000
22.782000 2.491780 91.986100 -10.656000 11.460000
23.092600 2.525760 93.240400 -10.656000 12.480000
-54.170100 -17.596000 114.123000 -9.679200 6.280000
-54.353100 -17.655500 114.509000 -9.679200 8.740000
-54.536100 -17.714900 114.894000 -9.679200 11.400000
-56.172600 -19.679400 113.781000 -9.501600 9.790000
-56.361100 -19.745400 114.162000 -9.501600 5.930000
-56.549600 -19.811500 114.544000 -9.501600 8.530000
22.225900 1.814040 154.819000 -10.833600 10.600000
22.286200 2.304080 155.239000 -10.833600 8.620000
22.345000 3.283090 155.648000 -10.833600 6.520000
-60.604400 -14.199000 151.915000 -9.945600 7.060000
-59.587700 -14.236300 152.778000 -9.945600 8.100000
-59.743700 -14.273500 153.178000 -10.034400 7.260000
-59.899700 -14.310800 153.578000 -10.034400 5.130000
-62.127000 -14.348100 153.154000 -9.856800 5.980000
-5.325850 2.003930 172.697000 -10.833600 5.500000
-6.673330 2.008930 173.082000 -10.833600 5.540000
-5.352420 2.013930 173.559000 -10.922400 4.590000
-4.413960 1.498890 176.176000 -10.833600 6.580000
-4.424750 1.502550 176.607000 -10.833600 5.670000
-4.435410 2.053910 177.032000 -10.833600 7.120000
-4.446200 2.058910 177.463000 -10.922400 6.890000
6.912860 -0.904536 5.065970 -6.482400 6.490000
6.858350 0.838368 5.843190 -7.192800 10.570000
7.144140 -0.949763 5.471910 -6.660000 5.480000
6.062730 1.303780 6.589840 -7.992000 6.900000
6.217240 1.365860 7.024740 -8.080800 4.070000
6.496920 0.650866 7.455760 -8.169600 7.810000
6.704130 0.679165 7.844870 -8.169600 9.170000
6.926230 0.549481 8.232390 -8.258400 7.780000
7.104650 1.396560 10.708900 -8.968800 3.730000
-8.214720 1.402030 10.439600 -8.258400 2.520000
7.046740 1.404840 11.768600 -9.235200 4.450000
-8.375500 1.447260 10.857600 -8.258400 6.620000
6.250010 1.107570 12.241000 -9.590400 4.170000
7.197940 0.846069 12.234100 -9.412800 3.550000
-8.624070 1.627800 11.731000 -8.436000 6.850000
7.532520 0.943902 13.031600 -9.324000 7.880000
-9.181810 1.211410 11.902900 -8.258400 6.450000
6.822430 1.536550 13.362100 -9.590400 3.490000
7.017350 1.580450 13.743900 -9.501600 6.450000
-7.935710 1.617860 14.231000 -9.146400 6.360000
6.902030 -0.632853 14.835000 -9.768000 9.510000
-8.031740 1.660440 14.667800 -9.146400 4.570000
6.877660 -0.649507 15.319500 -9.856800 12.790000
6.937640 -0.146590 15.777400 -9.856800 12.720000
8.800540 -1.691210 15.225300 -9.235200 4.720000
-9.275380 1.487150 14.962500 -8.880000 10.800000
5.137240 -1.854300 16.801500 -10.212000 8.430000
8.773700 -1.732460 15.733800 -9.235200 4.300000
5.260800 -1.955180 17.205600 -10.212000 11.230000
5.011510 -2.001730 17.725400 -10.212000 9.080000
6.783960 1.714310 18.545300 -10.123200 4.050000
6.821790 1.751580 18.988200 -10.123200 8.790000
-8.271350 1.517470 18.423800 -9.590400 4.420000
6.966940 1.788850 19.392200 -10.123200 2.770000
-8.595930 1.422150 18.758500 -9.590400 5.180000
6.962900 1.695970 19.860700 -10.123200 6.110000
-8.789260 0.816048 19.180400 -9.590400 5.300000
6.397980 1.730580 20.500200 -10.212000 6.720000
7.546380 0.645578 20.629500 -10.123200 4.600000
7.696450 0.398443 21.039700 -10.123200 4.880000
7.844860 0.335484 21.445400 -10.123200 3.370000
7.866430 0.341814 21.895900 -10.123200 10.250000
8.115460 -1.903640 22.185200 -10.212000 18.310000
6.667850 1.613020 23.583800 -10.300800 7.530000
5.345560 1.197600 24.384400 -10.389600 4.300000
4.429180 1.296780 25.000700 -10.389600 5.180000
7.216110 1.318760 24.791500 -10.212000 8.170000
8.542500 1.318760 24.366300 -10.212000 6.290000
6.658330 -0.934660 25.410400 -10.389600 5.780000
6.767490 -0.949982 25.827000 -10.389600 7.810000
-7.462430 -0.867406 25.637700 -10.123200 7.690000
6.522050 -0.965305 26.333900 -10.389600 8.270000
-7.582790 -0.881396 26.051300 -10.123200 7.680000
6.780110 -0.980627 26.713200 -10.389600 5.570000
4.882310 -1.082510 27.558400 -10.478400 5.520000
5.162260 -2.130910 27.885700 -10.478400 8.160000
6.711170 -1.806900 28.021200 -10.389600 9.050000
8.152340 0.449422 29.484300 -10.389600 8.490000
18.598700 1.871610 25.299100 -8.791200 6.200000
18.853500 1.897250 25.645700 -8.791200 7.790000
6.998850 -1.626470 31.066500 -10.389600 6.290000
18.853400 2.022650 26.170200 -8.880000 5.420000
7.099610 -0.949380 31.513700 -10.389600 5.950000
6.765100 -0.481071 32.038400 -10.478400 5.230000
7.104840 -0.076961 32.409600 -10.478400 5.970000
7.828330 -0.077960 32.685700 -10.389600 8.370000
7.057260 -0.929438 38.122100 -10.478400 7.290000
19.287800 1.777170 34.588600 -9.412800 7.530000
18.951000 1.940930 35.745100 -9.501600 6.530000
19.152600 1.961580 36.125400 -9.501600 12.710000
19.354200 1.982230 36.505700 -9.501600 9.530000
-26.916200 1.632100 32.497300 -8.080800 6.560000
19.555800 2.002880 36.885900 -9.501600 9.540000
-27.190900 1.648750 32.828900 -8.080800 15.970000
19.180700 2.023530 37.566300 -9.590400 10.110000
-27.468700 1.532230 33.164300 -8.080800 18.780000
19.376400 2.044180 37.949700 -9.590400 8.520000
19.572100 2.064820 38.333000 -9.590400 9.990000
19.767800 2.085470 38.716300 -9.590400 15.730000
-6.299700 2.126770 43.881800 -10.478400 8.380000
19.315000 2.263860 39.895200 -9.768000 13.940000
19.505500 2.147420 40.288700 -9.768000 13.320000
19.693000 2.168060 40.676100 -9.768000 6.890000
19.429600 2.066920 41.761300 -9.768000 6.780000
19.611200 2.086240 42.151600 -9.768000 6.600000
19.790000 2.250660 42.535800 -9.768000 13.060000
19.749400 2.086330 45.869900 -9.856800 9.990000
19.819800 2.122300 46.776100 -9.945600 6.050000
10.562300 0.772246 51.492000 -10.478400 5.620000
10.648900 0.778575 51.914100 -10.478400 6.510000
10.735900 0.619670 52.338300 -10.478400 10.100000
10.822500 0.624668 52.760300 -10.478400 11.240000
-23.842800 -0.973120 49.247600 -9.412800 7.540000
-24.029100 -1.151330 49.632400 -9.501600 14.860000
20.509700 1.373500 53.496400 -10.123200 5.240000
20.819500 1.214290 54.304700 -10.123200 14.290000
20.551500 1.223290 54.866900 -10.123200 8.670000
26.130200 -0.867194 52.928200 -9.679200 6.050000
20.413200 2.298260 55.803300 -10.123200 7.550000
20.561100 2.314910 56.207700 -10.123200 5.780000
20.709000 2.331560 56.612100 -10.123200 6.880000
20.529400 2.160440 57.142600 -10.123200 7.810000
20.230800 2.175770 57.705500 -10.212000 7.450000
18.354600 1.095720 58.811300 -9.146400 7.530000
20.359600 3.143030 58.073000 -10.123200 6.820000
18.483900 0.911503 59.225600 -9.146400 8.580000
20.502000 3.165010 58.479100 -10.123200 8.250000
20.644400 3.186990 58.885200 -10.123200 6.710000
20.792900 2.820280 59.308900 -10.123200 9.870000
20.595100 2.448140 59.850600 -10.212000 6.990000
20.735200 2.464800 60.257700 -10.212000 13.850000
20.877700 2.283020 60.671900 -10.212000 13.440000
21.017900 2.298340 61.079100 -10.212000 8.540000
20.683400 2.313670 61.647500 -10.212000 8.100000
20.339200 2.531410 62.207200 -10.212000 14.690000
20.952400 2.751800 62.449100 -10.212000 18.760000
-4.726900 0.153921 66.189800 -10.567200 13.890000
20.606800 2.564720 63.025800 -10.212000 8.830000
20.745200 2.168510 63.449000 -10.212000 7.410000
-9.279150 2.420920 67.403400 -10.478400 7.480000
21.657300 2.635430 70.830900 -10.300800 17.010000
21.783300 2.650760 71.242700 -10.300800 14.310000
21.909200 2.666080 71.654500 -10.300800 8.360000
22.032600 2.914460 72.058100 -10.300800 14.950000
21.932500 0.699968 79.322600 -10.300800 13.030000
21.542200 1.221670 80.315900 -10.300800 16.380000
21.727700 2.253930 82.920100 -10.300800 5.990000
21.836900 2.265250 83.336700 -10.389600 14.870000
21.939800 3.079780 83.729400 -10.389600 5.870000
22.274900 2.106720 85.008400 -10.389600 7.510000
22.385600 1.843930 85.431100 -10.389600 6.900000
22.713200 1.870910 86.681300 -10.389600 13.300000
22.820900 2.158360 87.092000 -10.389600 14.470000
22.930000 2.168690 87.508700 -10.389600 11.350000
22.474200 1.951860 90.743300 -10.389600 9.740000
22.577700 1.960860 91.161500 -10.389600 9.930000
22.679700 2.261630 91.573300 -10.389600 7.120000
-26.884800 2.772190 90.413900 -10.123200 6.660000
-27.009900 2.491780 90.834600 -10.123200 5.660000
-27.132700 2.503100 91.247400 -10.123200 5.850000
20.650200 1.040790 120.616000 -10.478400 9.750000
20.723000 1.044460 121.041000 -10.478400 6.260000
20.795000 1.429240 121.462000 -10.478400 4.660000
19.926900 1.816680 122.039000 -10.567200 8.990000
-55.691500 -19.416300 115.031000 -9.324000 9.220000
-55.877200 -19.481000 115.415000 -9.324000 5.480000
-56.062800 -19.545800 115.798000 -9.324000 5.830000
22.407600 2.804420 156.084000 -10.567200 4.740000
22.467400 3.301080 156.501000 -10.567200 6.360000
22.528700 3.310070 156.928000 -10.567200 6.060000
-58.868800 -21.870000 153.551000 -9.768000 5.440000
-59.910600 -21.926800 153.606000 -9.679200 5.540000
-59.398200 -20.501800 154.931000 -9.679200 5.510000
-59.551300 -20.554600 155.331000 -9.679200 7.980000
-4.457290 0.000000 177.906000 -10.567200 13.280000
-4.468080 0.000000 178.337000 -10.567200 12.140000
6.053610 -0.227851 4.843610 -6.837600 11.710000
6.330380 -0.240510 5.186230 -6.926400 10.370000
6.395490 0.073295 5.776010 -7.370400 7.290000
6.726230 -0.253168 5.381790 -6.837600 7.060000
6.670870 1.070690 7.250860 -8.080800 5.690000
6.558050 1.117240 7.917860 -8.524800 7.000000
6.919230 0.527502 7.667770 -8.080800 7.920000
6.782430 0.549481 8.351260 -8.524800 6.920000
7.130250 0.549481 8.056330 -8.169600 7.520000
-8.374660 1.402030 10.311800 -8.169600 3.480000
-8.562520 1.447260 10.710700 -8.169600 6.310000
6.864490 1.404840 11.875900 -9.412800 5.450000
-8.830090 1.492480 11.045400 -8.258400 5.850000
7.093050 1.142190 12.271300 -9.412800 4.760000
-9.128450 0.962150 11.418700 -8.258400 9.970000
-9.489140 0.943902 11.684000 -8.169600 11.310000
-9.970860 0.875089 11.851200 -7.992000 9.150000
6.037680 -1.066610 14.249300 -9.945600 4.890000
7.413910 1.532710 13.539500 -9.501600 6.070000
-8.257490 1.526210 13.552600 -8.968800 6.330000
7.431470 1.575290 14.017100 -9.590400 6.110000
-8.478110 1.617860 13.914700 -8.968800 9.130000
5.523130 -1.125870 15.373400 -10.123200 5.170000
7.654820 -1.024810 14.438400 -9.679200 8.880000
-8.701210 1.660440 14.280900 -9.057600 9.840000
6.427730 -0.896118 15.501400 -9.856800 4.260000
6.581810 1.344610 15.873000 -9.945600 11.350000
6.766250 0.259525 16.317800 -10.034400 10.930000
6.531400 -2.108130 16.746000 -10.123200 8.380000
7.538470 0.265855 16.450900 -9.945600 6.850000
5.995630 -1.944750 17.423600 -10.212000 8.690000
5.617270 -1.989980 17.998700 -10.300800 10.150000
7.087560 -1.989980 17.472100 -10.034400 5.170000
7.013540 1.856210 17.982100 -10.123200 7.230000
6.920820 1.897460 18.476700 -10.123200 4.440000
-7.422960 1.714310 18.298900 -9.768000 7.170000
7.085540 1.455000 18.916500 -10.123200 6.440000
-7.877150 1.579920 18.590600 -9.679200 7.550000
7.236290 1.485960 19.319000 -10.123200 9.590000
-8.844210 1.549760 18.632600 -9.590400 4.230000
-9.028470 1.582040 19.020800 -9.590400 9.340000
-8.647980 1.614330 19.667100 -9.679200 5.260000
7.269010 0.458733 20.733800 -10.212000 4.300000
7.574250 0.467728 21.082600 -10.212000 9.950000
7.719910 0.476723 21.488000 -10.212000 16.920000
7.865570 0.485717 21.893500 -10.212000 18.300000
6.432550 -1.629550 22.751600 -10.389600 15.170000
7.132800 -2.861030 23.328000 -10.389600 8.620000
6.937120 -2.911220 23.833000 -10.389600 4.880000
-8.593270 0.609298 23.919000 -9.945600 8.060000
-8.738910 0.619625 24.324400 -9.945600 8.410000
6.568230 -0.949982 25.878400 -10.478400 5.080000
6.674170 -0.965305 26.295800 -10.478400 9.830000
4.876380 1.752960 27.525000 -10.478400 5.380000
5.151480 -2.809970 27.827400 -10.478400 6.840000
5.229530 -2.852550 28.249100 -10.567200 5.890000
5.492980 -1.494590 28.742900 -10.478400 5.770000
5.952150 -3.899670 30.197700 -10.478400 8.230000
5.721590 -1.215740 30.907100 -10.478400 6.880000
7.002740 -1.232400 31.083700 -10.478400 4.240000
7.098930 -1.049280 31.510700 -10.478400 7.840000
7.194890 -0.860796 31.936700 -10.478400 6.730000
18.551100 0.692597 27.499900 -9.146400 5.310000
7.538730 -0.872122 32.299700 -10.478400 7.490000
18.792000 0.701592 27.857000 -9.146400 10.030000
19.043800 2.127990 30.198000 -9.235200 7.000000
19.273200 2.153630 30.561800 -9.235200 6.700000
18.789000 1.953080 31.379300 -9.324000 5.690000
8.628270 0.974058 36.025800 -10.478400 6.610000
19.010100 1.976060 31.748400 -9.324000 6.710000
7.247170 0.985385 36.767900 -10.478400 5.280000
18.983000 1.999030 32.264900 -9.412800 6.550000
7.619510 0.087955 37.145700 -10.478400 7.640000
18.651100 2.044990 33.446700 -9.590400 8.050000
7.792680 0.089954 37.989900 -10.478400 6.930000
18.860700 2.067960 33.822600 -9.501600 5.240000
19.072500 2.000110 34.202500 -9.501600 8.700000
19.282100 2.022090 34.578400 -9.501600 8.440000
-22.797800 -4.002080 33.239500 -8.613600 7.520000
18.945800 2.159870 35.735300 -9.679200 12.930000
19.147400 2.182850 36.115500 -9.679200 12.600000
19.348900 2.205830 36.495700 -9.679200 5.480000
-26.888700 1.615440 31.959400 -7.992000 6.700000
19.550500 2.228810 36.875800 -9.679200 6.250000
-27.165900 1.632100 32.288900 -7.992000 6.220000
19.477400 1.632100 37.432400 -9.679200 9.390000
-27.446200 1.516910 32.622100 -7.992000 8.010000
9.374520 0.626658 41.611600 -10.478400 6.230000
19.384200 1.648750 37.964900 -9.679200 14.670000
-27.471600 1.399040 33.167800 -7.992000 10.010000
9.469220 0.632988 42.031900 -10.478400 8.390000
19.580000 1.665400 38.348400 -9.679200 5.890000
19.476700 1.682060 38.883100 -9.679200 13.040000
19.327900 1.578200 39.922000 -9.768000 6.440000
19.513300 1.732020 40.304900 -9.768000 13.250000
19.701000 1.748670 40.692500 -9.768000 9.040000
19.378400 1.367110 42.288500 -9.856800 9.600000
19.557800 1.379770 42.680100 -9.856800 10.980000
19.403800 2.312600 44.127700 -9.856800 7.080000
19.577000 2.333250 44.521700 -9.856800 6.620000
19.931500 1.915210 45.327900 -9.945600 8.230000
19.749400 2.086330 45.869900 -9.945600 6.510000
19.919600 2.104320 46.265300 -9.945600 8.220000
20.089900 2.122300 46.660800 -9.945600 5.360000
20.309100 2.941270 47.930700 -9.945600 6.360000
9.867760 0.284520 51.634600 -10.567200 6.600000
9.948430 0.450765 52.056700 -10.567200 8.850000
10.332700 0.289185 52.422200 -10.567200 8.590000
20.098100 1.196300 53.656600 -10.123200 13.180000
20.249200 1.205300 54.060100 -10.123200 9.380000
20.400400 1.214290 54.463500 -10.123200 16.290000
20.551500 1.223290 54.866900 -10.123200 11.780000
20.413200 2.298260 55.803300 -10.212000 7.180000
20.561100 2.314910 56.207700 -10.212000 9.670000
20.706400 2.517990 56.605000 -10.212000 8.320000
20.854300 2.535970 57.009400 -10.212000 11.820000
20.661100 3.121050 57.509300 -10.212000 6.690000
20.806600 3.143030 57.914300 -10.212000 8.850000
20.952100 3.165010 58.319300 -10.212000 9.820000
21.097600 3.186990 58.724300 -10.212000 7.260000
20.786800 3.208970 59.291300 -10.212000 15.000000
20.940800 2.448140 59.730500 -10.212000 14.690000
21.225700 2.481450 60.543200 -10.212000 7.290000
21.015400 2.498100 61.072000 -10.212000 10.000000
21.290100 2.936190 61.870300 -10.212000 7.590000
21.430200 2.955500 62.277400 -10.212000 6.280000
21.570300 2.974820 62.684400 -10.212000 14.180000
-9.667510 2.631340 67.340900 -10.567200 18.440000
-9.728690 2.647990 67.767100 -10.567200 18.190000
21.783300 2.650760 71.242700 -10.300800 16.630000
21.358500 2.434330 71.828800 -10.300800 19.970000
22.036300 1.440520 77.941100 -10.389600 9.620000
22.499700 2.219950 81.373900 -10.389600 6.000000
23.086900 2.231270 81.657000 -10.389600 5.300000
22.206600 2.253930 82.793100 -10.389600 5.470000
22.318200 2.265250 83.209100 -10.389600 6.630000
22.429800 2.276580 83.625200 -10.389600 7.580000
-10.694300 -4.170940 86.281600 -10.478400 6.690000
-13.648200 -4.212240 86.735400 -10.478400 11.570000
23.188800 -4.571690 86.454700 -10.389600 9.250000
22.819500 2.367190 87.086900 -10.389600 8.490000
22.928700 2.378510 87.503600 -10.389600 6.760000
22.474200 1.951860 90.743300 -10.478400 7.630000
22.579100 1.670390 91.166900 -10.478400 11.370000
-26.367400 1.969850 90.587100 -10.123200 10.660000
-27.013400 1.978850 90.846200 -10.123200 7.040000
-27.136200 1.987840 91.259100 -10.123200 7.520000
-56.754900 -14.925200 99.958700 -9.146400 8.850000
-56.965900 -14.980600 100.330000 -9.146400 5.270000
-57.951300 -15.036100 100.258000 -9.057600 7.660000
19.720000 1.040790 120.772000 -10.567200 6.260000
19.789400 1.044460 121.197000 -10.567200 4.830000
19.858300 1.429240 121.619000 -10.567200 5.430000
-56.001800 -17.495900 115.672000 -9.324000 5.090000
-56.187800 -17.554000 116.056000 -9.324000 4.800000
-54.871500 -12.256100 119.744000 -9.590400 5.130000
-55.050300 -12.296100 120.134000 -9.590400 4.810000
-55.212800 -12.745900 120.489000 -9.501600 4.890000
22.404700 3.779710 156.064000 -10.656000 5.410000
22.465900 3.790040 156.490000 -10.567200 4.980000
-60.219500 -18.528200 154.398000 -9.768000 11.660000
-60.375100 -18.576100 154.797000 -9.768000 13.560000
-6.722850 2.563600 174.366000 -10.656000 11.370000
-6.739450 2.569930 174.797000 -10.656000 5.780000
-5.405320 2.576260 175.274000 -10.656000 6.880000
-4.446500 0.000000 177.475000 -10.656000 7.340000
-4.457290 0.000000 177.906000 -10.656000 8.780000
-4.468080 0.000000 178.337000 -10.656000 8.070000
5.239250 -0.283119 5.111770 -7.725600 3.950000
6.707960 -0.341727 4.681350 -6.393600 2.140000
6.579610 0.742981 7.943890 -8.436000 7.500000
6.896950 1.130670 8.197590 -8.436000 6.370000
6.072920 1.408210 9.308740 -9.146400 3.800000
6.156740 1.462370 9.762830 -9.146400 3.710000
6.431260 1.396560 11.126400 -9.412800 6.440000
6.645640 1.443110 11.497200 -9.412800 5.210000
-8.767120 1.107570 10.585000 -8.080800 5.500000
6.348290 0.990641 12.200400 -9.679200 4.390000
-8.935510 1.142190 11.002400 -8.169600 5.790000
7.097650 1.021600 12.279200 -9.501600 10.110000
-9.206280 1.176800 11.335800 -8.169600 4.940000
7.128120 0.656779 12.782700 -9.590400 12.260000
7.302160 1.629320 13.094900 -9.590400 11.460000
6.030530 -1.305790 14.232400 -10.034400 7.580000
7.510800 1.675870 13.469000 -9.590400 7.950000
6.193360 -1.477130 14.616700 -10.034400 12.060000
6.307370 2.596990 14.885800 -10.034400 12.510000
6.795690 2.665330 15.136900 -9.945600 11.680000
-7.840050 1.505210 14.787800 -9.324000 5.160000
4.911820 -0.306494 16.518500 -10.300800 9.030000
6.937140 -0.253195 15.776300 -9.945600 11.560000
-7.688270 1.543810 15.348800 -9.412800 6.190000
-8.707510 1.490710 14.799900 -9.146400 6.780000
5.844060 -0.314157 16.669400 -10.212000 6.140000
6.985720 -0.259525 16.225000 -10.034400 9.910000
-7.880480 1.582400 15.732600 -9.412800 10.810000
-9.273540 1.527980 14.959500 -8.968800 8.130000
5.952500 -1.955180 16.978700 -10.212000 6.530000
7.885750 -0.209888 16.288100 -9.856800 6.080000
14.157900 1.716660 11.828800 -7.281600 6.610000
5.859220 -2.001730 17.463500 -10.123200 9.750000
14.369900 1.756580 12.242900 -7.281600 6.570000
6.857680 -1.814960 17.582500 -10.123200 10.280000
14.696500 1.796500 12.521100 -7.281600 6.750000
7.019490 1.677050 17.997400 -10.123200 7.720000
7.315060 1.775380 18.336500 -10.034400 9.260000
-7.946500 1.775380 18.071800 -9.768000 6.520000
-8.400530 1.876350 18.332100 -9.679200 3.370000
6.828840 1.813590 20.353500 -10.300800 10.640000
-8.084430 1.281920 19.929500 -9.856800 11.770000
7.429410 0.322824 20.679500 -10.212000 4.360000
-7.971200 1.307560 20.437500 -9.856800 4.550000
7.575080 0.329154 21.084900 -10.212000 4.520000
7.554900 0.335484 21.549300 -10.300800 5.650000
7.697750 0.269856 21.956800 -10.300800 6.020000
6.895790 -2.341650 22.552900 -10.389600 11.650000
5.592850 -2.384220 23.351900 -10.478400 12.250000
6.956590 -2.238520 23.899900 -10.478400 9.060000
6.888940 -2.277120 24.365800 -10.478400 8.950000
5.158210 -1.507100 26.169700 -10.478400 6.440000
-7.605770 1.280190 25.578300 -10.212000 8.470000
7.380160 -1.049200 26.103200 -10.478400 8.490000
-7.730590 1.133090 25.998000 -10.212000 7.520000
7.496370 -1.151080 26.514200 -10.478400 6.640000
-8.056620 1.151080 26.349400 -10.212000 5.480000
3.041440 -9.413190 27.580800 -10.567200 8.160000
5.176470 -1.860830 29.218800 -10.567200 6.640000
5.740320 -0.898746 30.037100 -10.567200 9.950000
5.300620 -1.677350 30.960500 -10.567200 9.780000
18.184200 0.753877 25.655900 -8.968800 7.820000
6.815950 -1.897250 31.091800 -10.567200 8.520000
6.919570 0.474741 31.564500 -10.567200 7.350000
7.197120 0.278521 31.946500 -10.567200 8.580000
18.355500 2.051080 29.106500 -9.324000 6.080000
18.584900 2.076710 29.470300 -9.324000 5.800000
18.817700 1.993260 29.839500 -9.324000 7.990000
-6.913970 0.940080 35.077400 -10.478400 9.370000
19.043800 2.127990 30.198000 -9.324000 8.640000
-6.997270 0.951406 35.500100 -10.478400 8.220000
18.559200 1.415590 31.544500 -9.412800 6.880000
8.139250 1.317720 36.128500 -10.567200 6.550000
18.777500 1.432250 31.915600 -9.412800 12.260000
8.014780 2.114800 36.560400 -10.567200 12.870000
18.995900 1.448900 32.286700 -9.412800 4.570000
7.607390 2.139110 37.086600 -10.567200 9.120000
7.693840 2.163410 37.508100 -10.567200 9.840000
18.653400 1.956150 33.450800 -9.501600 11.460000
18.862900 1.978130 33.826600 -9.501600 13.570000
19.072500 2.000110 34.202500 -9.501600 11.400000
19.282100 2.022090 34.578400 -9.501600 4.630000
18.951000 1.940930 35.745100 -9.679200 10.140000
19.149700 2.088030 36.119900 -9.679200 11.220000
19.351300 2.110010 36.500100 -9.679200 6.150000
-26.891800 1.486260 31.963100 -8.080800 6.470000
-7.051300 1.001730 41.186000 -10.478400 6.840000
-26.919300 1.501590 32.501000 -8.169600 6.330000
-27.446200 1.516910 32.622100 -8.169600 12.260000
19.086100 1.912380 38.103300 -9.768000 5.330000
-27.723500 1.532230 32.951600 -8.169600 6.190000
19.278800 1.931700 38.488200 -9.768000 11.780000
19.471600 1.951020 38.873100 -9.768000 7.850000
19.192900 1.781980 41.883800 -9.945600 6.610000
19.372200 1.798640 42.275200 -9.945600 13.730000
19.551600 1.815290 42.666600 -9.945600 7.020000
19.746100 2.163510 43.983100 -9.945600 10.840000
-6.260420 2.483660 48.223600 -10.567200 7.100000
19.922400 2.182820 44.375800 -9.945600 8.260000
19.753100 2.202140 44.922100 -10.034400 7.990000
19.746700 2.240770 45.863800 -10.034400 10.030000
19.917000 2.260090 46.259100 -10.034400 5.380000
20.087200 2.279410 46.654500 -10.034400 10.290000
-13.383900 2.158270 49.899200 -12.254400 11.050000
9.865070 1.259900 51.620500 -10.567200 17.250000
10.248400 0.778575 51.994600 -10.567200 15.160000
10.332500 0.454430 52.421100 -10.567200 14.670000
20.064800 2.395310 49.463100 -10.123200 14.840000
20.229300 2.248200 49.868700 -10.123200 5.420000
9.882340 -0.629665 53.382700 -10.567200 6.110000
20.391100 2.266190 50.267700 -10.123200 5.490000
20.553000 2.284170 50.666600 -10.123200 7.310000
20.498400 2.007220 52.556200 -10.123200 7.340000
20.099300 1.019090 53.659900 -10.212000 14.570000
20.249200 1.205300 54.060100 -10.212000 6.050000
20.400400 1.214290 54.463500 -10.212000 11.090000
20.551500 1.223290 54.866900 -10.212000 8.670000
20.092600 2.114480 55.926800 -10.212000 10.880000
20.238200 2.129800 56.332100 -10.212000 6.950000
20.383800 2.145120 56.737400 -10.212000 7.140000
20.529400 2.160440 57.142600 -10.212000 8.810000
20.228500 2.364870 57.698900 -10.212000 6.370000
20.368400 2.571940 58.098000 -10.212000 7.640000
20.510800 2.589930 58.504300 -10.212000 5.390000
20.653300 2.607910 58.910600 -10.212000 12.410000
-23.479700 -1.497430 57.881500 -9.856800 17.140000
20.800700 2.237060 59.331000 -10.300800 17.020000
-23.641700 -1.507750 58.280700 -9.856800 11.960000
20.940800 2.448140 59.730500 -10.300800 7.240000
21.085600 2.267700 60.143800 -10.212000 14.500000
21.228100 2.283020 60.550200 -10.212000 18.820000
20.483800 1.376200 62.649700 -10.300800 9.860000
20.874400 2.598030 63.844300 -10.300800 19.660000
-9.610740 1.621350 66.945500 -10.567200 17.090000
21.008200 2.614680 64.253500 -10.300800 10.350000
-10.061200 1.631680 67.314900 -10.567200 8.440000
21.142100 2.631340 64.662800 -10.300800 9.360000
-10.124900 1.642010 67.740900 -10.567200 7.620000
21.037400 2.025340 65.624700 -10.300800 11.770000
21.168900 2.038000 66.034800 -10.300800 11.290000
21.302200 1.834850 66.450700 -10.300800 6.640000
21.433700 1.846180 66.860900 -10.300800 8.440000
21.046100 1.857510 67.435300 -10.300800 6.370000
21.170600 2.308420 67.834200 -10.300800 7.550000
21.298900 2.322410 68.245300 -10.300800 7.410000
21.427200 2.336400 68.656400 -10.300800 11.070000
21.800600 1.673030 77.107300 -10.389600 8.210000
21.917800 1.682020 77.521900 -10.389600 5.430000
22.038300 0.939500 77.948200 -10.389600 6.420000
-16.450100 -0.949495 80.195700 -10.478400 6.460000
-16.536700 -0.954492 80.617800 -10.478400 4.410000
21.764400 1.494160 81.144100 -10.478400 6.350000
21.876000 1.501820 81.560200 -10.478400 6.470000
21.987600 1.509480 81.976300 -10.478400 10.020000
22.099200 1.517150 82.392500 -10.478400 8.820000
-11.858800 -3.902040 86.141800 -10.567200 6.820000
-11.249900 -3.921350 86.657600 -10.567200 5.880000
-19.189300 1.593770 87.534400 -10.478400 5.440000
-15.632600 1.593770 88.239000 -10.478400 4.510000
23.586800 1.942870 90.015200 -10.478400 11.780000
23.696000 1.951860 90.431900 -10.478400 5.440000
23.805200 1.960860 90.848600 -10.478400 5.300000
23.917100 1.386240 91.275400 -10.478400 8.800000
-26.892200 1.678060 90.438600 -10.212000 9.690000
23.317700 1.685720 91.870000 -10.478400 9.090000
-27.013400 1.978850 90.846200 -10.212000 10.810000
23.423700 1.693380 92.287600 -10.478400 10.810000
-27.136200 1.987840 91.259100 -10.212000 8.560000
23.530800 1.405230 92.709900 -10.478400 5.950000
23.199100 2.014830 93.670500 -10.478400 5.670000
23.302700 2.023820 94.088700 -10.478400 10.060000
22.674300 2.559730 94.672300 -10.478400 14.360000
-56.754900 -14.925200 99.958700 -9.146400 14.080000
19.022000 0.662326 120.886000 -10.656000 5.920000
19.088900 0.664658 121.312000 -10.656000 10.880000
19.155500 1.048120 121.735000 -10.656000 7.290000
-54.518900 -14.612600 114.858000 -9.501600 10.930000
-54.977000 -12.730000 115.823000 -9.501600 12.080000
-54.930500 -10.625800 119.872000 -9.590400 5.460000
-55.034100 -12.704700 120.099000 -9.590400 6.520000
-53.299100 -13.975100 121.212000 -9.590400 5.540000
-54.407300 -14.020300 121.188000 -9.590400 6.830000
22.410300 1.341300 156.103000 -10.656000 5.520000
22.470800 1.834020 156.525000 -10.656000 6.410000
-59.850800 -10.329000 153.452000 -9.856800 5.130000
-4.446020 2.607910 177.456000 -10.656000 5.350000
5.289920 -0.215193 5.062650 -7.636800 5.570000
5.601090 -0.227851 5.360460 -7.725600 7.420000
5.423190 -0.265818 6.127560 -8.169600 2.940000
5.852380 -0.417606 5.709980 -7.814400 6.070000
5.831830 -0.279808 6.338870 -8.169600 5.460000
6.141210 1.676290 9.738200 -9.235200 7.550000
6.290640 1.738370 10.147700 -9.324000 6.690000
6.534310 1.532350 10.540700 -9.324000 6.900000
6.766490 1.476020 10.915300 -9.324000 4.040000
7.078770 1.525220 11.224900 -9.235200 4.880000
6.602370 1.075690 12.057500 -9.679200 6.320000
6.803910 1.229830 12.425500 -9.679200 4.490000
7.004150 1.402470 12.791200 -9.679200 7.440000
6.668660 0.722688 13.507700 -9.768000 3.440000
7.242700 1.246020 13.661100 -9.679200 9.440000
5.789630 -0.566925 14.844100 -10.034400 9.660000
7.335450 1.280630 14.097500 -9.679200 5.100000
-7.944340 1.712150 14.709400 -9.235200 6.890000
-8.588210 1.712150 14.343000 -9.057600 5.480000
6.937870 0.039980 15.778000 -9.945600 10.390000
-8.821320 1.490710 14.732300 -9.057600 9.810000
5.128720 -2.112190 16.773600 -10.300800 4.760000
7.235750 0.040979 16.117100 -9.945600 4.060000
-8.371830 1.323750 15.501000 -9.324000 11.870000
5.253810 -2.163710 17.182700 -10.300800 10.180000
7.539260 0.041979 16.452600 -9.945600 12.030000
-8.576020 1.356040 15.879000 -9.324000 7.240000
5.642870 -1.274010 17.602500 -10.300800 9.410000
-8.654650 1.388320 16.324300 -9.324000 8.950000
14.478500 1.873320 12.096700 -7.370400 8.400000
5.764530 -1.698190 17.982000 -10.300800 4.000000
14.807600 1.915890 12.371600 -7.370400 8.470000
6.766210 -1.975560 18.064000 -10.212000 6.150000
15.131900 2.019460 12.642600 -7.370400 5.450000
6.774040 -2.019460 18.518200 -10.212000 8.060000
-8.802320 1.455000 18.181200 -9.501600 7.880000
-8.429690 2.043620 18.776500 -9.768000 7.050000
-9.143080 1.102910 18.519800 -9.501600 9.300000
-8.637690 1.011760 19.239900 -9.679200 8.240000
-7.371860 1.929760 20.152400 -9.945600 5.330000
7.429410 0.322824 20.679500 -10.300800 5.890000
-7.519290 1.968350 20.555400 -9.945600 6.780000
7.575080 0.329154 21.084900 -10.300800 4.360000
7.721070 0.264859 21.491300 -10.300800 5.250000
17.537800 1.312630 15.235900 -7.370400 5.820000
7.866750 0.269856 21.896800 -10.300800 6.030000
17.859300 1.410110 15.515200 -7.370400 6.990000
18.184000 1.435750 15.797300 -7.370400 10.430000
-8.265040 1.061150 24.018700 -10.123200 7.500000
17.622700 1.458480 18.861100 -8.080800 5.460000
6.649490 -1.645090 25.376600 -10.478400 8.390000
17.916500 1.482790 19.175400 -8.080800 5.170000
6.555400 -1.919370 25.827800 -10.478400 7.800000
18.210200 1.507100 19.489800 -8.080800 5.900000
6.612250 1.692140 27.608200 -10.389600 6.220000
6.851430 1.072560 29.355000 -10.567200 4.860000
6.950700 -0.898746 29.780300 -10.567200 9.570000
7.223050 -0.911405 30.158500 -10.567200 9.750000
8.673870 -0.567015 30.678900 -10.478400 5.420000
6.919220 -0.574677 31.562900 -10.478400 8.840000
6.765100 -0.481071 32.038400 -10.567200 6.110000
18.068900 2.049610 27.235500 -9.146400 4.450000
7.104750 -0.179574 32.409200 -10.567200 5.750000
18.310100 1.974160 27.599100 -9.146400 5.590000
18.547900 1.999800 27.957500 -9.146400 6.310000
18.789100 1.920330 28.321000 -9.146400 6.510000
8.049160 0.424774 35.728600 -10.567200 7.990000
18.548900 1.868240 31.527000 -9.501600 7.690000
18.770000 1.775750 31.902800 -9.501600 5.520000
18.988200 1.796400 32.273700 -9.501600 10.560000
19.457500 1.817040 32.495700 -9.501600 10.430000
7.922860 -0.326163 37.521400 -10.567200 7.820000
18.894400 2.518570 33.277500 -9.590400 13.340000
18.585700 2.546870 33.941900 -9.590400 8.700000
19.060000 2.454140 34.179900 -9.590400 7.100000
19.152600 1.961580 36.125400 -9.679200 14.200000
19.351300 2.110010 36.500100 -9.679200 7.620000
-6.734530 0.743249 41.244500 -10.567200 7.750000
-26.891800 1.486260 31.963100 -7.992000 4.860000
-27.169000 1.501590 32.292600 -7.992000 4.910000
-27.446200 1.516910 32.622100 -7.992000 5.670000
-27.729000 1.265840 32.958200 -8.080800 8.220000
19.004600 2.366670 40.038100 -9.856800 8.710000
19.185900 2.528040 40.419900 -9.856800 6.860000
19.373600 2.412630 40.815500 -9.856800 10.880000
19.192900 1.781980 41.883800 -9.945600 5.950000
19.374500 1.654810 42.280100 -9.945600 9.580000
19.553900 1.670130 42.671500 -9.945600 9.580000
19.981800 1.685450 42.948200 -9.945600 8.760000
23.917900 -1.848600 41.378900 -9.501600 6.700000
19.746100 2.163510 43.983100 -9.945600 11.070000
19.922400 2.182820 44.375800 -9.945600 14.050000
20.098700 2.202140 44.768500 -9.945600 12.480000
-25.552000 -1.177290 41.937300 -9.057600 8.330000
-25.776200 -1.187610 42.305200 -9.057600 5.890000
19.486300 1.931870 45.989000 -10.034400 5.730000
-26.000300 -1.197940 42.673000 -9.057600 6.660000
19.651900 2.104320 46.379700 -10.034400 9.010000
19.819800 2.122300 46.776100 -10.034400 9.180000
19.788500 2.158270 47.722900 -10.123200 18.140000
8.795960 -1.249580 51.376400 -10.656000 11.080000
19.953400 2.176260 48.120600 -10.123200 6.740000
9.867760 0.284520 51.634600 -10.567200 12.560000
20.118400 2.194240 48.518300 -10.123200 5.890000
9.948120 0.614673 52.055100 -10.567200 13.190000
20.283300 2.212230 48.915900 -10.123200 7.340000
10.028100 0.950133 52.473500 -10.567200 9.000000
10.109000 0.957795 52.896700 -10.567200 8.930000
19.935200 2.581030 49.971000 -10.123200 8.440000
7.715180 -0.293849 53.741600 -10.656000 6.750000
20.097500 2.433940 50.378000 -10.123200 11.480000
20.257000 2.453260 50.777800 -10.123200 9.220000
20.512300 1.019090 53.503400 -10.212000 7.260000
20.250500 1.026760 54.063300 -10.212000 15.120000
20.820800 1.034420 54.307900 -10.212000 14.780000
20.976000 0.860864 54.712900 -10.212000 17.510000
20.413200 2.298260 55.803300 -10.212000 9.290000
20.561100 2.314910 56.207700 -10.212000 16.030000
20.709000 2.331560 56.612100 -10.212000 11.510000
20.856900 2.348220 57.016400 -10.212000 12.950000
20.820600 2.191090 57.953200 -10.212000 5.290000
20.966200 2.206410 58.358400 -10.300800 14.370000
21.111800 2.221730 58.763700 -10.300800 11.120000
20.135500 2.252380 60.014400 -10.212000 8.430000
20.737600 2.267700 60.264700 -10.300800 6.670000
20.877700 2.283020 60.671900 -10.300800 6.950000
21.020100 2.098560 61.085500 -10.300800 5.750000
-4.631900 2.313670 64.859600 -10.656000 12.790000
20.685600 2.112550 61.654000 -10.300800 17.410000
-4.662570 2.328990 65.289100 -10.656000 17.340000
20.822600 2.126540 62.062300 -10.300800 5.360000
20.959600 2.140530 62.470600 -10.300800 12.740000
21.096600 2.154520 62.878900 -10.300800 14.070000
-9.608440 2.196490 66.929500 -10.567200 18.410000
21.008200 2.614680 64.253500 -10.300800 18.230000
-9.668620 2.420920 67.348700 -10.567200 13.600000
21.142100 2.631340 64.662800 -10.300800 11.650000
-9.729810 2.436250 67.774900 -10.567200 6.400000
21.039300 1.812200 65.630300 -10.389600 13.780000
21.170700 1.823530 66.040500 -10.389600 7.250000
21.302200 1.834850 66.450700 -10.389600 11.500000
21.431900 2.063320 66.855100 -10.389600 8.530000
21.803000 1.177360 77.115800 -10.478400 7.100000
21.920200 1.183690 77.530400 -10.478400 7.590000
22.037400 1.190020 77.945000 -10.478400 8.650000
21.209600 0.000000 79.076000 -10.478400 15.670000
21.321300 0.000000 79.492200 -10.478400 12.860000
21.432900 0.000000 79.908400 -10.478400 8.400000
21.766300 0.974482 81.151500 -10.478400 7.440000
21.876000 1.501820 81.560200 -10.478400 8.360000
21.987600 1.509480 81.976300 -10.478400 7.140000
-10.066400 -6.014520 86.683100 -10.567200 7.980000
-9.171950 -2.117050 87.831500 -10.478400 5.910000
-14.361400 -3.723020 87.953800 -10.478400 5.520000
22.893700 1.655070 90.199700 -10.478400 5.790000
22.999700 1.662730 90.617300 -10.478400 6.300000
23.105700 1.670390 91.034900 -10.478400 10.660000
23.211700 1.678060 91.452500 -10.478400 10.960000
22.784900 1.978850 91.997800 -10.478400 6.620000
22.886900 2.282290 92.409600 -10.478400 4.920000
22.989100 2.514430 92.822300 -10.478400 8.800000
19.720400 0.662326 120.774000 -10.656000 7.430000
19.789400 1.044460 121.197000 -10.656000 6.520000
19.858900 1.048120 121.622000 -10.656000 10.180000
-54.809700 -12.292200 115.471000 -9.412800 14.400000
-54.993600 -12.333500 115.858000 -9.412800 13.780000
-55.160900 -12.772600 116.210000 -9.412800 8.850000
-55.344800 -12.815200 116.598000 -9.412800 10.130000
22.408700 2.316740 156.092000 -10.656000 12.760000
22.469900 2.323070 156.519000 -10.656000 11.100000
-4.446340 1.509880 177.469000 -10.744800 8.330000
-4.457130 1.513540 177.899000 -10.744800 7.980000
-4.467920 1.517210 178.330000 -10.744800 4.780000
0.454078 0.411500 1.138220 0.000000 0.000000
5.339120 -0.485435 5.605060 -8.169600 1.380000
5.488360 -0.485435 5.459020 -7.992000 3.390000
5.848520 -0.512404 5.706210 -7.992000 2.760000
5.985050 -0.412965 6.186970 -8.080800 4.140000
5.937980 -0.433613 6.814320 -8.258400 2.740000
6.284300 -0.433613 6.496320 -8.080800 2.760000
-2.263720 0.926285 10.048200 2.575200 10.540000
-2.338740 1.675640 10.381200 2.575200 13.770000
-2.434330 1.682750 10.805500 2.575200 11.990000
-2.979810 1.747470 11.109600 2.575200 9.670000
-2.420530 0.680625 11.800300 2.575200 3.280000
-3.065540 0.936311 12.078000 2.575200 7.900000
-3.171970 0.928726 12.497300 2.575200 7.550000
-1.714860 1.000880 13.209500 2.664000 9.450000
6.246780 1.192570 12.234600 -9.768000 8.130000
6.446510 1.109310 12.625800 -9.768000 4.800000
6.738530 1.233240 12.950300 -9.768000 4.860000
6.649490 1.350830 13.468900 -9.945600 6.620000
7.333460 0.850781 13.151000 -9.679200 6.000000
6.625120 1.389430 13.957500 -9.945600 6.280000
6.214700 -0.665468 14.667100 -10.123200 6.670000
6.936370 -0.899397 14.327100 -9.856800 9.500000
6.816160 -0.632853 14.874600 -10.034400 8.860000
7.775310 -0.632853 14.396500 -9.768000 10.430000
6.553510 -0.493677 15.466700 -10.212000 8.500000
7.083660 -0.649507 15.225400 -9.945600 10.180000
-8.246100 1.867180 14.523300 -9.235200 12.290000
6.816060 -0.039980 15.831000 -10.212000 6.870000
-7.801850 1.649960 15.280300 -9.501600 9.890000
-8.572100 1.915060 14.830100 -9.235200 5.740000
5.035410 0.000000 16.934100 -10.300800 7.810000
-7.076540 1.745590 16.093300 -9.412800 8.010000
-8.929820 1.419080 15.177700 -9.146400 5.680000
7.264300 -1.356040 16.520300 -10.034400 7.330000
-9.267180 1.453690 15.477000 -9.146400 7.000000
7.437260 -1.388320 16.913700 -10.034400 6.740000
-9.386330 0.830632 15.953700 -9.235200 6.330000
5.620830 -1.873320 18.010100 -10.389600 4.640000
14.352200 1.989980 12.227800 -7.459200 6.860000
5.748580 -1.915890 18.419400 -10.389600 4.780000
-8.337830 1.485180 17.921000 -9.679200 6.590000
-8.659960 1.517470 18.244400 -9.679200 7.770000
-9.030520 1.516920 19.025100 -9.679200 9.400000
7.430100 0.118939 20.681400 -10.389600 3.150000
7.575630 0.190567 21.086400 -10.389600 11.550000
7.555200 0.264859 21.550200 -10.389600 16.910000
17.187900 1.781610 14.931900 -7.459200 17.880000
6.027600 0.269856 22.472700 -10.567200 5.200000
7.697750 0.269856 21.956800 -10.389600 12.330000
17.512200 1.815230 15.213700 -7.459200 14.240000
17.836500 1.848840 15.495400 -7.459200 10.600000
17.713000 1.461390 16.952000 -7.903200 5.750000
4.678110 -1.872620 24.478900 -10.656000 6.870000
18.020400 1.564180 17.246200 -7.903200 7.500000
4.758770 -1.904910 24.901000 -10.656000 8.040000
18.334500 1.512670 17.546800 -7.903200 6.050000
4.999600 -0.219885 25.365000 -10.567200 7.270000
-8.735900 0.919338 24.316000 -10.123200 9.490000
6.642240 -2.050540 25.349000 -10.567200 8.600000
-8.690700 0.934660 24.789000 -10.123200 6.810000
6.914090 -1.197650 25.777800 -10.567200 7.610000
-7.945110 1.589580 25.457500 -10.300800 7.220000
8.081540 -1.049200 25.894600 -10.567200 8.950000
8.059390 -0.895386 26.358500 -10.567200 8.580000
4.860540 -2.853580 27.435500 -10.656000 8.960000
6.886770 -0.909377 27.133400 -10.478400 8.720000
4.771080 -3.072420 27.867500 -10.656000 5.690000
4.994370 -3.717420 28.191000 -10.656000 6.100000
4.903440 -3.772900 28.640600 -10.656000 9.830000
7.636760 1.445380 29.144400 -10.567200 9.410000
7.745860 1.466020 29.560800 -10.567200 6.920000
7.852800 1.654370 29.968900 -10.656000 4.860000
5.471880 -2.356920 30.886300 -10.744800 9.250000
18.350700 1.968710 25.472300 -9.057600 7.850000
6.988280 -2.389210 31.019500 -10.656000 5.460000
18.602000 1.995680 25.821200 -9.057600 3.920000
6.675350 -0.674607 31.613400 -10.656000 7.860000
18.853400 2.022650 26.170200 -9.057600 9.950000
6.764360 -0.683602 32.034900 -10.656000 9.660000
18.285000 1.847410 27.105400 -9.235200 12.730000
7.975910 -0.384795 32.204100 -10.656000 7.700000
18.310100 1.974160 27.599100 -9.235200 17.590000
8.079490 -0.389793 32.622300 -10.656000 7.820000
18.547900 1.999800 27.957500 -9.235200 17.750000
8.183070 -0.394790 33.040600 -10.656000 8.640000
18.785700 2.025440 28.315900 -9.235200 13.460000
18.358800 1.944640 29.111700 -9.412800 6.910000
18.360500 1.968950 29.618000 -9.412800 9.700000
18.583900 2.102350 29.978300 -9.412800 12.730000
18.810500 2.127990 30.343900 -9.412800 13.780000
19.037100 2.153630 30.709500 -9.412800 10.350000
8.046230 1.075960 35.715600 -10.656000 5.120000
18.536600 2.292330 31.506200 -9.501600 5.040000
18.754700 2.319300 31.876800 -9.501600 14.970000
18.965100 2.577650 32.234400 -9.501600 4.300000
-7.495710 1.259140 38.028900 -10.567200 12.770000
-14.186300 1.042020 37.002900 -13.675200 6.480000
-14.340500 1.053340 37.405100 -13.675200 7.360000
18.876300 1.835120 36.277200 -9.768000 11.310000
19.075000 1.854430 36.659000 -9.768000 10.590000
-6.493610 1.357070 41.267500 -10.656000 5.930000
-26.891800 1.486260 31.963100 -8.169600 10.070000
9.830430 1.371060 41.045100 -10.656000 5.910000
-27.169000 1.501590 32.292600 -8.169600 5.760000
10.254700 0.494737 41.405200 -10.656000 7.080000
-27.449100 1.385050 32.625500 -8.169600 8.140000
-27.726400 1.399040 32.955100 -8.169600 9.060000
19.127500 2.241880 39.507900 -9.945600 6.870000
19.315000 2.263860 39.895200 -9.945600 8.230000
19.502500 2.285840 40.282600 -9.945600 8.770000
19.690000 2.307820 40.669900 -9.945600 8.010000
19.563500 2.188710 41.215500 -9.945600 9.890000
19.190500 1.924460 41.878600 -10.034400 6.030000
19.369800 1.942450 42.269900 -10.034400 14.960000
19.549200 1.960430 42.661300 -10.034400 4.900000
19.728500 1.978420 43.052700 -10.034400 15.730000
19.579100 2.068350 45.474500 -10.123200 6.570000
19.749400 2.086330 45.869900 -10.123200 15.120000
19.919600 2.104320 46.265300 -10.123200 17.740000
-12.391900 2.104320 48.823300 -12.520800 15.930000
20.089900 2.122300 46.660800 -10.123200 16.100000
-12.497800 2.122300 49.240600 -12.520800 20.140000
-6.305560 1.228920 50.873100 -10.744800 19.580000
20.262700 1.981830 47.062100 -10.123200 14.170000
-6.358550 1.239250 51.300600 -10.744800 5.660000
19.420100 2.158270 47.874000 -10.123200 7.680000
10.081800 0.765916 51.149200 -10.744800 5.920000
19.950800 2.337360 48.114100 -10.123200 15.670000
10.165100 0.772246 51.571900 -10.744800 12.500000
