VERSION .7
FIELDS x y z velocity intensity
SIZE 4 4 4 4 4
TYPE F F F F F
COUNT 1 1 1 1 1
WIDTH 833
HEIGHT 1
VIEWPOINT 0 0 0 1 0 0 0
POINTS 833
DATA ascii
7.479890 0.020989 5.092490 -8.258400 3.580000
7.836070 0.021989 5.334990 -8.258400 7.380000
8.192260 0.022988 5.577490 -8.258400 6.730000
8.548440 0.023988 5.819990 -8.258400 1.250000
7.910960 1.042070 8.466860 -10.478400 4.920000
8.203960 1.080670 8.780450 -10.478400 7.350000
8.576640 1.234690 9.003850 -10.478400 6.220000
7.795680 1.830970 11.750500 -11.721600 3.590000
7.559520 1.886450 12.407100 -11.988000 4.330000
8.124980 1.886450 12.044300 -11.721600 5.070000
8.316010 1.083510 12.534800 -11.899200 6.870000
8.412370 1.083510 12.470400 -11.721600 6.490000
8.007370 1.949830 13.142100 -11.988000 6.740000
8.353860 1.114470 13.023300 -11.810400 7.090000
7.818380 1.857160 13.770000 -12.165600 8.140000
8.373140 1.280630 13.507000 -11.810400 4.200000
8.054430 1.416170 14.185700 -12.165600 9.870000
8.384590 1.315240 14.003000 -11.810400 3.430000
8.266390 1.453440 14.559000 -12.165600 7.060000
6.565470 1.809070 15.833600 -12.520800 5.040000
6.729610 1.854300 16.229400 -12.609600 4.870000
6.893740 1.899530 16.625200 -12.609600 6.100000
7.062350 1.830740 17.031900 -12.609600 6.510000
-0.362402 2.383130 18.805700 1.332000 13.180000
-0.370922 2.318260 19.247800 1.332000 11.710000
-1.250480 2.369770 19.639500 1.243200 11.230000
-1.051650 1.079940 20.196100 1.243200 8.680000
-7.103420 -0.234875 18.964200 -12.787200 8.030000
-1.073440 1.294490 20.614700 1.243200 7.210000
-5.770170 1.230650 19.823900 -12.964800 5.120000
-7.253460 -0.431749 19.364800 -12.698400 5.630000
-0.406013 1.321460 21.068800 1.332000 8.230000
-6.007260 1.256280 20.202500 -12.964800 6.200000
-7.126180 1.256280 19.835400 -12.787200 5.800000
-0.413946 1.614330 21.480400 1.332000 6.240000
-6.689690 0.899280 20.460400 -12.876000 7.940000
0.422225 1.646620 21.910100 1.332000 4.220000
-6.984130 0.917266 20.816400 -12.876000 8.700000
-0.430402 1.748000 22.334400 1.243200 4.050000
-11.203400 0.935252 19.382300 -12.698400 8.060000
-0.569971 1.922410 22.749500 1.243200 4.390000
-11.081000 1.975190 19.871400 -13.497600 4.150000
-11.401700 1.570290 19.725500 -12.698400 10.250000
14.975800 0.557663 17.800000 -10.034400 4.990000
-11.290100 2.012460 20.246300 -13.408800 5.270000
-11.459100 1.671710 20.182200 -13.053600 6.030000
-12.497900 2.370670 19.483600 -12.343200 7.770000
15.253200 0.567990 18.129700 -10.034400 6.160000
-11.515100 1.629550 20.649800 -12.964800 6.560000
-12.729300 2.414570 19.844400 -12.343200 5.970000
-6.846500 1.764580 23.521700 -13.053600 7.600000
-11.037400 1.718430 22.356900 -13.231200 9.110000
18.323600 1.748060 17.536400 -9.945600 4.490000
-11.049700 1.826490 22.823300 -13.231200 11.320000
18.634200 1.777690 17.833600 -9.945600 9.900000
-4.688560 2.236060 25.326800 -13.142400 10.050000
18.948700 1.726210 18.134600 -9.945600 12.830000
19.259300 1.754510 18.431900 -9.945600 5.610000
-15.418300 1.672050 21.753500 -12.787200 4.820000
-10.498800 2.098630 25.881400 -12.787200 6.140000
-10.660300 2.130910 26.279600 -12.787200 4.560000
-11.027200 2.163200 26.593500 -12.787200 12.380000
-6.044000 1.652950 28.623400 -13.320000 7.600000
-11.201300 1.833870 27.013500 -12.698400 13.230000
8.430130 -3.029190 28.350600 -13.231200 10.200000
-11.734700 1.860830 27.255000 -12.609600 4.240000
18.810000 1.538550 23.529200 -11.011200 5.160000
19.078700 1.560530 23.865300 -11.011200 5.640000
9.905100 -0.936721 30.294700 -13.231200 6.870000
9.207130 -0.949380 30.963700 -13.231200 11.930000
18.714200 1.366910 26.839700 -11.544000 9.520000
9.263420 1.487410 31.825200 -13.320000 11.410000
18.960400 1.384890 27.192900 -11.544000 6.340000
-6.493180 1.506730 32.942600 -13.408800 7.460000
-19.690600 -1.758340 28.240100 -11.011200 6.230000
-5.353710 1.438850 34.023300 -13.497600 7.600000
-19.715800 -1.780320 28.746000 -11.100000 5.690000
-19.047200 -1.993260 29.693600 -11.366400 5.330000
-19.959200 -1.802300 29.100800 -11.100000 4.740000
-19.288000 -1.713800 30.069100 -11.366400 5.570000
-17.784000 -3.576330 31.321900 -0.088800 7.640000
-17.995800 -3.618910 31.694700 -0.088800 9.380000
-18.716000 -0.996711 32.963300 -11.632800 11.530000
-18.916200 -1.719210 33.315900 -11.721600 7.470000
10.899700 1.708630 39.420700 -13.408800 7.010000
11.014500 1.726620 39.835700 -13.408800 6.160000
-4.808990 3.002880 41.411000 -13.586400 9.380000
-4.858570 3.033840 41.837900 -13.586400 7.130000
-15.149900 -5.362040 39.516200 -12.520800 10.120000
-15.302900 -5.416200 39.915300 -12.520800 12.240000
-15.807300 1.278500 40.528600 -12.520800 7.030000
-19.976000 1.427020 39.124000 -12.076800 6.930000
-20.173700 1.303810 39.511300 -12.076800 8.640000
-20.369600 1.316470 39.894900 -12.076800 10.290000
10.877000 0.000000 43.917600 -13.408800 8.410000
-20.254400 1.329130 40.435800 -12.076800 9.070000
10.980400 0.247206 44.335200 -13.408800 8.760000
10.738700 0.249538 44.837600 -13.497600 14.590000
-8.181720 2.504540 46.182100 -13.408800 5.350000
19.553900 1.670130 42.671500 -12.698400 17.580000
-8.259050 2.271310 46.618600 -13.408800 8.780000
-8.334130 2.291950 47.042400 -13.408800 9.970000
-10.596000 2.163510 47.033500 -13.408800 11.850000
19.760300 1.156630 44.014700 -12.787200 9.200000
-7.563050 1.881910 48.063900 -13.497600 10.040000
-7.629980 1.898560 48.489300 -13.497600 5.310000
20.005200 0.118939 47.213600 -12.876000 9.810000
-29.566000 1.239250 42.403300 -11.100000 10.280000
20.173300 0.000000 47.610400 -12.876000 5.490000
-29.808000 1.531670 42.750400 -11.100000 8.250000
20.341400 -0.120938 48.007100 -12.876000 10.490000
-30.054400 1.544320 43.103700 -11.100000 7.780000
-30.305100 1.270230 43.463300 -11.100000 7.570000
-30.551500 1.280560 43.816700 -11.100000 7.870000
10.820100 -1.290890 52.748700 -13.497600 14.610000
10.496500 -1.301210 53.253200 -13.497600 14.820000
-15.840600 -0.988444 53.272100 -13.053600 13.820000
-15.955800 -1.991900 53.659600 -13.053600 18.010000
-15.765700 -2.007220 54.164400 -13.053600 8.320000
-29.963800 1.011430 48.335700 -11.455200 8.570000
-30.190800 1.019090 48.701900 -11.455200 8.160000
20.660900 -1.696230 53.890900 -13.053600 8.930000
-15.499200 1.214290 56.055500 -13.053600 10.630000
24.167600 -1.734200 53.831700 -12.698400 8.730000
23.505300 -1.746860 54.593400 -12.787200 5.250000
24.839900 -3.615020 55.329100 -12.698400 7.910000
-15.726300 -0.911503 60.016700 -13.142400 10.170000
-6.005710 2.414830 62.144300 -13.586400 10.560000
-6.047130 2.431490 62.572900 -13.586400 9.070000
14.980400 0.954492 80.921400 -13.586400 7.090000
17.091500 0.959490 80.942400 -13.586400 6.510000
16.709900 0.964487 81.462000 -13.586400 4.680000
16.796500 0.969484 81.884000 -13.586400 6.070000
16.883000 0.974482 82.306100 -13.497600 6.620000
16.970500 0.457098 82.732600 -13.586400 7.690000
17.056700 0.721957 83.152900 -13.586400 7.490000
17.624900 1.253320 83.468500 -13.497600 6.960000
17.169400 7.218100 83.702000 -13.586400 8.120000
16.748100 1.004470 84.970200 -13.586400 6.800000
16.831500 1.009460 85.393000 -13.586400 9.490000
16.914800 1.014460 85.815700 -13.586400 8.110000
17.662300 1.019460 86.104900 -13.497600 7.890000
17.865300 7.164620 87.094700 -13.586400 7.580000
17.794000 6.055880 90.276600 -13.497600 5.620000
18.145000 4.501320 92.057100 -13.586400 16.950000
17.210000 2.311650 109.371000 -13.675200 14.200000
17.277000 2.320650 109.797000 -13.675200 9.580000
17.345000 1.984550 110.229000 -13.675200 12.450000
17.414500 0.606355 110.671000 -13.675200 11.800000
-10.507500 1.823010 123.640000 -13.675200 6.270000
-10.544000 1.829340 124.069000 -13.675200 9.350000
-10.579300 2.608480 124.485000 -13.586400 9.580000
-10.615800 2.617480 124.914000 -13.675200 9.330000
-9.298320 2.725410 130.203000 -13.675200 12.770000
-9.329010 2.734410 130.632000 -13.675200 12.350000
-10.116400 3.149760 130.997000 -13.675200 10.060000
-10.149600 3.160090 131.426000 -13.675200 7.640000
7.235710 0.132928 5.432250 -8.169600 3.530000
7.580270 0.139257 5.690930 -8.169600 7.440000
7.867880 0.053639 6.026250 -8.347200 13.970000
8.136810 0.023988 6.382830 -8.436000 15.620000
8.411290 0.058303 6.730040 -8.524800 12.790000
6.481460 -1.117240 7.980670 -10.478400 5.840000
6.742560 -1.287920 8.302160 -10.567200 8.700000
6.945510 -1.339440 8.688040 -10.656000 8.360000
9.081260 -1.003740 8.525010 -9.324000 3.840000
6.948740 -1.080670 9.803890 -11.011200 5.680000
7.455200 1.738370 9.325610 -10.656000 7.470000
9.310720 -1.008460 8.910710 -9.412800 5.000000
7.196910 -1.119260 10.154000 -11.011200 7.590000
7.721460 1.800460 9.658670 -10.656000 7.550000
7.198190 -1.197670 10.670500 -11.277600 4.250000
8.069620 -0.309813 10.094200 -10.567200 8.500000
8.659730 0.149920 9.596560 -10.212000 7.750000
6.268770 -1.197670 11.241700 -11.544000 2.610000
9.232840 -2.690580 9.881620 -10.389600 6.430000
8.852430 0.154918 10.002200 -10.212000 8.180000
7.905000 -2.690580 10.972800 -11.011200 6.100000
8.335820 1.492640 11.955200 -11.188800 5.730000
8.581000 1.536550 12.306800 -11.188800 6.010000
7.971640 0.665468 13.791300 -11.721600 7.400000
8.296010 0.683453 14.100500 -11.632800 10.880000
8.515380 0.649507 14.473300 -11.632800 11.760000
8.500460 0.825929 14.971300 -11.721600 11.360000
8.604300 0.040979 15.430000 -11.899200 12.430000
8.722990 0.000000 15.363200 -11.810400 9.980000
7.119640 -1.843850 16.536100 -12.165600 9.070000
7.289150 -1.887760 16.929800 -12.254400 8.560000
7.953620 1.989980 17.095200 -12.165600 6.440000
8.843120 -4.503070 17.654400 -12.165600 7.750000
8.926900 -4.598880 18.081900 -12.165600 9.060000
18.338600 1.402370 12.798200 -7.992000 9.250000
18.694800 1.358840 13.046700 -7.992000 9.290000
-6.831010 1.730580 20.360000 -12.520800 8.120000
19.047600 1.384480 13.292900 -7.992000 4.700000
-6.967630 1.765200 20.767200 -12.609600 7.620000
18.461300 1.629550 14.771300 -8.613600 5.320000
-5.969310 0.588965 21.589000 -12.787200 6.970000
18.621900 1.659180 15.256100 -8.702400 7.530000
-6.080900 0.953237 21.992600 -12.787200 7.240000
-7.258020 0.953237 21.632700 -12.520800 6.550000
18.954400 1.688810 15.528600 -8.702400 5.540000
-6.195640 0.971223 22.407600 -12.787200 5.180000
-11.047800 0.971223 20.455600 -12.254400 5.820000
-11.077100 1.556420 20.893600 -12.254400 9.490000
18.511200 1.564180 16.718200 -9.235200 10.050000
-11.442200 1.584720 21.185900 -12.254400 8.210000
18.830400 1.591150 17.006400 -9.235200 10.010000
-10.849400 1.613020 21.976000 -12.520800 7.250000
-12.121800 0.721529 21.349400 -12.165600 5.140000
18.948300 1.618120 17.514900 -9.324000 5.330000
18.423800 1.563950 18.681900 -9.768000 11.190000
18.729200 1.507100 18.991500 -9.768000 14.200000
19.031300 1.531410 19.297800 -9.768000 12.730000
-10.839900 1.652950 27.172100 -12.343200 6.170000
-10.036600 1.677250 27.936500 -12.432000 11.170000
-10.345700 1.701560 28.282100 -12.432000 13.000000
18.894200 1.560530 24.011700 -10.744800 10.270000
8.529960 -2.103600 29.305300 -12.876000 5.740000
-10.110200 1.466020 28.837900 -12.520800 11.390000
19.158000 1.654370 24.346900 -10.744800 11.590000
8.650100 -2.133230 29.718100 -12.876000 9.320000
-10.083400 1.486670 29.302800 -12.609600 9.260000
18.993100 1.677350 25.018200 -10.833600 8.680000
8.768330 -2.259900 30.124200 -12.876000 8.440000
-10.223400 1.507320 29.709800 -12.609600 6.080000
9.054240 -2.757810 30.449500 -12.787200 7.150000
9.601010 -2.421490 30.763300 -12.876000 10.880000
9.820230 -1.299010 32.117300 -12.876000 8.410000
11.785400 -0.883448 31.463800 -12.520800 5.680000
-5.963990 1.890220 36.525500 -13.053600 7.540000
-4.820710 1.796400 37.133600 -13.142400 8.700000
-4.658920 1.817040 37.588000 -13.142400 8.440000
19.567900 0.950092 34.463700 -11.810400 8.030000
-19.074500 -0.366476 38.636500 -11.810400 11.940000
-19.265300 -0.370140 39.022800 -11.810400 7.360000
-19.456700 -0.101948 39.410500 -11.810400 5.340000
10.912900 1.441010 42.996000 -13.053600 7.610000
10.765300 1.732020 43.466800 -13.053600 6.970000
-20.022100 1.189260 40.555700 -11.810400 9.110000
-20.212700 1.200580 40.942000 -11.810400 5.060000
-20.403400 1.211910 41.328200 -11.899200 13.260000
-19.251900 0.406788 43.782400 -12.076800 8.970000
-18.659700 0.406788 44.038100 -12.076800 5.960000
20.099000 1.156630 43.861100 -12.254400 7.960000
-7.040200 1.034400 49.039900 -13.142400 7.910000
-7.387250 1.043390 49.424500 -13.142400 7.650000
-7.450930 1.052390 49.850600 -13.142400 7.240000
-30.146400 0.765916 42.533200 -10.744800 8.190000
-29.151800 1.088370 43.214100 -10.922400 10.010000
20.340700 0.443435 48.005400 -12.432000 5.710000
-29.629800 1.393130 43.922700 -10.922400 5.680000
20.508800 0.447100 48.402200 -12.520800 8.920000
-29.870700 1.404460 44.279800 -10.922400 8.850000
20.676300 -0.614673 48.797400 -12.432000 10.560000
20.844400 -0.619670 49.194100 -12.432000 14.210000
12.242300 -0.291517 52.452000 -13.053600 16.870000
-3.449840 0.461759 54.181700 -13.231200 6.670000
12.645600 -0.293849 52.799400 -13.053600 14.230000
-3.477220 0.465424 54.611700 -13.231200 15.540000
20.280100 -0.319502 55.439600 -12.609600 4.540000
20.428100 -0.321835 55.844200 -12.609600 7.570000
16.998100 1.019460 86.238400 -13.142400 7.670000
17.081400 1.024460 86.661200 -13.142400 8.860000
17.164700 1.029450 87.083900 -13.142400 6.690000
17.247400 1.310290 87.503100 -13.142400 6.480000
18.007800 1.316620 87.789600 -13.142400 5.550000
-17.099300 6.844760 89.474800 -12.964800 5.730000
-17.699300 6.877040 89.796000 -12.964800 6.670000
18.563600 6.941620 90.498800 -13.142400 6.240000
18.678100 4.747520 91.057300 -13.142400 7.330000
17.791800 1.685720 93.098200 -13.142400 14.640000
-10.618000 0.678651 124.940000 -13.231200 6.190000
-10.654200 1.070110 125.366000 -13.231200 6.900000
-10.691100 0.292851 125.800000 -13.231200 4.880000
-10.727600 0.293850 126.229000 -13.231200 9.280000
-10.764100 0.294850 126.659000 -13.231200 11.760000
-9.422790 1.125080 131.945000 -13.231200 11.540000
-9.453190 1.539180 132.371000 -13.231200 8.300000
17.032100 3.696850 176.240000 -13.231200 5.910000
17.073500 3.705840 176.669000 -13.231200 6.420000
7.525790 0.051307 5.764230 -8.436000 5.390000
7.867880 0.053639 6.026250 -8.436000 13.080000
8.136710 0.055971 6.382750 -8.524800 14.470000
6.679310 -1.117240 7.815830 -10.389600 3.730000
8.411110 0.091619 6.729900 -8.702400 11.370000
6.894660 -1.163800 8.194870 -10.389600 7.840000
7.097730 -1.305030 8.569440 -10.478400 8.330000
6.835030 -0.536854 8.860610 -10.833600 6.660000
7.591290 -1.355220 8.711630 -10.389600 7.540000
7.327200 -0.521559 9.022030 -10.656000 5.220000
7.681010 0.755121 9.273670 -10.567200 6.600000
6.895840 2.740790 10.054200 -11.277600 5.730000
7.787580 0.782090 9.741380 -10.744800 8.750000
8.057640 0.769153 10.079200 -10.744800 10.350000
8.286060 0.763985 13.599500 -11.632800 8.580000
8.508700 0.835212 13.964900 -11.632800 9.550000
7.745990 0.896118 14.886500 -11.988000 6.960000
8.186340 0.559617 15.157500 -11.988000 7.060000
8.479780 0.628214 15.486100 -11.899200 9.890000
8.587960 0.965050 15.901100 -11.988000 8.020000
7.035140 -2.442620 16.966200 -12.343200 6.630000
8.960620 0.657549 18.150200 -12.165600 5.570000
-6.157360 0.799394 19.729200 -12.698400 10.270000
-6.981050 0.750793 19.912500 -12.520800 7.180000
18.185800 1.471520 13.006700 -8.080800 6.720000
-7.279910 0.766115 20.263300 -12.520800 7.260000
18.691300 1.429340 13.044300 -7.992000 7.080000
-5.738070 0.766115 20.752700 -12.787200 8.500000
19.044000 1.456310 13.290400 -7.992000 7.720000
-6.525380 2.006950 21.341400 -12.698400 4.840000
18.465200 1.556420 14.774400 -8.702400 6.510000
18.625700 1.584720 15.259300 -8.791200 7.830000
18.958300 1.613020 15.531800 -8.791200 5.930000
-11.350500 1.775760 20.728700 -12.254400 7.420000
-5.922300 1.659180 23.333400 -12.787200 6.520000
-11.562000 1.659180 21.115000 -12.343200 4.930000
18.336700 1.043170 16.949600 -9.324000 6.520000
-10.969100 1.840340 21.898600 -12.609600 10.000000
18.845700 1.218250 17.020300 -9.324000 7.270000
-11.041900 1.564180 22.366000 -12.609600 9.610000
-11.058700 1.512670 22.841900 -12.698400 7.100000
-6.577580 1.296780 24.523200 -12.876000 7.050000
18.542100 1.589580 19.167600 -9.856800 7.400000
-10.382200 1.777690 23.611000 -12.964800 7.020000
-6.457180 1.401620 25.440800 -12.876000 8.570000
-12.473000 1.401620 23.094500 -12.343200 7.460000
18.841100 1.615220 19.476800 -9.856800 9.130000
-10.555200 1.807320 24.004500 -12.964800 8.970000
-6.452420 1.726210 25.422100 -12.964800 8.370000
-12.677500 1.424600 23.473100 -12.343200 5.780000
18.657400 1.743410 22.526000 -10.567200 5.150000
18.931800 1.769050 22.857300 -10.567200 4.270000
19.206200 1.794690 23.188600 -10.567200 5.280000
-10.038300 1.585440 27.941300 -12.609600 7.700000
-10.183800 1.608420 28.346200 -12.609600 5.730000
-10.329300 1.631390 28.751200 -12.609600 6.810000
-10.474800 1.654370 29.156100 -12.609600 7.970000
8.138360 -1.604490 30.342300 -13.053600 5.580000
9.440090 -1.448780 30.874000 -12.876000 5.550000
11.059800 -1.569270 30.784400 -12.698400 7.750000
9.565950 -1.468090 31.285700 -12.876000 5.810000
10.299300 -1.589910 31.500200 -12.698400 5.100000
10.433000 -1.610560 31.909300 -12.698400 6.900000
10.522200 1.037990 33.714700 -12.876000 5.680000
-5.075070 1.907120 35.351400 -13.142400 7.690000
-22.354300 -2.548020 29.445600 -10.478400 7.440000
-5.342940 1.930100 35.747000 -13.142400 6.170000
-5.407200 1.868240 36.177000 -13.142400 8.080000
-5.471650 1.775750 36.608200 -13.142400 6.860000
-10.101900 0.996711 36.535200 -12.876000 5.290000
-9.820020 0.996711 36.612000 -12.876000 4.840000
-10.043800 0.929438 37.446300 -12.876000 7.930000
-18.006300 -1.899640 35.266300 -11.721600 7.900000
-17.814800 -2.088030 36.796600 -11.899200 10.810000
-8.535190 2.110010 40.421200 -13.053600 8.560000
-8.390350 1.873750 40.903600 -13.053600 8.520000
-8.476850 1.893070 41.325300 -13.053600 7.040000
-19.687800 -0.758574 37.836700 -11.721600 7.620000
-8.564500 1.780580 41.752600 -13.053600 8.090000
-19.591500 -0.766236 38.371000 -11.721600 8.670000
-15.099700 -6.403720 40.312100 -12.343200 6.010000
-19.787400 -0.773898 38.754700 -11.721600 10.020000
11.127900 2.106120 42.467600 -13.053600 5.870000
10.906100 2.126770 42.969300 -13.142400 4.910000
-15.637500 -4.565730 41.747800 -12.343200 8.670000
-19.829700 1.316470 40.166000 -11.899200 7.490000
11.012000 2.147420 43.386400 -13.142400 9.630000
-19.707200 1.329130 40.705300 -11.899200 5.940000
-19.894900 1.341790 41.093000 -11.899200 9.250000
-20.082600 1.354450 41.480700 -11.899200 14.530000
-17.971000 -13.132400 40.869300 -12.165600 16.370000
-17.117100 1.146310 44.647400 -12.343200 7.210000
-16.923600 1.156630 45.181400 -12.343200 5.700000
-7.910150 1.898560 48.444300 -13.142400 8.640000
-7.319680 1.915210 48.972500 -13.142400 8.430000
-7.385670 1.468370 49.413900 -13.142400 5.030000
20.135200 0.447100 48.558800 -12.520800 15.030000
20.298800 0.778575 48.953300 -12.520800 11.440000
11.647100 0.778575 51.699200 -13.142400 9.260000
20.463800 0.784905 49.351300 -12.520800 7.090000
11.440400 0.784905 52.186600 -13.231200 6.720000
11.394300 0.639660 53.961600 -13.231200 8.100000
21.447400 -1.049740 54.989400 -12.609600 10.320000
19.457800 -3.378820 56.545600 -12.787200 9.890000
19.926700 -3.403120 56.838100 -12.787200 8.130000
20.664300 -2.932050 57.518200 -12.698400 6.190000
-5.032410 1.693640 70.467800 -13.320000 8.240000
17.575700 1.014460 85.682800 -13.231200 6.110000
16.998100 1.019460 86.238400 -13.231200 6.520000
17.748800 1.024460 86.526900 -13.231200 5.330000
17.164700 1.029450 87.083900 -13.231200 6.190000
-16.499700 7.092840 89.128400 -13.053600 9.040000
-16.577900 7.126450 89.550900 -13.053600 7.000000
-17.175900 7.160070 89.875500 -13.053600 5.520000
17.362500 5.226230 90.851800 -13.231200 7.450000
17.994000 2.230650 91.291200 -13.231200 8.120000
14.532300 1.662730 92.354100 -13.231200 6.340000
17.094300 2.251300 92.340300 -13.231200 7.490000
17.704400 3.063900 92.640800 -13.231200 9.820000
18.414600 1.104410 93.425000 -13.231200 7.580000
18.497200 1.405230 93.843900 -13.231200 6.990000
27.346300 1.550820 101.955000 -13.053600 7.260000
27.458000 1.557150 102.372000 -13.053600 9.420000
27.569600 1.563480 102.788000 -13.053600 7.390000
27.679800 1.900270 103.199000 -13.053600 7.090000
17.346600 1.294310 110.239000 -13.231200 6.120000
17.413600 1.299310 110.665000 -13.231200 14.070000
17.479800 1.652100 111.086000 -13.231200 19.100000
17.545900 2.007540 111.506000 -13.231200 19.470000
16.749700 2.015200 112.064000 -13.231200 14.980000
-9.885540 2.283380 128.007000 -13.320000 6.150000
-10.908300 2.291050 128.356000 -13.320000 7.710000
-10.945800 1.499200 128.797000 -13.320000 8.580000
16.991700 3.141570 175.822000 -13.320000 8.000000
17.033100 3.149230 176.251000 -13.320000 5.700000
17.074600 3.156890 176.680000 -13.320000 5.410000
7.458740 0.021989 5.850920 -8.613600 5.270000
7.738480 0.022988 6.191710 -8.702400 10.950000
8.074940 0.023988 6.460920 -8.702400 12.040000
7.090940 1.254840 8.011910 -10.389600 6.820000
8.333030 0.024987 6.826920 -8.791200 8.800000
7.310130 1.305030 8.388980 -10.478400 6.900000
7.507010 1.355220 8.784360 -10.478400 8.210000
7.407440 1.442470 9.413720 -10.833600 5.890000
7.954770 1.277260 10.109300 -10.833600 7.880000
-7.652040 0.459669 10.408800 -10.744800 8.530000
8.219920 1.319840 10.446300 -10.833600 9.510000
-7.804690 0.392410 10.833600 -10.744800 9.110000
7.850300 1.319970 11.258800 -11.188800 8.930000
8.380800 1.362410 10.864500 -10.922400 7.330000
8.005900 1.361220 11.672700 -11.277600 7.550000
-8.039360 0.417727 11.721500 -10.922400 6.880000
7.825020 1.361220 11.794700 -11.366400 6.310000
8.320730 1.771220 12.971600 -11.632800 5.960000
8.268780 1.280630 13.571100 -11.721600 9.300000
8.276420 1.315240 14.067200 -11.810400 9.590000
8.382690 1.349860 14.502400 -11.810400 8.710000
8.026280 -1.862070 15.139100 -12.076800 8.860000
8.335210 -2.112190 15.433200 -12.165600 8.770000
8.750960 -2.163710 15.693000 -12.165600 5.700000
9.000730 1.331170 16.140900 -12.165600 5.810000
7.977130 1.362130 17.145700 -12.343200 7.260000
7.026090 1.452900 18.014300 -12.520800 8.500000
7.323940 1.485180 18.358700 -12.609600 7.490000
-6.271460 1.704780 19.181200 -12.609600 5.670000
-6.709460 1.613540 19.498100 -12.609600 10.600000
-6.870180 0.000000 19.965100 -12.609600 11.760000
-7.010370 0.049974 20.372500 -12.698400 8.870000
-7.546380 0.645578 20.629500 -12.609600 4.270000
-6.669650 0.935252 21.370700 -12.787200 6.150000
-6.671890 0.953237 21.820600 -12.787200 8.330000
-6.626220 0.971223 22.284000 -12.698400 7.640000
18.316700 1.564180 16.931100 -9.412800 10.350000
18.833900 1.512670 17.009700 -9.412800 10.670000
19.153200 1.538310 17.298000 -9.412800 6.470000
-6.102090 1.434170 24.638200 -13.053600 4.350000
18.611700 1.340730 18.512200 -9.945600 8.950000
-6.012220 1.458480 25.102900 -13.053600 6.670000
18.732400 1.424600 18.994800 -10.034400 7.460000
-7.669070 1.726210 25.081900 -12.964800 9.060000
19.034600 1.447580 19.301100 -10.034400 5.680000
18.737300 1.493530 20.764400 -10.300800 9.480000
19.025600 1.516510 21.083800 -10.300800 8.380000
19.313800 1.539480 21.403300 -10.300800 7.000000
19.114100 1.585440 22.718600 -10.656000 4.610000
-10.466500 1.924300 27.300400 -12.520800 4.560000
-10.406600 1.952600 27.782900 -12.609600 5.800000
-10.339900 1.980900 28.266000 -12.609600 9.660000
-11.528400 1.980900 27.802500 -12.432000 4.720000
-5.712910 3.116990 29.893700 -13.142400 9.600000
-9.933250 2.009200 28.866600 -12.698400 9.470000
-11.693100 2.009200 28.199700 -12.432000 5.640000
-5.618040 3.160890 30.347700 -13.142400 6.590000
-11.857800 2.037490 28.596800 -12.432000 6.750000
8.908910 0.764204 30.607200 -13.053600 10.020000
-10.947400 1.133850 29.927000 -12.609600 6.200000
8.608840 0.949380 31.135300 -13.053600 7.950000
10.646100 -2.994170 30.366400 -12.787200 6.140000
8.699530 -1.402880 32.434500 -13.053600 8.670000
19.030500 0.894774 28.210500 -11.455200 9.980000
-19.763000 -1.302400 30.809600 -11.100000 4.950000
-20.471300 -1.432250 30.856600 -11.011200 9.200000
-20.468100 -1.448900 31.374000 -11.011200 6.160000
-5.965760 1.661260 36.536300 -13.231200 9.480000
-5.376830 2.490270 37.453400 -13.231200 6.220000
-10.100100 1.231160 36.528600 -12.964800 7.860000
-10.215800 1.126600 36.947200 -12.876000 7.170000
-10.331500 1.019360 37.365600 -12.876000 5.780000
11.584200 1.409650 37.886300 -12.964800 7.830000
-17.934000 -1.548830 35.803300 -11.899200 6.940000
10.436500 10.344100 37.745200 -13.142400 9.300000
-18.124500 -1.690650 36.183800 -11.899200 10.350000
10.261500 10.331700 38.258000 -13.142400 7.140000
-17.822500 -1.708630 36.812400 -11.988000 5.490000
9.847140 10.440500 38.797000 -13.142400 10.350000
-8.390350 1.873750 40.903600 -13.142400 9.080000
-8.156920 2.023530 41.383500 -13.142400 12.650000
-7.834640 2.064820 42.321400 -13.142400 8.690000
10.897200 2.777770 42.934300 -13.142400 7.600000
-16.807100 -6.666270 40.532800 -12.254400 12.070000
11.336800 2.804740 43.265100 -13.231200 4.770000
-19.517600 1.455000 40.313800 -11.988000 11.360000
-20.018400 1.468990 40.548400 -11.988000 6.400000
-20.206900 1.624160 40.930200 -11.988000 6.530000
-20.076200 1.781980 41.467600 -11.988000 9.120000
23.826100 -0.708947 41.963300 -11.988000 7.490000
11.328000 2.333250 47.298100 -13.231200 7.090000
11.428300 2.353900 47.716700 -13.231200 7.670000
20.326300 2.015140 47.971300 -12.609600 5.800000
-16.336800 0.284520 49.966100 -12.698400 8.430000
20.494200 2.031790 48.367800 -12.698400 7.720000
-16.171000 1.720820 50.444100 -12.698400 6.420000
11.742300 -0.619670 52.121700 -13.231200 8.890000
11.837400 -0.458094 52.543700 -13.231200 8.330000
13.051500 -0.629665 52.697600 -13.231200 7.670000
10.994600 -0.973120 53.599600 -13.320000 8.440000
12.121700 -0.298513 53.805900 -13.231200 8.930000
11.484100 0.128934 54.386700 -13.231200 10.110000
11.573100 0.129934 54.808300 -13.231200 7.960000
19.640200 -3.101950 54.667800 -12.876000 8.500000
21.835600 -3.101950 53.828500 -12.698400 6.960000
19.799100 -2.264950 55.110000 -12.876000 6.570000
22.012200 -2.264950 54.263900 -12.698400 8.110000
19.601100 -3.216830 56.962000 -12.876000 7.090000
20.072400 -3.239810 57.253800 -12.876000 9.010000
20.211400 -3.451740 57.650100 -12.876000 9.860000
22.506900 -3.691940 57.705800 -12.698400 8.810000
22.663200 -3.717570 58.106600 -12.698400 7.410000
-15.577500 -1.664960 61.374400 -12.964800 6.250000
-14.848700 -1.676290 61.997800 -12.964800 6.130000
-15.429600 -1.687610 62.299600 -12.964800 8.880000
16.883600 0.714627 82.308700 -13.231200 8.430000
16.970200 0.718292 82.730800 -13.231200 5.760000
17.056700 0.721957 83.152900 -13.231200 5.610000
17.230300 0.464095 83.998900 -13.231200 6.430000
17.316900 0.466427 84.421000 -13.231200 7.050000
17.490200 0.201897 85.266200 -13.231200 5.410000
17.576800 0.202896 85.688300 -13.231200 5.670000
17.662300 1.019460 86.104900 -13.320000 10.580000
17.748100 1.297630 86.523400 -13.320000 8.330000
17.834700 1.303960 86.945500 -13.320000 10.580000
17.922000 1.034450 87.371100 -13.231200 7.880000
13.944800 2.480450 93.298100 -13.320000 8.480000
18.415800 0.220887 93.431000 -13.320000 9.250000
18.497200 1.405230 93.843900 -13.320000 8.640000
16.757800 2.302940 94.590100 -13.320000 10.610000
16.283400 2.313270 95.110000 -13.320000 12.840000
27.459100 1.229350 102.376000 -13.142400 10.120000
27.569600 1.563480 102.788000 -13.142400 7.810000
27.681200 1.569810 103.204000 -13.142400 8.610000
17.410900 2.338640 110.648000 -13.320000 5.880000
17.477900 2.347630 111.074000 -13.320000 6.740000
17.544900 2.356630 111.499000 -13.320000 6.780000
17.611800 2.365620 111.925000 -13.320000 8.420000
-10.580900 1.449230 124.504000 -13.408800 11.730000
-10.617400 1.454230 124.933000 -13.408800 10.380000
-10.653900 1.459220 125.362000 -13.408800 13.790000
-9.853260 1.484210 127.589000 -13.408800 13.560000
-9.886440 1.489210 128.018000 -13.408800 10.450000
-9.919920 1.095760 128.452000 -13.408800 7.530000
-9.953100 1.099430 128.882000 -13.408800 6.850000
16.990700 3.687850 175.811000 -13.408800 5.850000
17.032100 3.696850 176.240000 -13.408800 5.260000
17.073500 3.705840 176.669000 -13.408800 5.030000
6.867890 0.349760 8.291950 -10.567200 4.750000
7.421210 0.363751 8.385080 -10.478400 5.790000
6.838560 -0.398380 8.865190 -10.922400 2.870000
7.636660 0.485611 8.763700 -10.567200 6.320000
7.101580 -0.413702 9.206160 -10.922400 6.840000
7.362840 -0.503597 9.544840 -11.011200 8.300000
7.983480 0.659378 10.145800 -10.922400 7.490000
8.566870 0.149920 9.679540 -10.389600 8.170000
8.249590 0.681357 10.484000 -10.922400 7.580000
8.775080 0.154918 10.070100 -10.478400 8.170000
8.609490 0.159915 10.769500 -10.833600 5.700000
9.137990 0.159915 10.324800 -10.478400 6.550000
8.042670 1.624350 13.669900 -11.899200 7.150000
8.273780 1.378330 14.062700 -11.899200 9.300000
8.380020 1.414600 14.497800 -11.899200 10.710000
8.073510 0.039980 15.228100 -12.165600 9.220000
8.395400 -0.040979 15.544600 -12.165600 15.710000
8.599880 -0.153920 15.923200 -12.165600 17.040000
7.327020 -0.157585 17.017700 -12.343200 14.430000
8.356990 1.756580 16.927500 -12.343200 8.440000
8.646860 1.796500 17.262600 -12.343200 6.640000
8.762120 1.056960 17.748100 -12.343200 7.270000
8.952600 1.079940 18.134000 -12.343200 6.490000
9.145590 0.991115 18.524900 -12.343200 10.000000
9.334690 1.076980 18.907900 -12.343200 6.360000
-6.997960 1.281920 20.336500 -12.698400 7.460000
-7.417050 1.307560 20.645000 -12.609600 6.890000
-6.414330 1.307560 20.978200 -12.876000 6.990000
-6.951010 1.333200 21.259600 -12.698400 4.590000
-7.256000 1.094360 21.626700 -12.698400 5.380000
-7.220880 1.240780 22.085000 -12.698400 4.330000
-9.245810 1.409870 23.176200 -12.964800 7.450000
-6.248920 1.061150 24.620300 -13.053600 7.660000
-6.012220 1.458480 25.102900 -13.053600 8.810000
-5.767650 1.482790 25.601400 -13.142400 8.370000
-10.713400 2.310600 24.364300 -12.876000 11.020000
-10.780400 1.952600 27.640000 -12.609600 9.490000
-11.316100 1.887800 27.896000 -12.520800 4.900000
-10.712400 1.820330 28.599300 -12.698400 7.030000
-11.695500 1.914770 28.205300 -12.520800 8.300000
8.151450 0.638628 29.481100 -13.142400 6.150000
-10.242200 2.037490 29.214400 -12.876000 7.950000
8.250210 2.037490 29.838200 -13.053600 8.780000
9.847240 2.037490 29.349900 -13.053600 8.000000
9.950350 -3.301560 29.657200 -12.964800 7.110000
18.676000 1.149170 26.349700 -11.277600 7.150000
9.207130 -0.949380 30.963700 -13.053600 6.780000
18.927000 1.063270 26.703900 -11.277600 9.300000
19.176000 1.077260 27.055200 -11.366400 10.670000
19.028900 1.000010 28.208100 -11.544000 6.230000
19.267900 1.119230 28.562400 -11.544000 7.000000
-4.925680 2.377080 35.780000 -13.320000 6.890000
-4.705120 2.405370 36.243300 -13.408800 5.090000
-5.045820 2.090490 36.652700 -13.320000 8.930000
-4.818570 2.114800 37.117100 -13.320000 7.510000
-9.985300 1.217170 36.113500 -12.964800 7.300000
-10.100100 1.231160 36.528600 -12.964800 5.970000
-10.215800 1.126600 36.947200 -12.964800 9.540000
-19.373000 -2.307460 33.516100 -11.455200 6.480000
-19.326500 -2.333100 34.038500 -11.544000 8.830000
-19.513900 -3.092610 34.368500 -11.544000 5.420000
9.010100 -0.337158 38.603800 -13.231200 6.280000
9.108040 -0.340822 39.023400 -13.231200 7.590000
-18.566800 -2.940960 36.364000 -11.810400 9.790000
-8.535190 2.110010 40.421200 -13.142400 8.190000
-19.855500 -1.098650 36.763700 -11.632800 8.450000
-8.623050 2.228810 40.837400 -13.142400 4.930000
-20.060200 -1.109970 37.142700 -11.632800 8.900000
-8.708910 2.512570 41.243900 -13.142400 12.520000
10.558300 1.698710 42.630900 -13.231200 7.080000
10.660500 1.852520 43.043500 -13.231200 6.540000
-20.254400 1.329130 40.435800 -11.899200 4.280000
-20.211000 1.341790 40.938500 -11.988000 10.970000
-20.084300 1.211910 41.484300 -11.988000 13.600000
11.083400 0.534716 44.751100 -13.231200 9.320000
11.187300 0.395794 45.170800 -13.231200 7.490000
-17.989100 -0.544710 43.383200 -12.343200 14.330000
11.290900 0.399458 45.589000 -13.231200 8.250000
-18.154100 -0.549708 43.781200 -12.343200 9.540000
12.046400 -0.286852 51.612800 -13.320000 9.190000
-18.065600 -0.123937 50.284700 -12.698400 11.720000
12.144300 -0.289185 52.032400 -13.320000 16.610000
12.241100 -0.791235 52.447100 -13.231200 7.910000
11.624900 -0.797565 53.028300 -13.320000 17.710000
19.211600 -3.461190 54.798300 -12.964800 6.580000
21.289600 -1.223290 54.584800 -12.787200 5.640000
19.809600 -1.223290 55.139100 -12.876000 7.290000
22.606700 -1.232280 54.519300 -12.698400 7.640000
19.942200 -2.464030 55.508300 -12.876000 5.970000
22.756800 -2.482010 54.881300 -12.698400 6.270000
20.090300 -2.298260 55.920400 -12.876000 7.950000
22.924600 -2.314910 55.285900 -12.698400 7.660000
20.242200 -1.759520 56.343400 -12.964800 8.940000
19.949900 -1.772180 56.904200 -12.964800 5.650000
-14.197900 -2.098560 63.021400 -13.053600 5.960000
16.968100 1.501820 82.720700 -13.320000 7.030000
17.055500 1.246990 83.146900 -13.320000 5.720000
16.497500 1.253320 83.698600 -13.320000 4.320000
16.914800 1.014460 85.815700 -13.320000 5.910000
16.997400 1.291300 86.234900 -13.320000 5.750000
17.080700 1.297630 86.657700 -13.320000 7.380000
17.164700 1.029450 87.083900 -13.320000 7.040000
17.249000 0.482752 87.511300 -13.320000 10.250000
17.279700 6.991990 87.667300 -13.320000 12.810000
17.366900 6.747900 88.109700 -13.320000 9.870000
17.450000 6.780180 88.531300 -13.320000 9.220000
17.194600 5.744320 89.973500 -13.320000 18.510000
17.268300 6.340430 90.359100 -13.320000 18.250000
15.754000 5.274840 92.017500 -13.408800 8.860000
17.980800 2.329640 110.120000 -13.408800 6.960000
17.410900 2.338640 110.648000 -13.408800 11.130000
17.477900 2.347630 111.074000 -13.408800 11.040000
17.543600 2.705700 111.492000 -13.408800 7.010000
-10.617000 1.842000 124.928000 -13.408800 7.000000
-11.377900 1.848330 125.294000 -13.408800 12.780000
-10.690000 1.854660 125.787000 -13.408800 9.420000
16.989500 4.234100 175.799000 -13.497600 5.030000
17.032100 3.696850 176.240000 -13.497600 4.660000
7.605520 0.022988 6.354330 -9.146400 8.840000
7.936220 0.000000 6.630620 -9.146400 11.170000
8.266890 0.000000 6.906900 -9.146400 9.150000
8.056190 0.959683 10.611800 -11.188800 6.430000
7.944590 1.796550 12.177700 -11.721600 3.400000
8.023720 1.955070 13.637700 -11.988000 5.880000
8.495920 0.714730 13.472100 -11.810400 7.080000
8.724290 0.784633 13.834200 -11.810400 7.480000
7.812290 2.060750 14.735400 -12.254400 7.820000
9.057390 0.999899 14.120000 -11.899200 6.840000
-0.347794 1.300220 18.047700 1.332000 7.330000
-0.356074 1.331170 18.477400 1.332000 6.310000
7.911100 1.716660 16.666700 -12.432000 11.060000
-0.364355 1.362130 18.907100 1.332000 6.190000
8.213460 2.048280 16.965000 -12.520800 11.670000
-0.372551 1.452900 19.332400 1.332000 6.710000
-0.760955 1.668510 19.736400 1.332000 13.170000
-0.622656 1.455000 20.190400 1.332000 9.190000
-6.271460 1.704780 19.181200 -12.787200 6.950000
1.469520 1.485960 20.577300 1.332000 3.440000
-6.288580 1.852570 19.616700 -12.876000 4.200000
-0.933926 1.191090 21.059800 1.332000 4.600000
-6.715030 0.375456 20.014300 -12.787200 5.690000
-0.952635 1.348430 21.481600 1.332000 9.340000
-7.009280 0.383118 20.369300 -12.787200 4.400000
-6.990200 0.050974 20.834500 -12.787200 10.260000
-6.664830 1.264020 21.355300 -12.876000 8.300000
-1.007420 2.115880 22.717100 1.332000 6.530000
-6.793000 1.288330 21.765900 -12.876000 4.630000
-11.453800 1.815230 20.172800 -12.609600 6.880000
-7.346050 1.702660 22.467800 -12.876000 8.550000
-11.665900 1.848840 20.546400 -12.609600 5.590000
-11.875800 1.938250 20.916100 -12.609600 11.880000
-6.029310 1.613020 23.755100 -13.053600 11.310000
-11.758300 1.972870 21.473400 -12.609600 7.330000
18.507500 1.641310 16.714900 -9.679200 7.610000
-11.834300 2.103770 21.911900 -12.698400 9.490000
18.628800 1.669610 17.219600 -9.679200 6.380000
-6.412570 2.511950 24.472500 -13.053600 8.860000
-6.665010 2.554520 24.849200 -13.053600 5.240000
-10.735100 1.969480 23.911800 -13.764000 9.570000
-10.924000 1.807320 23.839000 -13.231200 5.260000
18.538600 1.672050 19.164000 -10.212000 9.190000
-10.911100 2.001770 24.303800 -13.764000 10.420000
-14.039800 1.919370 22.648100 -13.053600 4.490000
18.837600 1.699020 19.473100 -10.212000 7.950000
-10.621900 2.014720 27.233700 -12.698400 5.790000
-10.778100 2.044340 27.634200 -12.698400 8.260000
-10.934300 2.073970 28.034700 -12.698400 7.120000
-10.926000 2.103600 28.498800 -12.787200 9.030000
9.571450 -2.526650 29.857400 -13.142400 6.320000
9.706650 -2.389210 30.279200 -13.142400 7.080000
18.658000 1.823100 26.324400 -11.366400 5.460000
9.571720 -3.491390 30.669400 -13.142400 8.440000
18.910000 1.746280 26.679900 -11.366400 12.240000
9.699350 -3.537940 31.078300 -13.142400 12.080000
19.158800 1.769260 27.031000 -11.366400 12.560000
9.861430 -2.281370 31.597700 -13.142400 7.690000
10.235900 -2.311000 31.930100 -13.142400 13.130000
18.771700 1.714380 27.826800 -11.632800 8.210000
19.012300 1.736360 28.183600 -11.632800 10.710000
19.247400 1.944640 28.532000 -11.632800 4.820000
9.414910 0.628313 34.050600 -13.320000 6.290000
9.993720 0.635976 34.334200 -13.231200 6.210000
-5.142980 0.531710 35.824400 -13.408800 4.770000
-18.197700 -4.378930 31.482800 0.000000 5.630000
-19.346300 -1.515520 34.073400 -11.632800 8.280000
9.752550 -0.091953 38.424400 -13.320000 7.140000
-19.558900 -1.532170 34.447800 -11.632800 8.520000
10.381500 -0.092953 38.705500 -13.320000 7.220000
-17.912200 -2.508080 35.759800 -11.988000 6.210000
-18.104800 -2.535050 36.144300 -11.988000 7.350000
-18.074600 -2.940960 36.611100 -11.988000 10.510000
-17.979200 -2.971920 37.136200 -12.076800 11.230000
-4.760950 2.723830 43.173900 -13.497600 14.080000
11.137500 1.053360 42.504200 -13.320000 6.310000
11.246600 1.063690 42.920900 -13.320000 8.260000
11.354200 1.316470 43.331400 -13.320000 6.670000
-20.018400 1.468990 40.548400 -12.076800 8.970000
-20.209100 1.482980 40.934500 -12.076800 8.680000
-20.401700 1.354450 41.324700 -12.076800 10.680000
10.577100 -0.395794 45.317500 -13.408800 10.000000
-19.947000 1.367110 42.023300 -12.076800 11.010000
10.675000 -0.399458 45.737200 -13.408800 7.350000
19.762900 0.858184 44.020400 -12.698400 5.870000
-8.486650 2.032370 47.903300 -13.320000 7.120000
-8.561760 2.050360 48.327200 -13.320000 7.200000
-6.752190 2.068350 49.047700 -13.408800 8.920000
-7.384180 1.777390 49.404000 -13.408800 9.870000
20.341400 -0.120938 48.007100 -12.787200 10.420000
-29.386400 1.544320 43.561900 -11.100000 8.200000
20.135800 -0.121938 48.560400 -12.787200 7.080000
-29.627300 1.556980 43.919000 -11.100000 7.280000
20.300900 -0.122937 48.958500 -12.787200 5.660000
8.304930 -0.619670 52.778600 -13.408800 8.150000
20.465700 -0.289185 49.355900 -12.787200 8.040000
-30.113400 1.290890 44.639500 -11.100000 9.880000
12.241100 -0.791235 52.447100 -13.408800 13.110000
-30.354300 1.301210 44.996600 -11.100000 13.890000
12.643800 -0.965457 52.791800 -13.408800 5.020000
10.994600 -0.973120 53.599600 -13.408800 13.720000
10.661600 -1.620270 54.090700 -13.497600 9.110000
10.748400 -0.816555 54.530900 -13.497600 10.020000
-2.911950 1.472410 55.921900 -13.586400 19.390000
20.277200 -1.049740 55.431600 -12.964800 9.090000
24.171100 -1.414810 53.839400 -12.698400 6.880000
20.425200 -1.057410 55.836200 -12.964800 10.850000
24.347500 -1.425140 54.232400 -12.609600 7.020000
24.944300 -1.435460 54.434800 -12.609600 7.260000
23.270300 0.704625 56.119500 -12.698400 6.840000
-15.328900 -1.134030 61.893100 -13.142400 8.280000
-15.430500 -1.538740 62.303300 -13.142400 6.900000
-15.636700 -1.710270 63.135900 -13.142400 7.930000
-1.780250 1.703970 71.055800 -13.675200 8.230000
-1.378030 1.050760 71.508400 -13.675200 7.130000
16.022600 1.139380 75.880400 -13.408800 5.920000
16.109900 1.628050 76.293600 -13.497600 6.080000
15.602500 2.700150 81.642300 -13.497600 6.330000
15.689100 1.486500 82.095700 -13.497600 8.040000
16.881500 1.494160 82.298600 -13.497600 6.360000
16.968900 1.240660 82.724800 -13.497600 6.890000
17.055500 1.246990 83.146900 -13.497600 6.310000
16.914800 1.014460 85.815700 -13.497600 14.460000
16.998100 1.019460 86.238400 -13.497600 10.160000
17.081400 1.024460 86.661200 -13.497600 9.600000
17.164700 1.029450 87.083900 -13.497600 11.250000
17.249000 0.482752 87.511300 -13.408800 8.750000
17.283800 6.715610 87.688100 -13.497600 6.070000
17.370900 6.470120 88.129700 -13.497600 5.880000
17.464900 5.663410 88.606800 -13.497600 10.470000
17.537100 6.532040 88.973100 -13.497600 16.620000
17.103200 6.562990 89.495100 -13.497600 17.680000
17.175900 7.160070 89.875500 -13.497600 13.800000
17.630000 1.670390 92.251800 -13.408800 10.400000
18.223200 5.032050 92.454000 -13.497600 8.490000
17.850000 5.078000 93.403100 -13.497600 8.230000
17.410900 2.338640 110.648000 -13.586400 13.270000
17.477900 2.347630 111.074000 -13.586400 14.610000
18.187800 2.705700 111.388000 -13.586400 11.740000
-10.580900 1.449230 124.504000 -13.586400 8.810000
-10.617400 1.454230 124.933000 -13.586400 9.980000
-10.653900 1.459220 125.362000 -13.586400 12.060000
-10.690400 1.464220 125.792000 -13.586400 9.880000
-9.391800 1.529190 131.512000 -13.586400 6.760000
-9.422490 1.534180 131.941000 -13.586400 6.850000
-52.900000 -15.104600 120.304000 -12.165600 9.350000
-9.453480 1.128740 132.375000 -13.586400 6.120000
30.910800 1.128740 129.062000 -13.408800 8.000000
-53.072300 -15.153800 120.696000 -12.165600 8.840000
17.033100 3.149230 176.251000 -13.586400 6.610000
