VERSION .7
FIELDS x y z velocity intensity
SIZE 4 4 4 4 4
TYPE F F F F F
COUNT 1 1 1 1 1
WIDTH 976
HEIGHT 1
VIEWPOINT 0 0 0 1 0 0 0
POINTS 976
DATA ascii
6.752940 -0.493731 32.921100 -10.656000 6.110000
18.111300 2.103550 28.234700 -9.324000 4.450000
7.032800 -0.184239 33.306200 -10.656000 5.750000
18.347000 2.025440 28.602100 -9.324000 5.590000
18.579300 2.051080 28.964200 -9.324000 6.310000
18.814900 1.968950 29.331500 -9.324000 6.510000
8.027030 0.434769 36.616300 -10.656000 7.990000
18.485700 1.912200 32.557600 -9.590400 7.690000
18.701000 1.817040 32.936900 -9.590400 5.520000
18.913500 1.837690 33.311100 -9.590400 10.560000
19.385100 1.858340 33.537000 -9.590400 10.430000
-16.787600 2.212030 35.367400 -11.011200 13.150000
7.879000 -0.333493 38.410700 -10.656000 7.820000
18.792200 2.575170 34.319000 -9.679200 13.340000
-17.247200 2.236340 35.624200 -10.922400 7.250000
18.797800 2.603460 34.805400 -9.679200 8.700000
-17.434700 2.260650 36.011400 -10.922400 10.880000
19.209100 2.508080 35.080200 -9.679200 7.100000
-17.622100 2.284960 36.398700 -10.922400 11.110000
-13.836600 0.981073 38.513600 -13.675200 7.550000
19.271000 2.002880 37.035600 -9.768000 14.200000
19.466600 2.153970 37.411600 -9.768000 7.620000
-6.629940 0.758574 42.133900 -10.656000 7.750000
-26.876400 1.516910 33.093100 -8.169600 4.860000
-27.147900 1.532230 33.427400 -8.169600 4.910000
-27.419400 1.547550 33.761700 -8.169600 5.670000
-24.532700 -7.105050 35.769100 2.841600 7.240000
-27.696400 1.291160 34.102800 -8.258400 8.220000
-24.494100 -7.174710 36.309600 2.841600 10.490000
19.058500 2.412630 40.963600 -9.945600 8.710000
19.236700 2.576650 41.346700 -9.945600 6.860000
19.421500 2.458580 41.743900 -9.945600 10.880000
19.222200 1.815290 42.816100 -10.034400 5.950000
19.400800 1.685450 43.213800 -10.034400 9.580000
19.577100 1.700770 43.606700 -10.034400 9.580000
20.092000 1.716100 43.846000 -10.034400 8.760000
24.023400 -1.881910 42.310900 -9.590400 6.700000
19.753100 2.202140 44.922100 -10.034400 11.070000
19.926400 2.221460 45.316200 -10.034400 14.050000
20.099600 2.240770 45.710200 -10.034400 12.480000
-25.670700 -1.197940 42.872200 -9.146400 8.330000
-25.892000 -1.208270 43.241800 -9.146400 5.890000
19.461200 1.965180 46.933300 -10.123200 5.730000
-26.113300 -1.218600 43.611300 -9.146400 6.660000
19.623600 2.140290 47.325200 -10.123200 9.010000
-10.586000 1.981830 50.133300 -12.432000 11.400000
19.788500 2.158270 47.722900 -10.123200 9.180000
-11.064200 1.998480 50.470800 -12.432000 9.880000
-13.207500 1.854000 50.404300 -12.432000 14.610000
19.743800 2.194240 48.671900 -10.212000 18.140000
-12.924600 1.869320 50.921900 -12.432000 17.110000
8.941350 -1.270230 52.225600 -10.744800 11.080000
19.905600 2.212230 49.070800 -10.212000 6.740000
10.029500 0.289185 52.481100 -10.656000 12.560000
20.067500 2.230220 49.469800 -10.212000 5.890000
10.109900 0.624668 52.901500 -10.656000 13.190000
20.229300 2.248200 49.868700 -10.212000 7.340000
10.189800 0.965457 53.319900 -10.656000 9.000000
10.270700 0.973120 53.743000 -10.656000 8.930000
19.862200 2.622330 50.925100 -10.212000 8.440000
7.837650 -0.298513 54.594700 -10.744800 6.750000
20.021500 2.472580 51.333400 -10.212000 11.480000
20.177900 2.491890 51.734500 -10.212000 9.220000
20.401600 1.034420 54.466800 -10.300800 7.260000
20.129200 1.042080 55.027000 -10.300800 15.120000
20.703800 1.049740 55.273700 -10.300800 14.780000
20.856000 0.873524 55.679900 -10.300800 17.510000
20.381400 2.331560 56.730800 -10.300800 9.290000
20.527000 2.348220 57.136100 -10.300800 16.030000
20.672600 2.364870 57.541300 -10.300800 11.510000
20.818200 2.381530 57.946500 -10.300800 12.950000
20.658200 2.221730 58.924700 -10.300800 5.290000
20.800700 2.237060 59.331000 -10.389600 14.370000
20.943200 2.252380 59.737400 -10.389600 11.120000
19.940000 2.283020 60.986500 -10.300800 8.430000
20.546500 2.298340 61.239200 -10.389600 6.670000
20.683400 2.313670 61.647500 -10.389600 6.950000
20.822600 2.126540 62.062300 -10.389600 5.750000
-4.693250 2.344310 65.718600 -10.744800 12.790000
20.477500 2.140530 62.630300 -10.389600 17.410000
-4.723920 2.359630 66.148200 -10.744800 17.340000
20.611300 2.154520 63.039600 -10.389600 5.360000
20.745200 2.168510 63.449000 -10.389600 12.740000
20.879000 2.182500 63.858300 -10.389600 14.070000
-9.730840 2.224480 67.782100 -10.656000 18.410000
20.899400 2.647990 65.193900 -10.389600 18.230000
-9.791010 2.451570 68.201200 -10.656000 13.600000
21.030800 2.664650 65.604000 -10.389600 11.650000
-9.852200 2.466890 68.627400 -10.656000 6.400000
20.789500 1.834850 66.612900 -10.478400 13.780000
20.917800 1.846180 67.024100 -10.478400 7.250000
21.046100 1.857510 67.435300 -10.478400 11.500000
21.172600 2.088640 67.840700 -10.478400 8.530000
22.037400 1.190020 77.945000 -10.567200 7.100000
22.154600 1.196350 78.359600 -10.567200 7.590000
22.271900 1.202680 78.774200 -10.567200 8.650000
21.432900 0.000000 79.908400 -10.567200 15.670000
21.544500 0.000000 80.324600 -10.567200 12.860000
21.656200 0.000000 80.740700 -10.567200 8.400000
21.989600 0.984476 81.983800 -10.567200 7.440000
22.099200 1.517150 82.392500 -10.567200 8.360000
22.210800 1.524810 82.808600 -10.567200 7.140000
-10.165600 -6.073770 87.537200 -10.656000 7.980000
-9.261440 -2.137710 88.688400 -10.567200 5.910000
-14.500100 -3.758990 88.803600 -10.567200 5.520000
23.105700 1.670390 91.034900 -10.567200 5.790000
23.211700 1.678060 91.452500 -10.567200 6.300000
23.317700 1.685720 91.870000 -10.567200 10.660000
23.423700 1.693380 92.287600 -10.567200 10.960000
22.992000 1.996840 92.834100 -10.567200 6.620000
23.094000 2.302940 93.245800 -10.567200 4.920000
23.196200 2.537080 93.658500 -10.567200 8.800000
19.859300 0.666990 121.625000 -10.744800 7.430000
19.928300 1.051780 122.048000 -10.744800 6.520000
19.997800 1.055450 122.473000 -10.744800 10.180000
-55.177600 -12.374700 116.246000 -9.501600 14.400000
-55.361500 -12.416000 116.633000 -9.501600 13.780000
-55.528600 -12.857800 116.985000 -9.501600 8.850000
-55.712500 -12.900300 117.373000 -9.501600 10.130000
22.531100 2.329400 156.945000 -10.744800 12.760000
22.592400 2.335730 157.372000 -10.744800 11.100000
-4.467920 1.517210 178.330000 -10.833600 8.330000
-4.478710 1.520870 178.761000 -10.833600 7.980000
-4.489510 1.524540 179.192000 -10.833600 4.780000
4.645120 -0.536237 3.084530 -4.440000 2.650000
5.002440 -0.577486 3.321800 -4.617600 4.130000
6.293420 -1.746250 4.936800 -6.837600 5.460000
6.412120 1.276080 6.256110 -7.459200 6.200000
5.652490 -0.819890 7.565960 -8.524800 8.690000
5.709450 -0.857157 8.055400 -8.702400 7.000000
6.879750 0.559085 7.111860 -7.992000 7.350000
6.001590 1.236400 8.330720 -8.702400 7.000000
6.509240 0.583393 8.014870 -8.347200 7.510000
6.224080 4.167830 8.331040 -8.968800 4.000000
6.680830 1.254840 8.356950 -8.436000 6.130000
6.721750 0.485611 9.483630 -8.702400 5.390000
6.507730 0.540876 10.145200 -8.968800 6.120000
6.970700 0.503597 9.834880 -8.702400 6.180000
6.740150 0.560193 10.507600 -8.880000 5.640000
-9.040510 1.157860 9.167110 -7.370400 6.700000
-9.265510 0.918473 9.578110 -7.459200 7.530000
6.306250 1.525220 11.676400 -9.324000 4.320000
6.583790 1.489660 12.023500 -9.324000 5.290000
6.724230 1.404990 12.450300 -9.412800 4.360000
7.127700 0.948623 14.229700 -9.501600 9.670000
7.318960 1.024810 14.611500 -9.501600 10.720000
-8.942960 1.155500 14.181000 -8.791200 3.670000
7.424750 1.051780 15.039200 -9.590400 9.930000
14.070400 1.676740 11.258000 -6.837600 7.620000
14.271200 1.716660 11.691800 -6.926400 5.200000
7.126100 -1.676740 16.551100 -9.768000 13.930000
14.184900 0.615578 12.564900 -7.192800 5.610000
7.295760 -1.716660 16.945100 -9.768000 12.890000
7.062350 -1.830740 17.031900 -9.590400 9.380000
14.382800 0.629569 12.989600 -7.281600 5.970000
16.724100 -2.669840 11.105400 -5.772000 5.320000
17.080000 -2.726650 11.341700 -5.772000 8.030000
4.761590 -0.766086 19.225700 -10.212000 9.840000
4.865100 -0.782740 19.643700 -10.212000 8.640000
6.695630 1.647150 19.956500 -10.034400 4.710000
6.675120 1.680770 20.415800 -10.034400 3.840000
-8.239280 1.215400 19.870200 -9.590400 5.820000
6.970570 1.646620 20.775900 -10.034400 5.850000
-8.404060 1.239710 20.267600 -9.590400 8.450000
-8.727860 1.264020 20.598300 -9.590400 6.560000
7.674710 0.354473 22.874600 -10.034400 4.710000
7.811760 0.360803 23.283100 -10.123200 16.650000
7.765580 0.444417 23.751000 -10.034400 5.940000
6.240870 -1.669610 24.588600 -10.212000 18.000000
7.354440 -1.618120 24.733000 -10.123200 14.810000
7.481950 -1.340730 25.161900 -10.123200 9.420000
6.726590 -1.255610 27.159800 -10.300800 7.810000
6.831840 -1.099170 27.584700 -10.300800 10.620000
7.096230 -1.205040 27.958600 -10.300800 7.900000
17.858100 1.924300 23.150500 -8.524800 12.260000
7.419630 -1.313560 28.315800 -10.300800 12.010000
18.346200 1.952600 23.315200 -8.524800 9.010000
18.612100 1.980900 23.653100 -8.524800 10.260000
4.849240 -2.073970 29.698300 -10.300800 8.630000
4.918510 -2.103600 30.122600 -10.389600 6.880000
18.336800 2.037490 24.942900 -8.702400 9.660000
4.800390 -2.969930 30.506900 -10.389600 10.100000
18.591500 2.065790 25.289300 -8.702400 11.680000
5.045780 -3.011180 30.902000 -10.389600 10.430000
18.598400 2.094090 25.816100 -8.791200 13.000000
4.774260 -1.149170 31.942200 -10.300800 9.980000
18.493400 1.847410 26.963700 -8.880000 6.410000
7.764350 -1.149170 31.349900 -10.300800 8.660000
18.736700 1.871720 27.318500 -8.880000 7.130000
-6.652690 2.178990 32.432400 -10.212000 7.260000
18.980100 1.896030 27.673200 -8.880000 10.170000
-6.485680 2.207290 32.904500 -10.212000 13.960000
-6.826850 2.130520 33.281400 -10.212000 8.540000
18.585700 1.838190 28.974300 -9.057600 15.470000
-7.107970 2.157490 33.662200 -10.212000 10.750000
18.591400 1.861170 29.480600 -9.146400 6.010000
6.551200 -0.404785 34.280200 -10.389600 7.960000
18.590300 1.884150 29.988800 -9.146400 15.590000
18.817100 1.907120 30.354500 -9.146400 15.810000
8.043690 1.415590 35.704300 -10.300800 11.400000
7.666050 0.337158 38.893100 -10.389600 6.950000
-6.760530 0.960419 39.487600 -10.300800 8.040000
-6.833220 0.970746 39.912200 -10.300800 5.440000
-6.905920 0.981073 40.336800 -10.300800 10.290000
19.183400 1.893070 37.571700 -9.501600 8.020000
19.379200 1.912380 37.955100 -9.501600 7.850000
19.574900 1.931700 38.338500 -9.501600 8.750000
19.133100 1.970340 39.519600 -9.590400 6.720000
19.320700 1.989650 39.907100 -9.590400 13.150000
19.508300 2.008970 40.294500 -9.590400 6.810000
19.695900 2.028290 40.682000 -9.590400 8.710000
19.245300 2.188710 41.365100 -9.679200 8.940000
19.426800 2.209360 41.755300 -9.679200 18.670000
19.608400 2.230010 42.145600 -9.679200 17.460000
19.790000 2.250660 42.535800 -9.679200 11.200000
19.572400 1.996400 43.596200 -9.768000 6.090000
19.746100 2.163510 43.983100 -9.768000 12.330000
19.922400 2.182820 44.375800 -9.768000 7.010000
19.483900 2.086330 45.983300 -9.768000 17.750000
-25.888200 -1.481030 43.235500 -8.880000 13.420000
19.654300 1.948520 46.385500 -9.768000 9.880000
-11.452900 1.692840 50.837300 -11.721600 8.810000
-11.547600 1.706830 51.257400 -11.721600 8.640000
-12.038900 1.884640 51.580900 -11.721600 9.760000
-4.560990 0.291517 53.668300 -10.389600 9.950000
-12.438500 1.734810 51.934700 -11.721600 6.260000
10.499400 0.293849 53.267700 -10.389600 6.860000
10.272000 0.465424 53.749600 -10.389600 11.360000
11.082200 0.639660 54.026600 -10.389600 9.150000
12.213900 1.160320 54.215200 -10.389600 5.850000
7.992990 4.751610 55.676700 -10.389600 6.270000
8.378170 4.787890 56.054300 -10.389600 15.080000
20.654400 2.231640 53.873900 -10.034400 10.110000
20.808500 2.248290 54.275900 -10.034400 7.340000
19.900900 1.797490 57.833100 -10.034400 11.940000
20.041000 1.810150 58.240400 -10.034400 6.530000
20.179300 2.014620 58.642100 -10.034400 9.110000
20.457400 2.237060 59.450300 -10.034400 7.470000
20.595100 2.448140 59.850600 -10.034400 7.060000
7.843220 1.134030 63.278900 -10.389600 6.740000
20.735200 2.464800 60.257700 -10.034400 5.560000
20.875300 2.481450 60.664900 -10.034400 9.520000
21.017900 2.298340 61.079100 -10.034400 9.220000
20.683400 2.313670 61.647500 -10.123200 6.680000
20.820400 2.328990 62.055800 -10.123200 11.310000
20.955000 2.548070 62.456800 -10.123200 6.150000
21.092000 2.564720 62.865100 -10.123200 17.910000
20.738000 2.787770 63.427100 -10.123200 19.210000
20.871800 2.805760 63.836300 -10.123200 7.970000
21.005600 2.823740 64.245500 -10.123200 11.820000
21.139400 2.841730 64.654700 -10.123200 14.250000
21.275900 2.647990 65.072000 -10.123200 7.930000
21.030800 2.664650 65.604000 -10.123200 10.700000
21.164700 2.466890 66.021600 -10.123200 5.800000
21.296100 2.482210 66.431600 -10.123200 17.290000
21.429800 2.280440 66.848700 -10.123200 18.600000
21.042300 2.294430 67.423000 -10.123200 8.400000
21.170600 2.308420 67.834200 -10.123200 15.400000
21.296700 2.543500 68.238100 -10.123200 6.060000
21.317900 1.463510 79.479600 -10.212000 7.860000
21.279700 -3.507190 81.210600 -10.212000 6.770000
21.860400 -3.525180 81.502000 -10.212000 5.630000
-12.667100 -3.171720 88.235300 -10.300800 5.560000
-15.115100 -3.187040 88.286000 -10.300800 7.150000
22.466900 2.189340 88.517900 -10.300800 7.530000
22.572800 2.199670 88.935400 -10.300800 7.640000
22.678800 2.210000 89.353000 -10.300800 4.970000
22.265500 2.220320 89.900700 -10.300800 5.490000
22.889400 2.446470 90.182800 -10.300800 8.760000
22.996700 2.240980 90.605600 -10.300800 10.580000
23.102700 2.251300 91.023100 -10.300800 9.280000
23.912800 2.261630 91.259000 -10.212000 5.330000
22.783300 2.271960 91.991400 -10.300800 6.590000
22.886900 2.282290 92.409600 -10.300800 9.800000
22.990400 2.292610 92.827700 -10.300800 13.490000
23.094000 2.302940 93.245800 -10.300800 12.300000
-13.280600 0.828235 96.470000 -10.300800 6.010000
-13.339700 0.529394 96.899000 -10.300800 6.300000
19.290100 0.287853 122.590000 -10.389600 13.060000
19.357100 0.288853 123.016000 -10.389600 13.040000
19.424100 0.289852 123.442000 -10.389600 8.790000
-55.528600 -12.857800 116.985000 -9.324000 6.410000
-54.806200 -12.900300 117.798000 -9.324000 4.770000
-59.835400 -12.559500 156.072000 -9.679200 7.850000
-5.405320 2.576260 175.274000 -10.478400 5.300000
-5.418600 2.582590 175.705000 -10.478400 5.750000
-5.431880 2.588920 176.135000 -10.478400 5.860000
-4.500300 1.528200 179.622000 -10.478400 4.090000
5.018370 -0.321683 3.332380 -4.884000 1.550000
6.398140 -3.156260 6.242470 -7.992000 9.650000
6.820880 -3.270810 6.403080 -7.814400 4.670000
6.709540 -1.545600 8.837950 -8.524800 9.810000
6.564930 0.799961 9.571770 -8.880000 7.730000
6.806590 0.866811 9.924120 -8.880000 7.760000
7.026580 1.350000 10.244900 -8.880000 7.720000
7.266390 1.436300 10.594500 -8.880000 4.390000
-8.717190 1.157860 9.475090 -7.636800 2.780000
6.091860 1.664520 11.279400 -9.412800 5.760000
-8.307480 1.196450 10.391700 -8.080800 6.420000
-8.913020 1.196450 9.877250 -7.636800 4.500000
6.763660 1.574420 11.912400 -9.412800 9.430000
6.328990 1.579920 12.635200 -9.590400 11.230000
-8.243430 1.492640 12.019100 -8.524800 9.510000
6.344600 1.627800 13.104800 -9.590400 4.640000
-8.488540 1.490140 12.376400 -8.524800 6.330000
7.053090 0.850781 13.303400 -9.501600 4.380000
-7.948450 1.114470 13.274600 -8.880000 7.350000
6.748900 0.875089 13.939900 -9.590400 6.560000
-9.099100 1.047050 13.049900 -8.524800 4.160000
6.634120 0.763985 14.477300 -9.768000 4.730000
-8.711750 1.176390 13.814300 -8.791200 4.170000
-9.345030 1.075340 13.402600 -8.524800 5.220000
6.812370 0.835212 14.866400 -9.768000 4.540000
-9.484650 1.103640 13.828800 -8.613600 7.870000
13.825700 1.809070 10.131900 -6.571200 6.790000
7.196800 0.857191 15.161900 -9.679200 4.680000
-8.803110 1.636810 15.229800 -9.057600 7.020000
7.357660 -0.423410 16.056300 -9.856800 10.290000
6.801020 -0.433738 16.765700 -9.945600 3.740000
6.348140 -0.041979 16.947900 -9.856800 7.200000
8.200530 1.523420 16.061200 -9.324000 7.750000
7.412230 -0.041979 16.510200 -9.768000 6.040000
6.004590 -1.632230 18.365000 -10.123200 7.390000
7.731890 0.352469 18.247800 -9.945600 12.210000
5.900720 -1.704780 19.298500 -10.123200 12.630000
7.083920 -1.517470 18.912200 -9.945600 10.530000
5.616150 -1.294490 19.864000 -10.300800 11.580000
6.847980 1.695970 19.900600 -10.034400 9.720000
6.831010 1.730580 20.360000 -10.034400 8.660000
-8.245230 0.899280 19.884500 -9.679200 9.150000
6.964030 1.900650 20.756400 -10.123200 9.070000
-8.410130 0.917266 20.282200 -9.679200 8.920000
7.096630 2.075960 21.151700 -10.123200 8.130000
6.941680 2.115880 21.654000 -10.123200 8.470000
-8.741030 0.882664 21.080200 -9.679200 7.320000
7.364280 0.348143 22.523600 -10.123200 4.900000
7.498180 0.354473 22.933100 -10.123200 8.730000
7.632080 0.360803 23.342600 -10.123200 7.590000
7.765970 0.367133 23.752200 -10.123200 10.320000
4.763730 -1.512670 24.926900 -10.389600 7.920000
6.876540 -1.618120 24.870100 -10.212000 9.930000
5.215850 8.738940 24.701400 -10.300800 7.750000
8.812970 8.879890 24.092000 -10.212000 18.460000
7.144300 0.000000 26.636100 -10.300800 8.470000
7.099440 0.000000 27.093800 -10.300800 4.370000
6.622940 -0.505716 27.652900 -10.389600 8.350000
6.721450 -0.848113 28.064200 -10.389600 10.500000
6.822360 -0.770186 28.485500 -10.389600 5.970000
7.309800 -1.057240 28.800100 -10.389600 8.300000
4.850250 -1.980900 29.704500 -10.389600 4.320000
4.916320 -2.292350 30.109200 -10.389600 4.540000
18.347300 1.750180 24.957000 -8.702400 8.470000
4.985560 -2.324630 30.533200 -10.389600 5.450000
18.602100 1.774490 25.303700 -8.702400 12.200000
5.054810 -2.356920 30.957300 -10.389600 5.070000
18.856900 1.798790 25.650300 -8.702400 11.090000
18.290300 1.670420 27.113300 -8.968800 6.600000
5.709800 -1.063270 32.229300 -10.389600 8.860000
18.528800 1.769260 27.466700 -8.968800 10.560000
18.769400 1.792240 27.823400 -8.968800 10.280000
-6.484330 2.311000 32.897700 -10.300800 7.160000
19.010000 1.815210 28.180100 -8.968800 7.030000
-7.016260 2.340630 33.227900 -10.300800 5.520000
7.933090 0.000000 33.989400 -10.389600 7.260000
7.136170 -0.818524 38.548400 -10.389600 8.920000
9.008470 -0.827518 38.596800 -10.389600 20.210000
-6.987670 1.177230 39.442200 -10.389600 8.230000
-6.832240 1.189890 39.906500 -10.389600 7.930000
18.895800 1.762590 37.723500 -9.590400 5.260000
19.088600 1.780580 38.108400 -9.590400 8.600000
19.281400 1.798560 38.493400 -9.590400 5.720000
19.474200 1.816550 38.878300 -9.590400 7.250000
19.133100 1.970340 39.519600 -9.679200 8.190000
19.320700 1.989650 39.907100 -9.679200 8.660000
19.508300 2.008970 40.294500 -9.679200 7.750000
19.695900 2.028290 40.682000 -9.679200 8.750000
19.421500 2.458580 41.743900 -9.679200 6.600000
19.605400 2.373760 42.139100 -9.679200 15.300000
19.786900 2.395740 42.529300 -9.679200 13.550000
19.564000 2.439700 43.577500 -9.768000 6.420000
19.740300 2.461680 43.970100 -9.768000 8.900000
19.919600 2.333250 44.369400 -9.768000 10.630000
-26.983500 -0.888834 42.065900 -8.791200 5.510000
19.743900 2.395200 45.857200 -9.768000 10.690000
-26.888300 -0.896496 42.637100 -8.791200 6.640000
19.914100 2.415840 46.252500 -9.768000 11.130000
-26.785800 -0.904158 43.209200 -8.880000 12.790000
-11.354400 2.158270 50.399800 -11.899200 5.460000
-11.449000 2.176260 50.819800 -11.899200 8.810000
-11.542100 2.356680 51.232900 -11.899200 10.290000
-11.636700 2.375990 51.652800 -11.899200 12.710000
10.189800 0.965457 53.319900 -10.389600 8.250000
10.271200 0.803895 53.745700 -10.389600 6.950000
10.352500 0.639660 54.171100 -10.389600 7.520000
-24.607000 0.000000 49.842800 -9.324000 7.330000
20.337100 2.338130 52.142500 -10.034400 5.860000
-25.668900 0.000000 50.274000 -9.324000 6.360000
20.493500 2.356110 52.543600 -10.034400 5.810000
-23.804800 -1.352850 51.165100 -9.412800 11.840000
20.651800 2.410070 53.867200 -10.034400 10.950000
20.672600 2.364870 57.541300 -10.123200 10.520000
20.820600 2.191090 57.953200 -10.123200 13.660000
20.966200 2.206410 58.358400 -10.123200 6.840000
21.111800 2.221730 58.763700 -10.123200 8.620000
20.795700 2.625900 59.316800 -10.123200 13.690000
20.935300 2.839600 59.715100 -10.123200 6.420000
20.732700 2.661870 60.250300 -10.123200 6.910000
20.872700 2.679860 60.657300 -10.123200 9.400000
21.015400 2.498100 61.072000 -10.123200 6.060000
21.158000 2.313670 61.486200 -10.123200 8.910000
21.298100 2.328990 61.893400 -10.123200 8.520000
21.438200 2.344310 62.300600 -10.123200 8.520000
21.578300 2.359630 62.707800 -10.123200 7.330000
20.738000 2.787770 63.427100 -10.123200 7.070000
20.502500 2.805760 63.955900 -10.123200 7.270000
20.633900 2.823740 64.365900 -10.123200 8.100000
20.765300 2.841730 64.775900 -10.123200 15.160000
21.273200 2.859710 65.063900 -10.123200 19.520000
20.522000 2.877700 65.755900 -10.212000 19.300000
-2.671910 1.823530 69.299400 -10.478400 14.390000
20.655200 2.466890 66.182700 -10.123200 9.910000
20.783500 2.482210 66.593800 -10.123200 14.560000
21.606100 2.227880 72.661400 -10.212000 6.820000
21.304000 2.476300 73.191600 -10.212000 8.320000
21.849500 2.490290 73.480000 -10.212000 14.270000
21.972300 2.504280 73.892900 -10.212000 7.610000
21.925700 2.163320 79.298100 -10.300800 5.880000
22.041800 1.982800 79.717900 -10.300800 8.540000
-17.355900 -1.753980 82.194800 -10.212000 5.850000
-18.081200 -1.762970 82.479400 -10.300800 5.870000
23.073700 2.276580 83.449800 -10.300800 16.000000
22.165700 2.096400 84.591700 -10.300800 12.580000
22.765900 2.106720 84.878300 -10.300800 6.050000
22.877500 2.117050 85.294300 -10.300800 5.600000
-12.732000 2.355860 88.687000 -10.389600 5.700000
22.822400 1.879910 87.098000 -10.300800 5.570000
22.466900 2.189340 88.517900 -10.300800 8.830000
22.574400 1.915880 88.941600 -10.300800 10.190000
22.680400 1.924880 89.359200 -10.300800 7.820000
22.787700 1.647410 89.782100 -10.300800 7.680000
23.419300 2.503100 92.270300 -10.300800 6.160000
23.525300 2.514430 92.687900 -10.300800 6.730000
-13.898800 1.134400 96.815100 -10.389600 5.680000
-14.083000 -0.842894 98.097700 -10.389600 10.140000
20.939600 1.823010 122.306000 -10.478400 9.620000
21.012300 1.829340 122.731000 -10.478400 5.900000
20.135200 1.835670 123.314000 -10.478400 13.250000
-54.608300 -13.258200 117.373000 -9.324000 15.390000
-54.789100 -13.302100 117.762000 -9.324000 9.680000
-55.634100 -18.071600 117.207000 -9.324000 7.150000
-55.716700 -19.739900 117.381000 -9.324000 5.230000
-55.899400 -19.804600 117.766000 -9.324000 5.650000
-54.756100 -9.214360 121.965000 -9.412800 6.470000
22.648200 4.190720 157.761000 -10.478400 6.420000
22.709400 4.202040 158.187000 -10.478400 7.490000
22.770600 4.213370 158.613000 -10.478400 5.830000
-4.403030 2.038920 175.740000 -10.567200 4.940000
-4.413820 2.043910 176.171000 -10.567200 8.530000
-4.489180 2.633230 179.179000 -10.478400 7.690000
-4.500300 1.528200 179.622000 -10.478400 8.240000
6.987870 -1.040220 6.950510 -7.725600 6.490000
6.764840 0.958135 7.763220 -8.258400 10.570000
7.221480 -1.085440 7.322620 -7.814400 5.480000
6.314160 1.552120 8.588890 -8.791200 6.900000
6.410840 1.614200 9.044980 -8.791200 4.070000
6.393960 0.735762 9.170170 -8.880000 7.810000
6.639890 0.764060 9.522870 -8.791200 9.170000
6.891720 0.615419 9.884050 -8.791200 7.780000
6.979850 1.536210 12.293200 -9.412800 3.730000
-8.291500 1.582940 12.497900 -8.702400 2.520000
6.925210 1.536550 13.309100 -9.590400 4.450000
-8.429070 1.628160 12.920300 -8.702400 6.620000
6.332830 1.246020 14.105900 -9.768000 4.170000
-8.451810 1.771430 13.402200 -8.791200 6.840000
7.237160 0.948623 14.174400 -9.679200 3.550000
-8.786070 1.819310 13.697100 -8.791200 6.850000
7.431350 1.024810 14.554700 -9.590400 7.880000
-9.367700 1.349860 13.886500 -8.613600 6.450000
6.846990 1.712150 15.251200 -9.856800 3.490000
7.022550 1.756050 15.642200 -9.768000 6.450000
-7.873560 1.745590 15.718800 -9.324000 6.360000
6.926850 -0.699469 16.705100 -9.945600 9.510000
-7.847690 1.788170 16.209500 -9.412800 4.570000
6.959750 -0.716123 17.157000 -10.034400 12.790000
6.889070 -0.161249 17.663000 -10.034400 12.720000
8.711330 -1.814960 16.741700 -9.412800 4.720000
-9.201130 1.595960 16.500300 -9.146400 10.800000
5.138990 -2.035210 18.586000 -10.300800 8.430000
8.644330 -1.856210 17.257500 -9.501600 4.300000
5.251450 -2.141390 18.992800 -10.300800 11.230000
5.103390 -2.187940 19.476200 -10.300800 9.080000
6.827480 1.863390 20.349500 -10.212000 4.050000
6.803840 1.900650 20.809500 -10.212000 8.790000
-8.237540 1.646620 20.306900 -9.679200 4.420000
6.937250 1.937920 21.217500 -10.212000 2.770000
-8.562200 1.540660 20.649000 -9.679200 5.180000
6.949130 1.834420 21.677300 -10.212000 6.110000
-8.741030 0.882664 21.080200 -9.679200 5.300000
6.481950 1.869030 22.269200 -10.300800 6.720000
7.535220 0.696212 22.458900 -10.212000 4.600000
7.674320 0.429092 22.873500 -10.212000 4.880000
7.811760 0.360803 23.283100 -10.212000 3.370000
7.948810 0.367133 23.691600 -10.212000 10.250000
8.245520 -2.042090 23.962000 -10.300800 18.310000
6.648160 1.726210 25.371600 -10.389600 7.530000
5.362140 1.280190 26.140800 -10.389600 4.300000
4.368970 1.384690 26.757000 -10.389600 5.180000
7.135000 1.406670 26.601400 -10.300800 8.170000
8.559120 1.406670 26.178000 -10.300800 6.290000
6.729100 -0.995949 27.169900 -10.389600 5.780000
6.832630 -1.011270 27.587900 -10.389600 7.810000
-7.363680 -0.923367 27.454000 -10.212000 7.690000
6.557790 -1.026590 28.096900 -10.389600 8.270000
-7.475250 -0.937358 27.870000 -10.212000 7.680000
6.820400 -1.041920 28.477300 -10.389600 5.570000
4.787720 -1.149130 29.321600 -10.478400 5.520000
5.075720 -2.260060 29.646900 -10.478400 8.160000
6.710690 -1.914770 29.787400 -10.389600 9.050000
8.190770 0.474741 31.258700 -10.389600 8.490000
18.490100 1.948520 26.958800 -8.968800 6.200000
18.733400 1.974160 27.313500 -8.968800 7.790000
6.934840 -1.714380 32.842300 -10.389600 6.290000
18.973100 2.103550 27.663000 -8.968800 5.420000
7.029870 -1.000010 33.292300 -10.389600 5.950000
6.665650 -0.506391 33.817600 -10.478400 5.230000
7.013410 -0.080959 34.190900 -10.478400 5.970000
7.765570 -0.081958 34.469800 -10.389600 8.370000
7.063820 -0.970746 39.872100 -10.478400 7.290000
19.433300 1.835120 35.981900 -9.501600 7.530000
18.890600 2.023530 37.713000 -9.679200 6.530000
19.083300 2.044180 38.097900 -9.679200 12.710000
-23.979700 -4.257540 35.547100 -8.613600 7.520000
19.276100 2.064820 38.482700 -9.679200 9.530000
-26.892600 1.682060 34.176400 -8.258400 6.560000
19.468800 2.085470 38.867500 -9.679200 9.540000
-27.158900 1.698710 34.514800 -8.258400 15.970000
19.130400 2.106120 39.514000 -9.768000 10.110000
-27.428300 1.578200 34.857200 -8.258400 18.780000
19.317900 2.126770 39.901400 -9.768000 8.520000
19.505500 2.147420 40.288700 -9.768000 9.990000
19.693000 2.168060 40.676100 -9.768000 15.730000
-6.280730 2.209360 45.623000 -10.478400 8.380000
19.423900 2.351780 41.748900 -9.856800 13.940000
19.608400 2.230010 42.145600 -9.856800 13.320000
19.790000 2.250660 42.535800 -9.856800 6.890000
19.569800 2.144190 43.590400 -9.856800 6.780000
19.746100 2.163510 43.983100 -9.856800 6.600000
19.919600 2.333250 44.369400 -9.856800 13.060000
19.788500 2.158270 47.722900 -9.945600 9.990000
-11.352900 2.318040 50.393000 -11.988000 7.670000
20.118400 2.194240 48.518300 -10.034400 6.050000
-11.543600 2.194240 51.239800 -11.988000 8.910000
-12.036100 2.212230 51.568500 -12.076800 11.800000
10.498400 0.797565 53.262800 -10.478400 5.620000
10.581700 0.803895 53.685500 -10.478400 6.510000
10.665500 0.639660 54.110400 -10.478400 10.100000
10.748800 0.644657 54.533100 -10.478400 11.240000
-23.626100 -0.996107 50.781100 -9.501600 7.540000
-23.806400 -1.178310 51.168700 -9.590400 14.860000
20.274600 1.414810 55.424500 -10.123200 5.240000
20.572000 1.250270 56.237500 -10.123200 14.290000
20.392200 1.259270 56.760900 -10.123200 8.670000
26.472500 -0.892513 54.679200 -9.768000 6.050000
20.228500 2.364870 57.698900 -10.123200 7.550000
20.370900 2.381530 58.105200 -10.123200 5.780000
20.513400 2.398180 58.511600 -10.123200 6.880000
20.658200 2.221730 58.924700 -10.123200 7.810000
20.457400 2.237060 59.450300 -10.212000 7.450000
18.392300 1.118700 60.152400 -9.146400 7.530000
20.583700 3.230950 59.817400 -10.123200 6.820000
18.519200 0.930493 60.567500 -9.146400 8.580000
20.723700 3.252930 60.224300 -10.123200 8.250000
20.863700 3.274910 60.631200 -10.123200 6.710000
21.010000 2.897550 61.056300 -10.123200 9.870000
20.681100 2.514760 61.640400 -10.212000 6.990000
20.818000 2.531410 62.048600 -10.212000 13.850000
20.957400 2.344310 62.464000 -10.212000 13.440000
21.094400 2.359630 62.872300 -10.212000 8.540000
20.743000 2.374960 63.442300 -10.212000 8.100000
20.505000 2.598030 63.963900 -10.212000 14.690000
21.005600 2.823740 64.245500 -10.212000 18.760000
-4.326140 0.157919 67.944400 -10.567200 13.890000
20.767900 2.631340 64.783900 -10.212000 8.830000
20.904000 2.224480 65.208300 -10.212000 7.410000
-9.514060 2.482210 69.109800 -10.478400 7.480000
21.601700 2.696720 72.646800 -10.300800 17.010000
21.724500 2.712050 73.059600 -10.300800 14.310000
21.847200 2.727370 73.472300 -10.300800 8.360000
21.967400 2.981070 73.876600 -10.300800 14.950000
22.391800 0.714627 80.983800 -10.300800 13.030000
21.988700 1.246990 81.980500 -10.300800 16.380000
22.164400 2.299230 84.586800 -10.300800 5.990000
22.273600 2.310560 85.003500 -10.389600 14.870000
22.376400 3.141070 85.395600 -10.389600 5.870000
22.711700 2.148030 86.675300 -10.389600 7.510000
22.822400 1.879910 87.098000 -10.389600 6.900000
23.150000 1.906890 88.348200 -10.389600 13.300000
23.257600 2.199670 88.758800 -10.389600 14.470000
23.366800 2.210000 89.175500 -10.389600 11.350000
22.888400 1.987840 92.416000 -10.389600 9.740000
22.992000 1.996840 92.834100 -10.389600 9.930000
23.094000 2.302940 93.245800 -10.389600 7.120000
-26.843200 2.822820 92.222000 -10.123200 6.660000
-26.965900 2.537080 92.643500 -10.123200 5.660000
-27.086300 2.548410 93.057100 -10.123200 5.850000
20.941100 1.055450 122.315000 -10.478400 9.750000
21.013800 1.059110 122.740000 -10.478400 6.260000
21.085900 1.449230 123.161000 -10.478400 4.660000
20.204600 1.842000 123.740000 -10.567200 8.990000
-55.351300 -19.610500 116.612000 -9.324000 9.220000
-55.534000 -19.675200 116.997000 -9.324000 5.480000
-55.716700 -19.739900 117.381000 -9.324000 5.830000
22.652400 2.835070 157.790000 -10.567200 4.740000
22.712300 3.337060 158.207000 -10.567200 6.360000
22.773500 3.346050 158.634000 -10.567200 6.060000
-59.480400 -22.097200 155.146000 -9.768000 5.440000
-60.531500 -22.154000 155.198000 -9.679200 5.540000
-59.857400 -20.660300 156.129000 -9.679200 5.510000
-60.010500 -20.713200 156.529000 -9.679200 7.980000
-4.500460 0.000000 179.629000 -10.567200 13.280000
-4.511250 0.000000 180.060000 -10.567200 12.140000
6.124010 -0.265826 6.656460 -8.080800 11.710000
6.415630 -0.278485 6.973430 -8.080800 10.370000
6.438460 0.084289 7.534000 -8.347200 7.290000
6.832660 -0.291143 7.173000 -7.903200 7.060000
6.597130 1.210350 8.973800 -8.880000 5.690000
6.394180 1.256900 9.638030 -9.146400 7.000000
6.791710 0.593440 9.427480 -8.880000 7.920000
6.661360 0.615419 10.040700 -9.146400 6.920000
7.043260 0.615419 9.776650 -8.880000 7.520000
-8.240780 1.537710 12.015200 -8.613600 3.480000
-8.387580 1.582940 12.433600 -8.613600 6.310000
6.911220 1.580450 13.797500 -9.679200 5.450000
-8.725540 1.628160 12.722000 -8.613600 5.850000
7.117280 1.280630 14.208900 -9.679200 4.760000
-9.099100 1.047050 13.049900 -8.613600 9.970000
-9.449920 1.024810 13.332800 -8.524800 11.310000
-9.938100 0.948013 13.518400 -8.436000 9.150000
6.031560 -1.185130 16.102700 -10.123200 4.890000
7.473990 1.703010 15.437600 -9.768000 6.070000
-8.153050 1.649960 15.095900 -9.235200 6.330000
7.538660 1.745590 15.882100 -9.768000 6.110000
-8.354350 1.745590 15.468600 -9.235200 9.130000
5.511640 -1.244380 17.193100 -10.212000 5.170000
7.745290 -1.132680 16.317400 -9.856800 8.880000
-8.558110 1.788170 15.845900 -9.324000 9.840000
6.490060 -0.988028 17.326700 -10.034400 4.260000
6.630190 1.479070 17.700800 -10.123200 11.350000
6.800870 0.284845 18.156500 -10.212000 10.930000
6.513140 -2.308900 18.577800 -10.300800 8.380000
7.450080 0.291175 18.365700 -10.123200 6.850000
6.000270 -2.125660 19.225900 -10.300800 8.690000
5.748480 -2.170890 19.749400 -10.389600 10.150000
7.066290 -2.170890 19.317100 -10.212000 5.170000
7.106050 2.021200 19.779400 -10.212000 7.230000
6.978190 2.062450 20.279000 -10.212000 4.440000
-7.529010 1.863390 20.100500 -9.856800 7.170000
7.132110 1.578830 20.726300 -10.212000 6.440000
-7.842890 1.714380 20.457000 -9.856800 7.550000
7.271960 1.609790 21.132700 -10.212000 9.590000
-8.835990 1.678900 20.522500 -9.768000 4.230000
-9.005910 1.711190 20.917100 -9.768000 9.340000
-8.722100 1.743480 21.501500 -9.856800 5.260000
7.363470 0.494712 22.521100 -10.300800 4.300000
7.673860 0.503707 22.872100 -10.300800 9.950000
7.810900 0.512702 23.280600 -10.300800 16.920000
7.947930 0.521696 23.689000 -10.300800 18.300000
6.428850 -1.748060 24.534600 -10.389600 15.170000
7.102530 -3.061800 25.121200 -10.389600 8.620000
6.873930 -3.112000 25.628100 -10.389600 4.880000
-8.433940 0.650606 25.795100 -10.034400 8.060000
-8.567810 0.660933 26.204600 -10.034400 8.410000
6.619800 -1.011270 27.639700 -10.478400 5.080000
6.720100 -1.026590 28.058500 -10.478400 9.830000
5.007480 1.860830 29.248300 -10.478400 5.380000
5.236060 -2.980280 29.555200 -10.478400 6.840000
5.310860 -3.022850 29.977400 -10.567200 5.890000
5.640080 -1.582510 30.466800 -10.478400 5.770000
6.098460 -4.116310 31.911200 -10.478400 8.230000
5.783660 -1.282360 32.646100 -10.478400 6.880000
7.191750 -1.299010 32.806000 -10.478400 4.240000
7.285560 -1.105240 33.234000 -10.478400 7.840000
7.379120 -0.906101 33.660800 -10.478400 6.730000
18.608200 0.719581 29.009300 -9.235200 5.310000
7.668240 -0.917427 34.037800 -10.478400 7.490000
18.840800 0.728576 29.371900 -9.235200 10.030000
19.003400 2.204910 31.737300 -9.324000 7.000000
19.224400 2.230550 32.106400 -9.324000 6.700000
18.651100 2.044990 33.446700 -9.501600 5.690000
8.811500 1.019360 37.752900 -10.478400 6.610000
18.860700 2.067960 33.822600 -9.501600 6.710000
7.357940 1.030690 38.501600 -10.478400 5.280000
19.070200 2.090940 34.198400 -9.501600 6.550000
7.666310 0.091953 38.894400 -10.478400 7.640000
18.744300 2.136900 35.355200 -9.679200 8.050000
7.832960 0.093952 39.739900 -10.478400 6.930000
18.945800 2.159870 35.735300 -9.590400 5.240000
19.149700 2.088030 36.119900 -9.590400 8.700000
19.351300 2.110010 36.500100 -9.590400 8.440000
-22.456900 -4.129810 35.009200 -8.791200 7.520000
18.885400 2.251780 37.702700 -9.768000 12.930000
19.078100 2.274760 38.087400 -9.768000 12.600000
19.270800 2.297740 38.472100 -9.768000 5.480000
-26.886400 1.665400 33.631800 -8.169600 6.700000
19.463500 2.320720 38.856900 -9.768000 6.250000
-27.155200 1.682060 33.968100 -8.169600 6.220000
19.442200 1.698710 39.381200 -9.768000 9.390000
-27.162000 1.562870 34.518700 -8.258400 8.010000
9.502880 0.651978 43.348500 -10.478400 6.230000
19.325700 1.715370 39.917400 -9.768000 14.670000
-27.094100 1.441010 35.123500 -8.258400 10.010000
9.595140 0.658308 43.769400 -10.478400 8.390000
19.513300 1.732020 40.304900 -9.768000 5.890000
19.701000 1.748670 40.692500 -9.768000 13.040000
19.436900 1.639490 41.776900 -9.856800 6.440000
19.616300 1.798640 42.162500 -9.856800 13.250000
19.797900 1.815290 42.552900 -9.856800 9.040000
19.417700 1.417740 44.159300 -9.945600 9.600000
19.591100 1.430400 44.553600 -9.945600 10.980000
19.478500 2.395200 45.970500 -9.945600 7.080000
19.646400 2.415840 46.366800 -9.945600 6.620000
19.990300 1.981830 47.178400 -10.034400 8.230000
19.788500 2.158270 47.722900 -10.034400 6.510000
19.953400 2.176260 48.120600 -10.034400 8.220000
-12.523500 2.176260 50.565700 -12.165600 5.330000
20.118400 2.194240 48.518300 -10.034400 5.360000
-12.923100 2.031790 50.916100 -12.165600 5.050000
-12.732100 2.048450 51.407900 -12.165600 7.500000
-12.835600 2.065100 51.825900 -12.165600 8.490000
20.214700 3.038500 49.832700 -10.034400 6.360000
9.882860 0.293849 53.385500 -10.567200 6.600000
9.961080 0.465424 53.808100 -10.567200 8.850000
10.353100 0.298513 54.174000 -10.567200 8.590000
20.276000 1.232280 55.428300 -10.123200 13.180000
20.424000 1.241280 55.832900 -10.123200 9.380000
20.572000 1.250270 56.237500 -10.123200 16.290000
20.720000 1.259270 56.642100 -10.123200 11.780000
20.672600 2.364870 57.541300 -10.212000 7.180000
20.818200 2.381530 57.946500 -10.212000 9.670000
20.961100 2.589930 58.344500 -10.212000 8.320000
21.106700 2.607910 58.749600 -10.212000 11.820000
20.786800 3.208970 59.291300 -10.212000 6.690000
20.929100 3.230950 59.697400 -10.212000 8.850000
21.071500 3.252930 60.103500 -10.212000 9.820000
21.213900 3.274910 60.509600 -10.212000 7.260000
21.003800 3.296890 61.038100 -10.212000 15.000000
21.155500 2.514760 61.479200 -10.212000 14.690000
21.435700 2.548070 62.293500 -10.212000 7.290000
21.092000 2.564720 62.865100 -10.212000 10.000000
21.360400 3.013450 63.665000 -10.212000 7.590000
21.497300 3.032770 64.073100 -10.212000 6.280000
21.634200 3.052090 64.481300 -10.212000 14.180000
-9.512970 2.697950 69.101900 -10.567200 18.440000
-9.571690 2.714610 69.528500 -10.567200 18.190000
21.724500 2.712050 73.059600 -10.300800 16.630000
21.424400 2.490290 73.605100 -10.300800 19.970000
22.044700 1.471170 79.728200 -10.389600 9.620000
22.318200 2.265250 83.209100 -10.389600 6.000000
23.073700 2.276580 83.449800 -10.389600 5.300000
22.164400 2.299230 84.586800 -10.389600 5.470000
22.273600 2.310560 85.003500 -10.389600 6.630000
22.382800 2.321880 85.420200 -10.389600 7.580000
-10.227600 -4.253540 88.071600 -10.478400 6.690000
-13.233800 -4.294830 88.540700 -10.478400 11.570000
23.124900 -4.659600 88.252400 -10.389600 9.250000
22.571500 2.412490 88.930200 -10.389600 8.490000
22.677500 2.423820 89.347700 -10.389600 6.760000
22.175500 1.987840 92.589600 -10.478400 7.630000
22.277200 1.701040 93.014200 -10.478400 11.370000
-26.137200 2.005830 92.445900 -10.123200 10.660000
-26.969400 2.014830 92.655300 -10.123200 7.040000
-27.089800 2.023820 93.069000 -10.123200 7.520000
-56.607100 -15.091600 101.513000 -9.146400 8.850000
-56.815300 -15.147100 101.886000 -9.146400 5.270000
-57.809800 -15.202600 101.817000 -9.057600 7.660000
19.997800 1.055450 122.473000 -10.567200 6.260000
20.067200 1.059110 122.898000 -10.567200 4.830000
20.136000 1.449230 123.319000 -10.567200 5.430000
-55.657800 -17.670300 117.257000 -9.324000 5.090000
-55.840900 -17.728400 117.643000 -9.324000 4.800000
-54.649900 -12.415800 121.729000 -9.590400 5.130000
-54.825600 -12.455800 122.120000 -9.590400 4.810000
-54.985200 -12.910900 122.476000 -9.501600 4.890000
22.649500 3.821020 157.770000 -10.656000 5.410000
22.710700 3.831350 158.196000 -10.567200 4.980000
-59.939200 -18.719700 156.343000 -9.768000 11.660000
-60.092500 -18.767600 156.742000 -9.768000 13.560000
-6.789250 2.588920 176.088000 -10.656000 11.370000
-6.805850 2.595250 176.519000 -10.656000 5.780000
-5.458450 2.601580 176.997000 -10.656000 6.880000
-4.489670 0.000000 179.198000 -10.656000 7.340000
-4.500460 0.000000 179.629000 -10.656000 8.780000
-4.511250 0.000000 180.060000 -10.656000 8.070000
5.154100 -0.333081 6.898860 -8.880000 3.950000
5.998980 1.191560 7.242860 2.397600 6.500000
6.779360 -0.395683 6.614400 -7.814400 2.140000
-2.290050 1.245730 9.561680 2.397600 9.670000
-2.907580 1.354050 10.283900 2.397600 11.460000
-3.532540 1.476930 10.528800 2.308800 8.460000
6.489540 0.835853 9.619980 -9.146400 7.500000
6.710060 1.266350 9.946880 -9.146400 6.370000
-2.994410 1.003740 12.090400 2.486400 7.200000
6.159400 1.624860 11.248500 -9.590400 3.800000
6.297420 1.679020 11.660100 -9.590400 3.710000
6.523000 1.582760 13.022500 -9.768000 6.440000
6.714850 1.629320 13.405500 -9.768000 5.210000
-8.692790 1.211410 12.264600 -8.613600 5.500000
6.445540 1.114470 14.065800 -9.945600 4.390000
-8.843670 1.246020 12.683500 -8.702400 5.790000
7.121900 1.145430 14.218100 -9.856800 10.110000
-9.089320 1.280630 13.035800 -8.702400 4.940000
7.241290 0.734047 14.667600 -9.856800 12.260000
7.395790 1.815520 14.980600 -9.856800 11.460000
6.024410 -1.450870 16.083600 -10.212000 7.580000
7.585430 1.862070 15.364700 -9.856800 7.950000
6.170360 -1.636810 16.473200 -10.212000 12.060000
6.396590 2.870360 16.684600 -10.212000 12.510000
6.876790 2.938700 16.952500 -10.123200 11.680000
-7.913340 1.659590 16.671500 -9.590400 5.160000
4.910930 -0.337144 18.309400 -10.389600 9.030000
7.024490 -0.278515 17.608100 -10.123200 11.560000
-7.734000 1.698190 17.226900 -9.679200 6.190000
-8.847610 1.639780 16.688200 -9.412800 6.780000
5.918400 -0.344806 18.462000 -10.389600 6.140000
7.045130 -0.284845 18.063100 -10.212000 9.910000
-7.909780 1.736780 17.618500 -9.679200 10.810000
-9.408380 1.677050 16.871900 -9.235200 8.130000
6.015460 -2.141390 18.764800 -10.389600 6.530000
7.837960 -0.229878 18.204400 -10.123200 6.080000
14.126400 1.836430 13.782600 -7.903200 6.610000
5.887080 -2.187940 19.253900 -10.300800 9.750000
14.297100 1.876350 14.220700 -7.903200 6.570000
6.961020 -1.979950 19.375700 -10.300800 10.280000
14.601300 1.916270 14.523200 -7.903200 6.750000
7.112080 1.826120 19.796200 -10.300800 7.720000
7.371860 1.929760 20.152400 -10.212000 9.260000
-7.951150 1.929760 19.930900 -9.945600 6.520000
-8.381260 2.036040 20.212600 -9.856800 3.370000
6.907610 1.958680 22.133100 -10.389600 10.640000
-8.147460 1.384480 21.751500 -10.034400 11.770000
7.364280 0.348143 22.523600 -10.389600 4.360000
-7.998780 1.410110 22.264300 -10.034400 4.550000
7.498180 0.354473 22.933100 -10.389600 4.520000
7.632080 0.360803 23.342600 -10.389600 5.650000
7.766290 0.289846 23.753100 -10.389600 6.020000
6.882900 -2.511950 24.344400 -10.478400 11.650000
5.654340 -2.554520 25.098400 -10.567200 12.250000
-13.764000 1.618120 21.825800 -13.142400 8.090000
-14.000900 1.401620 22.201500 -13.142400 8.500000
6.893230 -2.392900 25.700000 -10.567200 9.060000
-13.714200 1.032550 22.903900 -13.320000 6.560000
6.853330 -2.431500 26.154600 -10.567200 8.950000
-14.116000 0.965305 23.167900 -13.320000 10.880000
5.168570 -1.604330 27.919700 -10.567200 6.440000
-7.570340 1.362780 27.379400 -10.300800 8.470000
7.473600 -1.115820 27.863900 -10.567200 8.490000
-7.687180 1.205040 27.802000 -10.300800 7.520000
7.584210 -1.223020 28.276200 -10.567200 6.640000
-7.964890 1.223020 28.171400 -10.300800 5.480000
3.051490 -9.966900 29.221400 -10.656000 8.160000
5.297770 -1.968710 30.943800 -10.656000 6.640000
5.880200 -0.949380 31.763900 -10.656000 9.950000
5.339210 -1.769260 32.699100 -10.656000 9.780000
18.337300 0.795185 27.640100 -9.235200 7.820000
6.741710 -1.999800 32.866300 -10.656000 8.520000
6.839520 0.500061 33.343200 -10.656000 7.350000
7.121670 0.293180 33.727100 -10.656000 8.580000
18.561500 2.153630 30.999300 -9.501600 6.080000
18.782500 2.179270 31.368300 -9.501600 5.800000
19.006800 2.090490 31.743000 -9.501600 7.990000
-7.034510 0.985385 36.809200 -10.567200 9.370000
19.224400 2.230550 32.106400 -9.501600 8.640000
-7.115370 0.996711 37.232300 -10.567200 8.220000
18.663700 1.482210 33.469400 -9.590400 6.880000
8.299130 1.379010 37.857500 -10.656000 6.550000
18.873400 1.498860 33.845400 -9.590400 12.260000
8.088290 2.212030 38.304800 -10.656000 12.870000
19.083100 1.515520 34.221500 -9.590400 4.570000
7.654120 2.236340 38.832500 -10.656000 9.120000
-16.391500 2.044070 36.510900 -11.011200 8.750000
7.737310 2.260650 39.254600 -10.656000 9.840000
18.746500 2.044070 35.359500 -9.679200 11.460000
-16.851700 2.066050 36.774700 -11.011200 10.640000
18.948100 2.066050 35.739700 -9.679200 13.570000
-17.012800 2.814680 37.126200 -11.011200 7.480000
19.149700 2.088030 36.119900 -9.679200 11.400000
-17.418800 2.461290 37.439400 -10.922400 6.400000
19.351300 2.110010 36.500100 -9.679200 4.630000
-17.600300 2.486930 37.829400 -10.922400 7.620000
18.890600 2.023530 37.713000 -9.856800 10.140000
19.080400 2.175950 38.092000 -9.856800 11.220000
19.273100 2.197930 38.476800 -9.856800 6.150000
-26.889500 1.532230 33.635700 -8.258400 6.470000
-7.011340 1.043040 42.939700 -10.567200 6.840000
-26.895700 1.547550 34.180300 -8.347200 6.330000
-27.427200 1.562870 34.308400 -8.347200 12.260000
19.320700 1.989650 39.907100 -9.856800 5.330000
-27.696100 1.578200 34.644700 -8.347200 6.190000
19.508300 2.008970 40.294500 -9.856800 11.780000
19.695900 2.028290 40.682000 -9.856800 7.850000
19.238300 1.848600 43.751200 -10.034400 6.610000
19.411600 1.865250 44.145400 -10.034400 13.730000
19.584900 1.881910 44.539600 -10.034400 7.020000
19.746700 2.240770 45.863800 -10.034400 10.840000
-6.193300 2.571570 49.967300 -10.656000 7.100000
19.917000 2.260090 46.259100 -10.034400 8.260000
19.817200 2.279410 46.769900 -10.123200 7.990000
19.785900 2.318040 47.716500 -10.123200 10.030000
-11.742500 2.158270 50.310800 -12.343200 8.340000
19.950800 2.337360 48.114100 -10.123200 5.380000
-11.841800 2.015140 50.736300 -12.343200 13.950000
20.115700 2.356680 48.511800 -10.123200 10.290000
-11.939700 2.031790 51.155600 -12.343200 4.980000
-11.639700 2.048450 51.666200 -12.432000 14.060000
-13.531700 2.230220 51.641600 -12.343200 9.970000
-13.239200 2.248200 52.161600 -12.343200 11.050000
9.880170 1.301210 53.371000 -10.656000 17.250000
10.271200 0.803895 53.745700 -10.656000 15.160000
10.352800 0.469089 54.172800 -10.656000 14.670000
20.021500 2.472580 51.333400 -10.212000 14.840000
20.180600 2.320140 51.741400 -10.212000 5.420000
9.771270 -0.649655 55.154400 -10.656000 6.110000
20.337100 2.338130 52.142500 -10.212000 5.490000
20.493500 2.356110 52.543600 -10.212000 7.310000
20.391900 2.068510 54.440900 -10.212000 7.340000
-32.761400 1.540370 48.565000 2.752800 5.800000
20.277200 1.049740 55.431600 -10.300800 14.570000
20.424000 1.241280 55.832900 -10.300800 6.050000
20.572000 1.250270 56.237500 -10.300800 11.090000
20.720000 1.259270 56.642100 -10.300800 8.670000
20.230800 2.175770 57.705500 -10.300800 10.880000
20.373300 2.191090 58.111900 -10.300800 6.950000
20.515700 2.206410 58.518300 -10.300800 7.140000
20.658200 2.221730 58.924700 -10.300800 8.810000
20.455000 2.431490 59.443500 -10.300800 6.370000
20.592600 2.643880 59.843200 -10.300800 7.640000
20.732700 2.661870 60.250300 -10.300800 5.390000
20.872700 2.679860 60.657300 -10.300800 12.410000
-23.323000 -1.538740 59.798300 -9.945600 17.140000
21.017900 2.298340 61.079100 -10.389600 17.020000
-23.479600 -1.549060 60.199600 -9.945600 11.960000
21.155500 2.514760 61.479200 -10.389600 7.240000
21.298100 2.328990 61.893400 -10.300800 14.500000
21.438200 2.344310 62.300600 -10.300800 18.820000
20.647400 1.412180 64.408000 -10.389600 9.860000
21.030800 2.664650 65.604000 -10.389600 19.660000
-9.458600 1.662660 68.707000 -10.656000 17.090000
21.162200 2.681300 66.014000 -10.389600 10.350000
-9.916820 1.672990 69.077500 -10.656000 8.440000
21.293700 2.697950 66.424000 -10.389600 9.360000
-9.978030 1.683310 69.504000 -10.656000 7.620000
21.044300 2.075980 67.429500 -10.389600 11.770000
21.172600 2.088640 67.840700 -10.389600 11.290000
21.302800 1.880160 68.257700 -10.389600 6.640000
21.431100 1.891490 68.668900 -10.389600 8.440000
21.159800 1.902810 69.203500 -10.389600 6.370000
21.281800 2.364380 69.602800 -10.389600 7.550000
21.407800 2.378370 70.014700 -10.389600 7.410000
21.533700 2.392360 70.426500 -10.389600 11.070000
21.813700 1.709010 78.893000 -10.478400 8.210000
21.928500 1.718000 79.308200 -10.478400 5.430000
22.046700 0.959490 79.735400 -10.478400 6.420000
-16.164900 -0.969484 82.011100 -10.567200 6.460000
-16.248200 -0.974482 82.433800 -10.567200 4.410000
21.731800 1.524810 82.935600 -10.567200 6.350000
21.841000 1.532470 83.352400 -10.567200 6.470000
21.950200 1.540130 83.769100 -10.567200 10.020000
22.059400 1.547800 84.185900 -10.567200 8.820000
-11.416200 -3.979310 87.938200 -10.656000 6.820000
-11.471600 -3.998620 88.365100 -10.656000 5.880000
-18.870100 1.624420 89.365800 -10.567200 5.440000
-15.413100 1.624420 90.026500 -10.567200 4.510000
23.316300 1.978850 91.864500 -10.567200 11.780000
23.422300 1.987840 92.282100 -10.567200 5.440000
23.528300 1.996840 92.699700 -10.567200 5.300000
23.636800 1.411560 93.127500 -10.567200 8.800000
