VERSION .7
FIELDS x y z velocity intensity
SIZE 4 4 4 4 4
TYPE F F F F F
COUNT 1 1 1 1 1
WIDTH 971
HEIGHT 1
VIEWPOINT 0 0 0 1 0 0 0
POINTS 971
DATA ascii
9.009670 -1.045250 16.156900 -10.300800 5.930000
5.849800 -2.266740 17.891600 -11.188800 5.050000
-7.085220 2.048280 17.466300 -10.567200 6.030000
9.346350 -1.069550 16.461100 -10.300800 6.910000
5.876880 -2.318260 18.332500 -11.188800 7.050000
-7.246240 2.094830 17.863200 -10.567200 9.930000
9.558770 -1.093860 16.835200 -10.300800 7.860000
6.049140 -0.475046 18.869800 -11.188800 9.840000
-7.407270 2.141390 18.260200 -10.567200 8.730000
6.440120 -0.485373 19.194900 -11.100000 11.750000
-7.711870 2.187940 18.598300 -10.567200 7.060000
6.577140 -0.495700 19.603300 -11.100000 10.830000
8.063310 -0.799394 19.029900 -10.833600 7.310000
-7.900050 1.549760 19.052100 -10.567200 7.850000
8.231300 -0.816048 19.426400 -10.833600 7.530000
-7.650630 1.582040 19.615600 -10.656000 7.620000
-13.704400 1.614330 16.546000 -12.698400 4.070000
8.117110 1.748000 20.811600 -10.922400 4.960000
8.150450 1.781610 21.259300 -10.922400 4.430000
17.784700 2.084140 14.858900 -7.725600 5.300000
18.253900 2.195730 14.954700 -7.725600 8.320000
18.585700 2.235650 15.226600 -7.725600 8.690000
6.681220 -0.436754 23.631100 -11.188800 6.310000
17.993600 1.688810 16.632400 -8.258400 5.710000
6.647320 1.564180 24.041100 -11.277600 5.810000
18.309300 1.718430 16.924200 -8.258400 10.350000
6.919130 7.550450 23.269100 -11.277600 6.810000
7.699140 -0.759504 24.669300 -11.188800 7.120000
7.683010 -0.690902 25.127500 -11.188800 8.060000
-8.286170 1.672050 25.343200 -10.922400 6.150000
18.085400 1.640860 20.754500 -9.057600 6.530000
18.368000 1.666500 21.078800 -9.057600 4.470000
18.647100 1.779930 21.399000 -9.057600 4.170000
18.087400 1.743410 22.986300 -9.412800 10.610000
9.206860 0.443092 28.720100 -11.188800 7.280000
18.615800 1.887800 23.657900 -9.412800 5.260000
-6.953700 0.000000 29.793200 -11.188800 6.980000
18.878000 2.009200 23.991100 -9.412800 6.420000
18.333000 2.133230 24.937700 -9.590400 8.880000
-7.321900 1.118530 30.571200 -11.188800 12.010000
18.587600 2.162860 25.284000 -9.590400 8.580000
-7.241200 1.330940 31.025000 -11.188800 6.370000
-7.339060 1.348920 31.444200 -11.188800 6.210000
18.729800 2.076580 27.308400 -9.856800 10.730000
18.973100 2.103550 27.663000 -9.856800 6.050000
19.216300 2.130520 28.017700 -9.856800 12.510000
18.358800 1.944640 29.111700 -10.034400 8.490000
18.814900 1.968950 29.331500 -10.034400 5.960000
-12.671600 1.456830 32.488800 -14.208000 16.190000
19.047200 1.993260 29.693600 -10.034400 6.370000
-12.828000 1.474820 32.889900 -14.208000 5.570000
-17.157500 1.713800 31.333600 -13.675200 15.430000
18.808700 1.846260 30.869800 -10.123200 9.970000
-17.359500 1.930100 31.702400 -13.675200 5.890000
19.032600 1.868240 31.237300 -10.123200 5.270000
19.256500 1.890220 31.604800 -10.123200 9.490000
19.480500 1.912200 31.972300 -10.123200 8.410000
18.957000 1.699900 32.796500 -10.300800 5.680000
19.169700 1.837690 33.164400 -10.300800 7.860000
19.385100 1.858340 33.537000 -10.300800 6.700000
9.426070 0.454758 38.059400 -11.366400 4.410000
9.529660 0.459756 38.477600 -11.366400 5.840000
9.632850 0.588679 38.894300 -11.366400 7.470000
9.433140 0.595009 39.386300 -11.366400 8.280000
9.532450 0.854503 39.801000 -11.366400 14.080000
19.069400 2.110010 36.648100 -10.478400 6.040000
19.271000 2.002880 37.035600 -10.478400 6.270000
19.469600 2.023530 37.417400 -10.478400 10.480000
7.196270 -1.121300 42.032800 -11.366400 7.530000
19.668300 2.044180 37.799200 -10.478400 15.910000
10.033500 -1.032710 41.892900 -11.366400 18.860000
19.439800 1.834530 39.376300 -10.567200 17.560000
19.630400 1.852520 39.762300 -10.567200 7.620000
-23.767600 12.646000 35.825100 1.953600 14.110000
19.398200 0.804548 40.867200 -10.656000 15.400000
19.581800 0.953445 41.253900 -10.656000 10.090000
19.765100 1.105000 41.640200 -10.656000 7.370000
19.737200 1.392420 43.071700 -10.744800 12.230000
19.916600 1.405080 43.463200 -10.744800 7.650000
20.097800 1.268540 43.858600 -10.744800 9.200000
19.576500 2.221460 45.468400 -10.833600 11.030000
19.746700 2.240770 45.863800 -10.833600 7.040000
-22.917800 -1.325170 44.885700 -10.123200 6.660000
19.822300 1.965180 46.781900 -10.833600 9.350000
-23.113600 -1.336500 45.269300 -10.123200 6.370000
17.188800 0.904158 47.844200 -9.856800 6.140000
19.990300 1.981830 47.178400 -10.833600 5.990000
-22.957000 -1.347820 45.831200 -10.212000 7.400000
16.682100 0.911821 48.479000 -9.945600 11.360000
20.158300 1.998480 47.574900 -10.833600 10.300000
19.158500 0.599681 48.024100 -9.945600 7.890000
20.326300 2.015140 47.971300 -10.833600 10.210000
19.908100 2.048450 49.076900 -10.922400 6.310000
-5.503170 1.270230 52.698900 -11.455200 6.630000
20.070000 2.065100 49.475900 -10.922400 8.470000
-5.547590 1.404460 53.124300 -11.455200 8.170000
20.231800 2.081750 49.874900 -10.922400 8.750000
20.393700 2.098410 50.273900 -10.922400 8.660000
19.867700 2.284170 50.939200 -10.922400 15.840000
20.026700 2.131720 51.346700 -10.922400 7.510000
20.183100 2.148370 51.747900 -10.922400 8.720000
20.339600 2.165020 52.149000 -10.922400 17.060000
20.196400 1.832740 52.679300 -11.011200 6.440000
20.350600 1.846730 53.081500 -11.011200 13.830000
20.504700 1.860720 53.483600 -11.011200 5.850000
20.656700 2.053190 53.880100 -11.011200 5.120000
20.547100 1.721540 54.855200 -11.011200 13.740000
-31.259200 0.317170 49.568200 -9.590400 6.090000
-12.188600 2.099150 57.723200 -11.277600 16.380000
20.698200 1.734200 55.258600 -11.011200 6.390000
-21.426200 -2.828810 54.934900 -10.656000 14.650000
-31.487400 0.684636 49.930000 -9.590400 7.430000
-12.277600 2.114480 58.144500 -11.277600 8.080000
-20.079100 -3.033140 55.889400 -10.833600 6.670000
-31.717200 0.689633 50.294500 -9.590400 10.370000
-12.366500 2.129800 58.565800 -11.277600 15.010000
-20.224600 -3.055120 56.294400 -10.744800 15.080000
20.720000 1.259270 56.642100 -11.100000 10.590000
-21.159100 0.699628 56.489200 -10.744800 10.190000
20.537900 1.268260 57.166300 -11.100000 15.110000
-21.309400 0.892513 56.890400 -10.744800 15.150000
20.377400 1.810150 58.123600 -11.100000 10.510000
20.519900 1.822810 58.530000 -11.100000 7.480000
20.662400 1.835470 58.936500 -11.100000 7.040000
20.804900 1.848130 59.343000 -11.100000 8.320000
-18.291500 -1.886100 61.514500 -11.011200 11.380000
-18.412500 -2.098560 61.921400 -11.011200 7.020000
-18.174600 -2.112550 62.440300 -11.011200 8.180000
21.023900 0.156920 64.301400 -11.188800 14.980000
-7.412020 1.987370 67.214700 -11.455200 15.440000
21.157500 0.368477 64.710200 -11.188800 11.240000
21.291000 0.582696 65.118300 -11.188800 6.950000
21.175800 1.019110 66.056200 -11.188800 6.840000
21.307300 1.025440 66.466500 -11.188800 8.460000
21.438800 1.031770 66.876800 -11.188800 6.590000
21.309800 0.387134 68.280300 -11.188800 7.450000
21.438200 0.389466 68.691600 -11.188800 7.270000
12.927000 1.317930 72.966800 -11.455200 8.740000
13.000400 1.786590 73.381600 -11.455200 7.550000
22.219900 2.291170 74.725600 -11.277600 8.540000
21.444400 2.316490 75.847500 -11.277600 5.180000
21.566200 1.655040 76.278200 -11.277600 7.890000
21.684700 1.417540 76.697400 -11.277600 5.860000
21.359100 0.185905 77.248700 -11.277600 10.060000
21.916300 1.931160 77.516500 -11.277600 9.050000
22.033500 1.941490 77.931000 -11.277600 9.780000
22.150700 1.951820 78.345600 -11.277600 11.290000
21.812200 1.962150 78.887500 -11.277600 5.940000
22.277000 0.710963 80.568500 -11.277600 8.660000
22.391100 0.974482 80.981300 -11.277600 13.600000
22.505100 1.240660 81.393300 -11.277600 14.020000
22.617400 1.771970 81.799600 -11.277600 10.150000
-1.000420 3.615110 86.529600 -11.544000 10.200000
16.525900 0.872212 101.210000 -11.455200 6.310000
16.595400 0.875877 101.635000 -11.455200 12.290000
30.304800 0.000000 134.517000 -11.366400 11.210000
30.399400 0.320836 134.937000 -11.366400 7.990000
30.493700 0.750947 135.355000 -11.366400 11.020000
21.401400 1.231360 143.187000 -11.544000 11.120000
22.571800 0.785929 143.446000 -11.544000 9.430000
-61.475700 -8.629350 139.807000 -10.478400 10.930000
-61.648900 -8.653660 140.201000 -10.478400 14.410000
-61.822000 -8.677970 140.594000 -10.389600 13.550000
-61.960000 -10.130900 140.908000 -10.389600 7.220000
-61.042200 -10.159200 141.777000 -10.389600 6.430000
-7.024690 1.839020 158.405000 -11.544000 5.610000
-6.125510 1.844020 158.873000 -11.544000 5.390000
-7.082410 0.370811 159.707000 -11.544000 6.270000
-7.101500 0.371810 160.137000 -11.544000 7.520000
-7.120510 0.869886 160.566000 -11.544000 7.120000
-7.139450 1.370620 160.993000 -11.544000 4.740000
-7.158540 1.374280 161.423000 -11.544000 6.850000
-7.177620 1.377950 161.853000 -11.544000 7.080000
-6.325130 0.380806 164.051000 -11.544000 6.190000
-6.341730 0.381805 164.481000 -11.544000 4.180000
-6.358330 0.382805 164.912000 -11.544000 8.540000
5.014670 -0.396179 3.329920 -5.505600 3.630000
5.377480 -0.329689 3.570840 -5.772000 6.260000
5.734300 -0.388929 3.807790 -6.216000 4.930000
5.735970 -0.351668 3.808890 -6.038400 5.800000
6.045520 -0.413237 4.115940 -6.482400 5.480000
6.927560 -0.129931 8.803870 -9.057600 7.390000
7.105600 0.134928 9.211360 -8.968800 14.580000
5.499930 -1.185330 10.183500 -9.768000 10.240000
7.368770 0.139926 9.552530 -8.968800 17.290000
5.764580 -1.229240 10.527500 -9.856800 8.210000
7.555150 0.183567 9.951810 -9.057600 15.440000
5.242160 -1.311580 11.267300 -10.123200 5.470000
6.218950 -1.311580 10.759000 -9.768000 6.160000
7.631630 0.183567 9.893280 -9.057600 8.640000
7.107000 -1.356800 10.712500 -9.590400 5.240000
5.698180 -1.360940 12.004700 -10.123200 5.270000
5.993120 -0.593525 12.881400 -10.300800 6.010000
5.423870 -0.611511 13.595900 -10.389600 7.780000
5.773650 -0.489664 13.924000 -10.478400 7.550000
5.920650 -1.305790 14.278500 -10.478400 10.160000
5.256020 -1.342060 14.992100 -10.567200 9.030000
4.768550 -1.466620 15.595700 -10.744800 6.980000
4.653660 -2.266910 15.988000 -10.744800 9.030000
5.025610 -1.291460 16.436400 -10.744800 7.040000
6.401550 -1.323750 16.413000 -10.478400 7.080000
5.358340 2.010810 17.169000 -10.744800 7.420000
7.450730 0.830632 16.944300 -10.389600 7.540000
7.490140 0.849949 17.396600 -10.389600 9.220000
6.548540 0.929171 18.227600 -10.567200 7.420000
7.660380 0.869266 17.792000 -10.389600 7.620000
6.287180 -1.485180 18.739100 -10.744800 7.870000
6.572730 -1.455000 19.100700 -10.744800 8.670000
5.893420 -0.495700 19.819600 -10.744800 9.950000
6.983460 -0.506027 19.919300 -10.744800 11.350000
7.126480 -0.449738 20.327300 -10.744800 11.170000
7.548440 -0.390780 20.635100 -10.567200 7.680000
-8.256400 0.713511 20.353400 -10.300800 8.660000
7.857370 -0.537008 20.977100 -10.478400 6.100000
7.553540 -0.547335 21.545400 -10.656000 7.400000
-7.207630 2.049720 22.483700 -10.567200 11.160000
-7.338680 2.086990 22.892500 -10.567200 6.190000
18.319600 1.826490 17.532500 -8.080800 8.790000
6.882130 -1.238890 24.890400 -10.744800 5.550000
18.056200 1.589580 19.626000 -8.436000 8.360000
6.918060 -0.784821 25.792600 -10.833600 8.380000
18.347400 1.615220 19.942600 -8.436000 9.490000
18.642000 1.555710 20.262800 -8.436000 10.090000
-7.137120 1.236290 26.609300 -10.656000 9.310000
-7.248640 1.255610 27.025100 -10.656000 7.330000
18.265700 1.955460 21.710300 -8.791200 6.200000
18.546400 1.896000 22.043900 -8.791200 9.750000
18.823200 1.924300 22.372900 -8.791200 7.820000
-6.822360 0.770186 28.485500 -10.833600 7.630000
-7.311900 0.781512 28.808400 -10.833600 6.240000
18.390500 1.794690 23.840600 -9.057600 8.130000
-7.642250 0.886088 29.165300 -10.744800 11.020000
18.653200 1.820330 24.181200 -9.057600 4.460000
9.950450 0.898746 28.916600 -10.744800 9.440000
18.722900 1.941740 24.662200 -9.146400 5.110000
7.523190 0.898746 29.640900 -10.922400 6.370000
18.979100 2.065790 24.999700 -9.146400 10.160000
18.605600 1.897250 25.826100 -9.324000 15.650000
18.857000 1.922880 26.175100 -9.324000 6.030000
19.108400 1.948520 26.524100 -9.324000 16.380000
19.152200 1.974160 27.021500 -9.324000 9.010000
18.518800 2.076580 27.451900 -9.501600 12.640000
18.762800 1.999800 27.813700 -9.501600 7.820000
19.003400 2.025440 28.170300 -9.501600 11.040000
19.023500 2.051080 28.674300 -9.501600 4.900000
19.261300 2.076710 29.032800 -9.501600 17.280000
18.817700 1.993260 29.839500 -9.590400 18.420000
19.050500 1.907120 30.208600 -9.590400 15.070000
19.280000 1.930100 30.572500 -9.590400 10.670000
18.754700 2.319300 31.876800 -9.856800 17.600000
18.972800 2.346270 32.247500 -9.856800 19.130000
19.190900 2.373240 32.618200 -9.856800 8.170000
19.114100 2.307460 33.664400 -9.945600 12.240000
19.326500 2.333100 34.038500 -9.945600 6.850000
19.538900 2.358740 34.412500 -9.945600 7.730000
19.747500 2.508080 34.780000 -9.945600 11.470000
9.332790 0.588679 38.967300 -10.922400 11.140000
18.948100 2.066050 35.739700 -10.034400 12.300000
9.433140 0.595009 39.386300 -10.922400 10.150000
19.149700 2.088030 36.119900 -10.034400 8.440000
9.839510 0.727924 39.728700 -10.922400 6.340000
19.351300 2.110010 36.500100 -10.034400 11.140000
9.942490 0.863497 40.144500 -10.922400 15.200000
19.550500 2.228810 36.875800 -10.034400 14.640000
6.477230 -3.260690 41.163400 -11.011200 9.480000
9.385170 -3.293230 42.811600 -10.922400 17.920000
9.477190 -3.325520 43.231300 -10.922400 15.850000
19.440800 1.354450 41.785300 -10.300800 6.830000
19.618500 1.654810 42.167400 -10.300800 8.180000
19.797900 1.815290 42.552900 -10.300800 7.600000
19.977100 1.978420 42.938000 -10.300800 6.400000
19.746100 2.163510 43.983100 -10.389600 7.210000
19.922400 2.182820 44.375800 -10.389600 5.620000
20.098700 2.202140 44.768500 -10.389600 7.620000
20.098700 2.202140 44.768500 -10.300800 6.770000
20.275000 2.221460 45.161200 -10.300800 9.270000
9.957340 0.000000 48.542800 -11.011200 13.560000
10.043900 0.115941 48.964800 -11.011200 13.290000
19.919600 2.104320 46.265300 -10.389600 8.660000
10.130500 0.116940 49.386900 -11.011200 14.910000
20.089900 2.122300 46.660800 -10.389600 7.260000
20.257400 2.298720 47.049900 -10.389600 18.590000
20.323700 2.176260 47.965300 -10.389600 9.550000
20.491700 2.194240 48.361800 -10.389600 9.060000
20.659700 2.212230 48.758200 -10.389600 6.290000
20.827600 2.230220 49.154600 -10.478400 9.140000
20.223700 2.581030 49.854900 -10.567200 11.090000
20.094700 2.601680 50.370700 -10.567200 8.820000
20.254100 2.622330 50.770500 -10.567200 15.320000
20.413600 2.642970 51.170300 -10.567200 18.270000
20.334300 2.511210 52.135500 -10.567200 16.690000
20.496100 2.181680 52.550100 -10.567200 7.010000
20.652500 2.198330 52.951300 -10.567200 8.700000
-20.547200 -3.193860 56.169700 -10.389600 9.180000
21.252300 2.625900 59.154800 -10.656000 7.360000
21.402900 2.252380 59.574200 -10.656000 7.890000
21.548500 2.267700 59.979500 -10.656000 8.030000
-19.029700 -1.755570 63.997100 -10.656000 7.410000
-19.008100 -3.052090 65.303600 -10.656000 9.200000
20.910400 1.430170 65.228500 -10.744800 6.330000
21.041900 1.439160 65.638700 -10.744800 5.980000
21.173500 1.448160 66.049000 -10.744800 5.940000
21.306200 1.241300 66.463200 -10.744800 5.970000
21.174400 1.868830 67.846500 -10.744800 5.580000
-29.082800 -0.403459 68.637400 -10.123200 14.220000
-17.528400 1.371560 75.100500 -10.744800 6.040000
-18.063500 1.139380 75.420700 -10.833600 6.260000
-18.163800 1.145710 75.839700 -10.833600 5.210000
22.021400 3.047690 75.656000 -10.833600 8.970000
-13.182400 1.861920 88.197200 -10.922400 10.680000
19.243200 0.000000 108.619000 -11.011200 10.480000
20.155000 1.969230 108.874000 -11.011200 4.930000
-55.774900 -12.256500 101.858000 -9.590400 5.540000
-55.980800 -12.301700 102.234000 -9.590400 7.140000
-56.204600 -11.985100 102.643000 -9.590400 7.590000
-55.814100 -12.029000 103.343000 -9.590400 7.470000
-59.998500 -3.686770 141.600000 -10.123200 6.680000
-59.070300 -3.697100 142.456000 -10.123200 6.020000
-60.334600 -3.707420 142.394000 -10.212000 4.470000
-6.224180 3.373040 161.432000 -11.100000 6.340000
-6.241460 2.380040 161.881000 -11.100000 6.620000
-6.258320 1.884000 162.318000 -11.100000 4.590000
-5.087060 0.893207 164.954000 -11.100000 4.960000
-5.100340 0.895539 165.385000 -11.100000 5.020000
-5.113680 0.384804 165.817000 -11.100000 5.550000
-6.408130 0.385803 166.203000 -11.100000 8.590000
-48.260800 -14.294600 170.695000 -10.567200 8.900000
-48.352600 -15.428800 171.020000 -10.567200 7.380000
-48.469400 -15.466100 171.433000 -10.567200 4.610000
5.369350 -0.484299 3.565440 -6.216000 2.240000
5.369350 -0.484299 3.565440 -6.393600 5.090000
5.368170 -0.516585 4.295180 -7.104000 3.800000
5.650540 -0.548872 4.629270 -7.281600 4.170000
6.658690 -0.316460 8.462180 -9.057600 14.540000
6.842640 0.095284 8.870480 -9.057600 13.260000
4.845620 -1.845230 10.415000 -10.212000 8.960000
5.825000 -1.845230 9.900580 -9.856800 6.980000
7.105600 0.134928 9.211360 -9.057600 6.780000
7.294920 0.139926 9.609040 -9.146400 7.240000
6.809080 0.309813 10.984000 -9.679200 4.840000
-8.833920 0.877254 9.981270 -8.258400 10.690000
6.948360 0.320140 11.404000 -9.768000 4.840000
-9.118880 0.905553 10.303300 -8.258400 8.350000
4.527510 -1.690870 12.914100 -10.567200 4.830000
6.806230 0.330467 11.987400 -9.945600 4.310000
6.161280 -1.142920 13.242800 -10.389600 3.240000
-7.844350 1.886450 12.229000 -9.324000 6.470000
6.675880 -0.174907 13.522300 -10.300800 7.110000
-8.872010 -0.131931 12.724200 -9.057600 6.460000
6.240810 -0.503655 14.192700 -10.389600 8.480000
-8.166120 0.647482 13.173100 -9.412800 8.500000
6.408410 -0.850163 14.573900 -10.389600 6.610000
4.015960 -1.277380 15.822600 -10.833600 7.940000
-8.293710 0.784633 14.096600 -9.590400 7.330000
-8.936490 0.784633 13.698100 -9.324000 6.910000
4.117630 -1.505210 16.223200 -10.833600 6.810000
-7.614770 1.414600 14.913900 -9.856800 8.300000
-9.063040 0.805281 14.128800 -9.412800 7.450000
4.225200 -1.450870 16.647000 -10.833600 4.670000
6.925600 -1.025540 15.750100 -10.478400 10.550000
-7.239450 1.596890 15.560200 -10.123200 6.410000
4.232120 -1.487150 17.087900 -10.833600 6.100000
7.098730 -1.051180 16.143800 -10.478400 9.250000
-7.413710 1.799950 15.934800 -10.123200 6.930000
-7.592090 1.899530 16.318200 -10.123200 4.320000
-7.777780 1.830740 16.717300 -10.123200 4.270000
-7.859650 1.873320 17.151800 -10.212000 6.900000
-6.920820 1.897460 18.476700 -10.478400 6.750000
-7.071270 1.938700 18.878400 -10.478400 7.940000
6.304970 -1.102910 19.667900 -10.833600 12.170000
-7.221720 1.979950 19.280100 -10.478400 9.120000
6.435230 -1.191090 20.074200 -10.833600 11.210000
6.684860 -1.215400 20.445600 -10.833600 10.600000
7.827930 -0.316494 20.070100 -10.656000 5.510000
-7.677190 2.062450 20.024800 -10.478400 8.130000
17.864300 1.748000 13.411700 -7.104000 8.340000
18.207900 1.781610 13.669700 -7.104000 7.580000
18.551400 1.815230 13.927600 -7.104000 9.720000
-7.054430 0.989209 22.603600 -10.656000 7.180000
6.535120 -1.385560 23.635400 -10.922400 8.330000
17.846100 1.718430 17.411900 -8.169600 5.360000
6.649770 -1.409870 24.050000 -10.922400 8.380000
18.153800 1.748060 17.712100 -8.169600 7.920000
6.573240 -1.591150 24.507000 -10.922400 6.860000
18.457500 1.857450 18.008400 -8.169600 9.360000
7.559240 -1.591150 24.221100 -10.833600 6.860000
6.697770 -0.059969 24.971300 -11.011200 8.340000
7.150950 -0.223550 25.292500 -10.922400 8.280000
-7.605770 1.280190 25.578300 -10.656000 7.800000
18.353800 1.447580 19.949600 -8.524800 7.460000
18.645200 1.470550 20.266200 -8.524800 7.280000
18.276600 1.692140 21.723300 -8.880000 4.890000
8.091420 1.692140 27.211500 -10.922400 7.430000
18.553600 1.717780 22.052400 -8.880000 6.970000
18.826900 1.833870 22.377300 -8.880000 5.810000
18.390500 1.794690 23.840600 -9.146400 6.350000
-7.417870 0.792838 29.225900 -10.922400 8.970000
18.646000 2.009200 24.171800 -9.146400 8.060000
18.719100 2.037490 24.657300 -9.235200 8.620000
18.979100 2.065790 24.999700 -9.235200 15.780000
18.157200 1.871610 25.617800 -9.412800 7.100000
18.402500 1.995680 25.963800 -9.412800 14.600000
18.651200 2.022650 26.314700 -9.412800 9.470000
18.903400 1.948520 26.670600 -9.412800 7.860000
19.148500 2.076580 27.016400 -9.412800 8.830000
18.762800 1.999800 27.813700 -9.501600 14.930000
18.785700 2.025440 28.315900 -9.590400 5.220000
19.023500 2.051080 28.674300 -9.590400 5.910000
18.353700 2.184460 29.607100 -9.768000 13.850000
18.583900 2.102350 29.978300 -9.768000 15.950000
18.810500 2.127990 30.343900 -9.768000 13.560000
19.037100 2.153630 30.709500 -9.768000 6.520000
19.263700 2.179270 31.075100 -9.768000 15.240000
18.758300 2.204910 31.882900 -9.856800 15.620000
18.965100 2.577650 32.234400 -9.856800 11.570000
19.183100 2.607280 32.604900 -9.856800 6.940000
19.396800 2.755220 32.968200 -9.856800 7.000000
18.862900 1.978130 33.826600 -10.034400 13.450000
19.072500 2.000110 34.202500 -10.034400 6.330000
19.279800 2.113920 34.574200 -10.034400 7.150000
19.489400 2.136900 34.950000 -10.034400 10.300000
9.631790 0.836513 38.890000 -11.100000 14.320000
9.839510 0.727924 39.728700 -11.011200 13.720000
19.632700 2.182850 35.854000 -10.123200 4.800000
9.633370 0.735587 40.222300 -11.011200 8.170000
19.839400 2.205830 36.231400 -10.123200 9.860000
9.734200 0.613998 40.643400 -11.011200 16.340000
19.671100 1.912380 37.804600 -10.212000 8.130000
8.884960 -2.696860 42.077700 -11.100000 15.470000
19.867000 2.064820 38.181000 -10.212000 9.620000
9.312400 1.682060 42.479600 -11.100000 7.470000
9.072550 1.834530 42.966100 -11.100000 6.390000
9.495620 1.852520 43.315400 -11.100000 8.510000
9.582520 -2.389650 43.711800 -11.100000 8.070000
7.807360 -2.285840 44.069000 -11.100000 10.360000
8.304720 -2.188710 44.860700 -11.100000 8.480000
19.442500 1.211910 41.788900 -10.389600 6.250000
19.625300 1.115330 42.181900 -10.389600 7.800000
19.560600 1.125650 42.686300 -10.389600 6.820000
19.990100 0.989424 42.966000 -10.389600 7.520000
19.743300 2.312600 43.976800 -10.389600 11.230000
19.919600 2.333250 44.369400 -10.389600 15.160000
20.095900 2.353900 44.762100 -10.389600 14.860000
10.237400 0.421447 48.482700 -11.100000 6.240000
20.272100 2.374550 45.154800 -10.389600 18.860000
10.237400 0.421447 48.482700 -11.100000 7.790000
19.758100 1.468370 45.890100 -10.478400 18.290000
19.928400 1.481030 46.285700 -10.478400 12.800000
20.098700 1.493690 46.681300 -10.478400 8.030000
20.270800 1.347820 47.081000 -10.478400 7.130000
20.153100 2.318040 47.562600 -10.478400 14.760000
20.321000 2.337360 47.958900 -10.478400 6.150000
20.489000 2.356680 48.355300 -10.478400 11.430000
20.656900 2.375990 48.751600 -10.478400 7.160000
20.445400 2.395310 49.307000 -10.478400 7.740000
-4.984970 1.961250 54.894400 -11.188800 16.670000
-5.769630 1.976580 55.250500 -11.188800 9.790000
-10.585200 2.530530 55.388800 -11.011200 8.590000
-10.667400 2.374100 55.819100 -11.011200 7.500000
-10.748300 2.392090 56.241900 -11.011200 5.860000
20.649000 2.588480 53.860000 -10.656000 5.360000
20.803100 2.607800 54.261900 -10.656000 5.960000
-21.433700 -1.574350 55.906600 -10.478400 7.660000
-12.112900 2.331560 59.051400 -10.922400 8.710000
-21.149400 -1.958660 56.463200 -10.478400 10.670000
-12.199400 2.348220 59.473200 -11.011200 7.970000
-19.758900 -1.972650 57.420400 -10.567200 6.060000
-12.286000 2.364870 59.895000 -11.011200 8.920000
21.252300 2.625900 59.154800 -10.744800 8.450000
20.940800 2.448140 59.730500 -10.744800 8.290000
21.083200 2.464800 60.136900 -10.744800 7.990000
-18.057500 -1.698940 62.038100 -10.744800 8.780000
-18.177900 -1.710270 62.451700 -10.744800 8.560000
-18.296700 -1.924080 62.859800 -10.744800 6.540000
21.372600 1.974710 63.701600 -10.833600 7.540000
21.414400 2.238470 65.495700 -10.833600 6.930000
21.548200 2.252460 65.905100 -10.833600 8.210000
21.682100 2.266450 66.314400 -10.833600 6.370000
21.690500 2.528180 67.661900 -10.922400 10.140000
21.296700 2.543500 68.238100 -10.833600 6.820000
-27.697800 -0.170913 68.279700 -10.389600 6.840000
-27.859700 -0.171912 68.679000 -10.389600 9.330000
-28.021700 -0.172912 69.078300 -10.389600 8.910000
-11.719600 -1.340910 74.479100 -11.011200 6.400000
-29.413100 -1.574080 69.416700 -10.300800 7.460000
-11.786600 -1.348580 74.904700 -11.011200 6.050000
-29.581100 -1.583080 69.813400 -10.300800 9.060000
-29.749200 -1.592070 70.210100 -10.300800 6.230000
-17.433200 -0.177909 74.692500 -10.922400 8.600000
-17.531100 -0.178909 75.112100 -10.922400 5.610000
-18.065400 -0.179908 75.428600 -10.922400 8.380000
21.792200 1.628050 74.868800 -10.922400 5.440000
21.909800 2.061380 75.272900 -10.922400 11.750000
22.030200 2.072710 75.686400 -10.922400 12.960000
22.154700 1.409870 76.114300 -10.922400 9.770000
20.079500 0.597026 108.466000 -11.100000 5.710000
20.156800 1.284320 108.884000 -11.100000 7.120000
20.235900 0.945507 109.311000 -11.100000 6.180000
-60.313800 -5.500700 142.344000 -10.212000 7.610000
-59.161800 -14.372000 142.677000 -10.212000 8.190000
-61.250500 -14.412000 142.260000 -10.123200 5.830000
-6.208710 1.370620 161.031000 -11.188800 5.520000
-6.225310 1.374280 161.462000 -11.188800 5.200000
-6.241460 2.380040 161.881000 -11.188800 6.810000
-6.258060 2.386370 162.311000 -11.188800 6.140000
-5.087060 0.893207 164.954000 -11.188800 4.860000
-5.100340 0.895539 165.385000 -11.188800 4.870000
-5.113680 0.384804 165.817000 -11.188800 7.160000
-48.269600 -13.883100 170.727000 -10.656000 8.260000
-48.377600 -14.329200 171.109000 -10.656000 5.520000
6.461290 0.041978 4.290530 -6.127200 6.130000
6.820250 0.044311 4.528890 -6.304800 3.720000
6.380050 0.158247 8.678520 -9.412800 5.940000
6.927280 0.164577 8.803510 -9.146400 13.390000
7.105310 0.170907 9.210990 -9.235200 16.820000
7.368470 0.177237 9.552140 -9.235200 15.540000
6.893130 0.339788 10.930500 -9.856800 7.520000
6.661110 -0.260520 13.046100 -10.300800 9.980000
7.428040 -0.260520 12.625200 -10.212000 9.980000
5.093310 -0.722688 14.177000 -10.744800 8.500000
6.466060 -0.268183 13.622400 -10.478400 9.410000
4.330330 -0.743336 14.877200 -10.744800 9.290000
6.650800 -0.275845 14.011600 -10.389600 8.870000
-8.756800 0.970870 12.767600 -9.146400 7.880000
5.238830 -0.743336 14.582100 -10.744800 7.490000
4.426590 -1.820430 15.207900 -10.744800 6.660000
-8.684780 1.243770 13.312300 -9.324000 6.170000
-9.000040 0.997839 13.122200 -9.146400 6.050000
4.427270 -1.819310 15.659000 -11.011200 5.240000
-8.813860 1.277380 13.740400 -9.324000 5.280000
4.545320 -1.815520 16.076500 -10.922400 9.450000
-7.599690 1.763850 14.884400 -9.945600 6.830000
3.910640 -1.025540 16.755100 -10.922400 10.090000
4.009120 -0.996629 17.177100 -10.922400 8.910000
-7.323760 1.745590 15.982300 -10.034400 6.110000
5.346840 -2.330320 17.132200 -10.833600 10.590000
-7.504660 1.732460 16.377100 -10.123200 6.280000
5.474140 -2.385810 17.540100 -10.833600 10.290000
-7.293630 1.773710 16.940200 -10.300800 6.030000
6.549250 -1.011050 18.680800 -10.833600 7.060000
-7.164990 2.019460 18.370400 -10.478400 8.820000
6.581180 -1.033030 19.125300 -10.833600 8.190000
-7.212130 2.063360 18.811800 -10.478400 12.360000
6.568550 -1.166790 19.577700 -10.833600 8.010000
6.290250 -0.114275 20.155000 -10.922400 8.370000
6.299630 -0.116607 20.603100 -11.011200 4.690000
-7.966010 1.414930 19.968200 -10.389600 6.960000
7.429940 -0.186903 20.680900 -10.833600 9.570000
-8.249010 1.171850 20.335200 -10.389600 7.420000
8.020830 -0.190567 20.921200 -10.744800 7.170000
-8.570300 1.194820 20.668500 -10.300800 6.860000
7.528900 1.922410 21.475100 -10.833600 6.060000
7.401140 -0.197897 22.059300 -10.922400 5.610000
17.833200 1.903640 15.492600 -7.814400 6.090000
9.059860 1.483270 21.849100 -10.656000 3.970000
18.160800 1.882460 15.777100 -7.814400 10.710000
6.564810 -0.205226 23.219300 -11.011200 5.660000
-8.273550 1.510240 22.617300 -10.567200 12.800000
18.485100 1.916070 16.058900 -7.814400 4.970000
-8.422880 1.461390 23.025600 -10.567200 4.830000
6.795930 -0.811444 24.036800 -11.011200 7.110000
-8.252310 1.564180 23.538500 -10.656000 10.470000
6.771640 -0.825434 24.490800 -11.100000 8.280000
-7.231870 1.591150 24.320800 -10.744800 7.750000
6.887670 -0.679576 24.910400 -11.100000 6.940000
7.003770 -0.467404 25.330300 -11.100000 8.370000
7.118590 -0.475066 25.745600 -11.100000 8.110000
18.178000 1.255610 21.271100 -8.968800 9.260000
18.290700 1.274920 21.740000 -8.968800 9.100000
18.565100 1.383430 22.066200 -8.968800 9.200000
-7.189800 2.105110 28.327300 -10.922400 7.180000
-7.536050 0.252868 28.760100 -10.922400 5.290000
18.120800 1.952600 23.490900 -9.235200 7.420000
-7.645270 0.256533 29.176900 -10.922400 5.540000
18.383400 1.980900 23.831400 -9.235200 4.780000
18.459200 2.009200 24.314800 -9.324000 9.150000
7.481090 6.147880 29.475000 -11.100000 8.500000
18.719100 2.037490 24.657300 -9.324000 4.560000
18.982900 1.968710 25.004700 -9.324000 6.550000
18.201800 1.995680 26.104900 -9.501600 6.690000
18.444100 2.122390 26.452400 -9.501600 14.990000
18.693800 2.049610 26.810400 -9.501600 17.420000
18.943300 1.974160 27.168400 -9.501600 6.730000
18.551200 1.896030 27.962500 -9.679200 15.510000
18.789100 1.920330 28.321000 -9.679200 5.680000
19.026900 1.944640 28.679500 -9.679200 13.470000
18.588200 1.968950 29.475600 -9.768000 15.700000
18.817700 1.993260 29.839500 -9.768000 13.500000
19.043800 2.127990 30.198000 -9.768000 5.360000
19.040500 2.041870 30.715000 -9.856800 7.150000
19.263700 2.179270 31.075100 -9.856800 5.760000
18.764800 1.976060 31.894000 -10.034400 7.670000
18.983000 1.999030 32.264900 -10.034400 18.070000
19.201200 2.022010 32.635700 -10.034400 11.210000
19.419400 2.044990 33.006600 -10.034400 12.310000
-6.314970 1.394330 38.674900 -11.100000 5.360000
19.335600 2.000110 34.054500 -10.123200 15.620000
-6.384360 1.409650 39.099900 -11.100000 7.150000
19.548100 2.022090 34.428700 -10.123200 14.490000
-6.453760 1.424970 39.524900 -11.100000 6.060000
9.736820 0.469750 39.314100 -11.100000 8.630000
9.840010 0.601339 39.730700 -11.100000 5.060000
19.648300 1.455620 35.882300 -10.212000 5.410000
9.633370 0.735587 40.222300 -11.100000 5.460000
19.855100 1.470940 36.260000 -10.212000 7.010000
9.733130 0.872492 40.638900 -11.100000 7.430000
8.141420 -3.294300 41.304800 -11.188800 9.860000
19.175400 2.251780 37.556000 -10.300800 5.260000
19.371100 2.274760 37.939200 -10.300800 9.400000
19.566700 2.297740 38.322500 -10.300800 11.660000
19.764800 2.219910 38.710400 -10.300800 8.760000
19.442500 1.211910 41.788900 -10.478400 10.610000
19.624200 1.223240 42.179500 -10.478400 12.720000
19.805900 1.234560 42.570000 -10.478400 9.010000
19.987600 1.245890 42.960600 -10.478400 14.140000
19.746100 2.163510 43.983100 -10.567200 7.460000
19.922400 2.182820 44.375800 -10.567200 11.330000
9.855030 2.771120 48.044000 -11.188800 9.350000
20.098700 2.202140 44.768500 -10.567200 9.420000
20.275000 2.221460 45.161200 -10.567200 8.580000
19.919600 2.104320 46.265300 -10.656000 7.320000
20.089900 2.122300 46.660800 -10.656000 5.650000
20.262700 1.981830 47.062100 -10.567200 6.240000
-22.957000 -1.347820 45.831200 -10.034400 11.340000
19.785900 2.318040 47.716500 -10.656000 15.780000
-23.859500 -1.359150 45.854000 -9.945600 15.390000
19.950800 2.337360 48.114100 -10.656000 10.040000
20.115700 2.356680 48.511800 -10.656000 12.960000
20.280500 2.375990 48.909400 -10.656000 16.880000
20.448200 2.230220 49.313600 -10.656000 16.190000
-5.385610 1.818750 55.727800 -11.188800 12.380000
20.493500 2.356110 52.543600 -10.744800 8.350000
20.502600 2.037870 53.478000 -10.744800 17.140000
20.656700 2.053190 53.880100 -10.744800 17.450000
20.808500 2.248290 54.275900 -10.744800 7.510000
21.278300 2.264950 54.555900 -10.744800 10.040000
20.413200 2.298260 55.803300 -10.833600 5.980000
20.561100 2.314910 56.207700 -10.833600 6.450000
-20.245200 -1.435460 56.351500 -10.567200 5.180000
-12.449100 2.890750 58.956700 -11.011200 6.880000
20.706400 2.517990 56.605000 -10.833600 6.920000
-19.952800 -1.445790 56.912400 -10.656000 8.500000
-12.538000 2.911400 59.377800 -11.011200 6.490000
-19.322800 -1.080390 57.592200 -10.656000 6.760000
20.373300 2.191090 58.111900 -10.833600 6.280000
-20.832300 -0.714620 57.985900 -10.567200 6.420000
20.457400 2.237060 59.450300 -10.833600 12.660000
20.597500 2.252380 59.857500 -10.833600 14.230000
20.737600 2.267700 60.264700 -10.833600 9.870000
-18.415900 -1.698940 61.932700 -10.744800 9.250000
-18.177900 -1.710270 62.451700 -10.833600 8.420000
-19.268800 -1.936730 63.019200 -10.744800 9.270000
-19.761100 -1.949390 63.317900 -10.744800 6.590000
21.419500 1.652330 65.511400 -10.922400 7.830000
21.557300 1.019110 65.932700 -10.922400 6.660000
21.689000 1.745280 69.495300 -11.011200 8.060000
-18.538600 1.610060 74.852800 -10.922400 8.810000
22.735300 2.197290 80.413500 -11.011200 8.380000
22.386200 2.013780 80.963500 -11.011200 5.610000
22.502600 1.762970 81.384300 -11.011200 7.520000
21.984700 2.034440 81.965800 -11.011200 9.600000
22.729300 2.242600 82.204300 -11.011200 8.630000
22.845400 2.055090 82.624300 -11.011200 11.830000
-1.010720 2.840050 87.420700 -11.277600 13.290000
-1.692770 2.854040 87.841000 -11.277600 13.170000
-55.918300 -9.479520 107.466000 -9.856800 10.060000
-55.283700 -9.513140 108.276000 -9.856800 10.080000
-55.492300 -9.169390 108.684000 -9.856800 15.140000
-62.022800 -7.392070 141.051000 -10.212000 15.630000
-61.076900 -8.726580 141.857000 -10.212000 11.650000
-50.236500 -14.203000 149.731000 -10.567200 5.400000
-50.373000 -14.241600 150.138000 -10.567200 6.400000
-6.224860 2.373710 161.450000 -11.277600 5.940000
-6.241460 2.380040 161.881000 -11.277600 4.620000
-7.196490 1.884000 162.279000 -11.277600 9.100000
-5.100340 0.895539 165.385000 -11.277600 9.310000
-5.113620 0.897872 165.815000 -11.277600 5.820000
-5.126960 0.385803 166.248000 -11.277600 4.750000
-49.595800 -13.334400 170.390000 -10.744800 7.560000
-48.398000 -13.366600 171.181000 -10.744800 7.610000
-47.522200 -13.398900 171.872000 -10.744800 6.470000
6.380500 0.091619 8.679140 -9.412800 7.130000
6.774070 0.095284 8.922950 -9.412800 13.410000
7.034610 0.098948 9.266140 -9.324000 16.370000
7.295150 0.102613 9.609330 -9.324000 15.200000
5.764750 3.065920 12.144900 -10.567200 5.590000
5.848190 3.161730 12.569900 -10.567200 8.160000
4.436920 -1.841510 13.840600 -10.922400 3.950000
6.672570 -3.422970 12.585700 -10.389600 9.790000
4.572590 -1.756770 14.263800 -10.922400 6.960000
6.868820 -3.523650 12.955900 -10.389600 8.560000
4.707750 -1.675870 14.685500 -10.922400 6.910000
5.714290 -1.675870 14.323900 -10.744800 7.070000
6.572580 -3.624330 13.575700 -10.478400 8.690000
5.873020 -1.722420 14.721700 -10.744800 7.650000
4.217100 -1.768970 15.722600 -11.011200 7.120000
3.895020 -1.660440 16.262900 -10.922400 7.120000
4.224360 -1.490710 16.643700 -11.011200 9.490000
4.462210 -1.487150 17.029300 -11.011200 9.870000
5.965110 -1.565240 17.014600 -10.922400 7.150000
-7.124010 1.732460 16.546200 -10.300800 4.090000
6.261380 -0.601588 17.428300 -10.833600 7.120000
8.513340 1.773710 16.361200 -10.300800 6.290000
-7.908790 1.773710 16.661900 -10.123200 5.930000
6.404790 -0.791367 17.827500 -10.922400 10.070000
8.728900 1.362130 16.775500 -10.300800 6.980000
-8.092710 1.814960 17.049400 -10.123200 5.410000
6.407860 -0.929171 18.277500 -10.833600 10.390000
-7.386150 2.035210 17.812800 -10.389600 6.260000
6.550250 -0.949819 18.683700 -10.833600 8.930000
-7.162690 2.080430 18.364500 -10.478400 9.600000
6.821790 -1.751580 18.988200 -10.922400 8.310000
-7.212130 2.063360 18.811800 -10.478400 11.820000
6.025070 -1.788850 19.705200 -11.011200 9.800000
-7.367880 2.043620 19.218000 -10.567200 11.480000
6.844430 -1.826120 19.890300 -10.922400 11.130000
-7.530040 1.826120 19.641000 -10.567200 8.940000
7.828750 -0.049974 20.072300 -10.833600 4.420000
-7.683710 1.863390 20.041800 -10.567200 10.070000
7.866840 -0.050974 20.519500 -10.833600 8.370000
-7.966450 1.511040 20.425300 -10.567200 9.080000
7.413150 0.000000 21.145000 -10.833600 9.690000
-8.122650 1.540660 20.825800 -10.567200 6.640000
8.298500 0.000000 21.276600 -10.744800 8.150000
-7.188960 0.000000 23.034600 -10.833600 3.930000
6.347840 1.688810 23.666700 -11.100000 6.720000
8.114490 1.641310 23.581200 -10.922400 5.820000
-8.269180 1.782810 25.795100 -10.744800 8.900000
18.336500 1.866570 19.930700 -8.702400 9.960000
18.623500 1.981280 20.242700 -8.702400 8.560000
18.089800 2.130910 21.840700 -9.057600 9.950000
-6.713640 1.628640 28.031600 -11.011200 7.100000
18.363900 2.163200 22.171700 -9.057600 6.870000
-7.196940 1.652950 28.355500 -10.922400 4.840000
18.638000 2.195490 22.502600 -9.057600 6.180000
-7.522970 1.769050 28.710200 -10.922400 10.880000
-7.630560 1.887800 29.120700 -10.922400 5.950000
18.209500 1.701560 23.985900 -9.324000 12.030000
7.347510 -1.371510 29.666800 -11.100000 7.240000
-7.739560 1.914770 29.536700 -10.922400 8.690000
18.466300 1.820330 24.324200 -9.324000 10.270000
18.726400 1.845970 24.666800 -9.324000 9.960000
7.728380 -1.604490 30.449300 -11.100000 12.550000
18.986500 1.871610 25.009400 -9.324000 6.080000
18.591400 1.861170 29.480600 -9.856800 5.920000
18.820900 1.884150 29.844600 -9.856800 5.000000
19.050500 1.907120 30.208600 -9.856800 7.450000
19.280000 1.930100 30.572500 -9.856800 6.040000
18.764800 1.976060 31.894000 -10.034400 10.340000
19.231100 1.999030 32.117600 -10.034400 5.360000
19.452200 2.022010 32.486800 -10.034400 8.260000
19.673200 2.044990 32.855900 -10.034400 6.540000
9.735940 0.720262 39.310500 -11.188800 17.000000
18.953700 1.815800 35.750300 -10.300800 5.860000
9.840010 0.601339 39.730700 -11.188800 10.420000
19.152600 1.961580 36.125400 -10.300800 5.680000
9.943580 0.607669 40.148900 -11.188800 10.960000
19.354200 1.982230 36.505700 -10.300800 7.480000
10.047200 0.613998 40.567100 -11.188800 5.970000
19.555800 2.002880 36.885900 -10.300800 14.590000
7.925820 -0.620328 41.473100 -11.188800 4.780000
9.374520 -0.626658 41.611600 -11.100000 5.450000
19.367800 2.406500 37.932800 -10.389600 13.770000
9.423900 -4.257540 41.830700 -11.188800 6.650000
19.563400 2.430800 38.316000 -10.389600 7.940000
9.518140 -4.300110 42.249100 -11.100000 6.300000
19.759000 2.455110 38.699100 -10.389600 10.370000
19.330000 1.441010 39.926200 -10.478400 4.720000
19.517600 1.455000 40.313800 -10.478400 7.420000
19.707200 1.329130 40.705300 -10.478400 17.320000
19.442500 1.211910 41.788900 -10.567200 9.880000
19.624200 1.223240 42.179500 -10.567200 8.820000
19.805900 1.234560 42.570000 -10.567200 6.250000
19.987600 1.245890 42.960600 -10.567200 11.590000
19.748800 2.014390 43.989000 -10.567200 9.100000
19.925100 2.032370 44.381800 -10.567200 8.580000
10.128900 3.074420 47.968600 -11.188800 10.420000
20.101400 2.050360 44.774500 -10.567200 4.950000
19.754100 1.777390 45.880900 -10.656000 7.500000
19.917000 2.260090 46.259100 -10.656000 9.540000
20.087200 2.279410 46.654500 -10.656000 6.830000
-22.762100 -1.493690 45.442200 -10.034400 8.980000
20.254500 2.457140 47.043100 -10.656000 12.210000
-22.955000 -1.506350 45.827300 -10.034400 6.660000
-22.882300 -1.359150 46.349400 -10.123200 11.780000
20.315000 2.659490 47.944700 -10.656000 5.510000
-22.712100 -1.370480 46.912100 -10.123200 10.900000
9.857980 2.356680 51.583400 -11.277600 15.480000
20.109700 2.681470 48.497400 -10.656000 14.760000
-4.907590 1.762790 54.042400 -11.277600 13.270000
20.398200 1.762790 50.285000 -10.744800 4.470000
20.560100 1.776780 50.684100 -10.744800 11.750000
-4.985490 1.790770 54.900200 -11.277600 5.200000
-22.956800 2.302160 50.097700 -10.212000 6.450000
20.334300 2.511210 52.135500 -10.744800 11.390000
20.490800 2.530530 52.536600 -10.744800 16.510000
20.644200 2.725570 52.930000 -10.744800 16.890000
20.082300 2.569160 53.614400 -10.833600 7.510000
20.654400 2.231640 53.873900 -10.833600 12.720000
20.808500 2.248290 54.275900 -10.833600 8.050000
-22.281500 -0.134931 53.734900 -10.389600 9.000000
20.962600 2.264950 54.678000 -10.833600 7.340000
20.419600 1.746860 55.821000 -10.833600 8.450000
20.567600 1.759520 56.225500 -10.833600 9.550000
21.114000 2.028610 58.769900 -10.922400 8.150000
20.802900 2.042600 59.337300 -10.922400 6.640000
20.945400 2.056590 59.743700 -10.922400 6.800000
21.087800 2.070580 60.150100 -10.922400 8.450000
-9.242120 1.911420 64.377800 -11.277600 8.140000
-10.176500 1.924080 64.672800 -11.277600 6.540000
-7.175970 1.924080 65.074100 -11.277600 6.330000
-19.896700 -0.774588 63.752300 -10.744800 4.510000
-17.146000 0.993791 65.434900 -10.922400 14.690000
-7.897300 2.647990 68.004900 -11.277600 5.830000
-7.552930 2.238470 68.492500 -11.277600 12.880000
21.037400 2.025340 65.624700 -11.011200 6.240000
-7.600130 2.252460 68.920500 -11.277600 14.090000
-17.583900 -2.764570 69.279300 -10.922400 6.730000
-15.803500 -2.781220 70.148400 -11.011200 6.080000
21.691800 1.294940 69.504300 -11.011200 5.900000
21.115000 2.177240 71.010000 -11.011200 10.740000
12.578800 0.864540 73.471700 -11.277600 6.250000
21.237800 2.189900 71.422800 -11.011200 6.540000
12.651500 0.869538 73.896400 -11.277600 8.800000
21.360600 2.202560 71.835700 -11.011200 8.070000
12.724600 0.641332 74.323400 -11.277600 9.950000
-13.775000 -4.980540 74.410400 -11.100000 7.820000
-13.853300 -5.008840 74.833200 -11.100000 5.360000
-17.627200 1.139380 75.523800 -11.011200 5.540000
-20.426900 0.914514 76.157500 -11.011200 7.140000
-16.976700 0.919511 77.441300 -11.011200 5.970000
22.267900 1.962150 78.760100 -11.100000 5.960000
22.385100 1.972470 79.174600 -11.100000 7.080000
22.041800 1.982800 79.717900 -11.100000 6.430000
22.153400 2.443070 80.121500 -11.100000 6.530000
22.268200 2.455730 80.536700 -11.100000 6.230000
22.375900 3.247540 80.926200 -11.100000 5.250000
21.984700 2.034440 81.965800 -11.100000 5.790000
-1.000540 3.347460 86.540400 -11.366400 11.950000
-1.005520 3.364110 86.971000 -11.366400 11.960000
-0.507907 2.582310 87.864200 -11.366400 10.320000
-0.510397 2.594970 88.294900 -11.366400 10.220000
-4.614320 2.333210 88.614700 -11.366400 10.530000
-55.687600 -9.201680 109.067000 -9.945600 7.390000
-55.883000 -9.233960 109.450000 -9.945600 6.600000
-56.103400 -8.503280 109.882000 -9.945600 5.050000
-60.982800 -4.054800 141.639000 -10.212000 12.720000
-6.225120 1.874000 161.457000 -11.366400 7.610000
-6.241720 1.879000 161.887000 -11.366400 5.850000
-5.007260 1.381610 162.366000 -11.366400 7.050000
-7.235140 0.378807 163.150000 -11.366400 6.890000
-6.358120 1.403600 164.906000 -11.366400 6.760000
-6.374720 1.407270 165.337000 -11.366400 5.590000
-6.391320 1.410930 165.767000 -11.366400 6.090000
-6.407920 1.414600 166.198000 -11.366400 6.060000
-5.140070 1.418260 166.673000 -11.366400 7.290000
-47.273200 -14.294600 170.972000 -10.833600 4.770000
-47.418500 -12.816400 171.497000 -10.833600 5.030000
6.774210 0.060636 8.923150 -9.501600 12.060000
7.034760 0.062968 9.266340 -9.501600 16.170000
7.295390 0.027986 9.609660 -9.501600 6.290000
7.555940 0.028985 9.952860 -9.501600 15.720000
-1.582790 1.237470 12.769900 2.752800 10.350000
5.550330 -0.959683 12.112200 -10.567200 4.620000
-1.635550 1.278720 13.195600 2.752800 5.480000
6.254070 -0.990641 12.248900 -10.478400 8.260000
-1.690080 -1.160700 13.635500 2.752800 5.080000
6.449510 -1.021600 12.631700 -10.389600 5.760000
-1.746830 0.725316 14.093300 2.664000 14.350000
-2.357860 0.747295 14.440300 2.664000 15.540000
-2.541450 -3.717550 14.844400 2.664000 8.320000
5.140270 -2.150660 14.937900 -10.922400 4.340000
3.778950 -2.208780 15.778300 -11.100000 4.760000
3.884630 -2.060750 16.219600 -11.100000 8.240000
4.661140 -2.060750 16.013700 -11.100000 8.240000
5.667120 -1.915060 16.164700 -11.011200 7.870000
5.808790 -1.962940 16.568800 -11.011200 5.330000
-7.428410 1.419080 15.966300 -10.300800 6.880000
5.963480 -1.621000 17.010000 -11.011200 4.740000
-7.261240 1.453690 16.513400 -10.389600 9.360000
6.707510 -1.602510 17.197500 -10.922400 11.190000
-7.693850 1.488300 16.789900 -10.389600 12.040000
6.765170 -1.522910 17.646000 -10.922400 6.760000
7.487020 -1.011010 17.389300 -10.744800 9.100000
-7.868700 1.639780 17.171500 -10.389600 6.070000
-8.726920 1.420610 16.771700 -10.123200 7.000000
-7.100220 1.639780 17.503300 -10.389600 4.590000
6.931470 -1.033980 18.079700 -10.922400 7.420000
-7.383710 2.094830 17.806900 -10.478400 8.660000
7.085510 -1.056960 18.481500 -10.833600 8.560000
-7.160310 2.141390 18.358400 -10.567200 7.940000
6.428060 -1.330030 19.159000 -11.100000 3.510000
7.239540 -1.079940 18.883300 -10.833600 9.360000
-7.318400 2.125660 18.763800 -10.567200 5.650000
6.301580 -1.294490 19.657300 -11.100000 9.070000
-7.621580 2.170890 19.104800 -10.567200 8.680000
6.443270 -0.554987 20.099300 -11.100000 8.300000
-7.231470 1.647150 19.768600 -10.656000 7.490000
7.399050 -0.566313 20.226700 -11.011200 10.800000
-8.494130 1.680770 19.728500 -10.478400 9.640000
8.136820 -0.849356 20.396300 -10.833600 8.830000
-8.690500 0.000000 20.184500 -10.478400 9.490000
-8.860770 -0.121271 20.580000 -10.478400 5.740000
6.229080 2.031220 23.223900 -11.188800 5.760000
-7.180700 1.156300 23.008200 -10.922400 5.560000
6.340310 2.067500 23.638600 -11.277600 7.830000
-7.489210 1.176950 23.362000 -10.922400 5.960000
-7.760040 1.043170 23.734000 -10.833600 5.360000
6.430190 1.669610 24.539700 -11.277600 6.910000
7.423100 1.355670 24.277400 -11.100000 7.210000
6.539180 1.697910 24.955700 -11.277600 6.740000
-7.023970 1.378640 24.843400 -11.011200 4.760000
18.457500 1.857450 18.008400 -8.436000 9.190000
7.537930 5.128920 24.653000 -11.188800 7.200000
8.716290 5.128920 24.261400 -11.011200 4.160000
18.041500 1.919370 19.610100 -8.791200 7.890000
-7.576910 1.384690 26.031100 -10.922400 5.130000
18.332500 1.950320 19.926400 -8.791200 7.180000
-7.849920 1.406670 26.399300 -11.011200 8.720000
18.623500 1.981280 20.242700 -8.791200 6.500000
-7.810740 1.839400 26.834400 -11.011200 10.500000
18.273200 1.779930 21.719200 -9.146400 8.060000
18.550000 1.806900 22.048200 -9.146400 5.990000
18.826900 1.833870 22.377300 -9.146400 8.940000
-6.920700 1.057240 28.896100 -11.100000 6.960000
-7.248180 0.886088 29.265800 -11.100000 9.100000
7.335900 -2.197980 29.619900 -11.188800 4.700000
8.440770 0.000000 29.854500 -11.188800 7.400000
-7.406020 2.389210 30.922400 -11.188800 5.010000
18.386800 2.389210 25.941700 -9.679200 10.770000
18.639500 2.321810 26.298300 -9.679200 12.780000
18.888000 2.352770 26.648900 -9.679200 10.330000
-15.931300 1.420860 30.049500 -11.988000 5.470000
-15.898000 1.438850 30.553300 -12.076800 12.590000
18.590300 1.884150 29.988800 -10.034400 15.920000
18.817100 1.907120 30.354500 -10.034400 7.220000
19.043800 1.930100 30.720200 -10.034400 8.540000
-13.746000 2.066180 33.886300 -14.030400 11.180000
-18.488500 1.796400 32.562600 -13.675200 13.200000
-16.576400 1.796400 33.576300 -13.408800 6.320000
-16.962900 1.817040 33.864800 -13.320000 14.530000
19.126000 1.858340 33.685400 -10.300800 17.700000
19.338500 1.878990 34.059700 -10.300800 5.990000
19.551100 1.899640 34.434000 -10.300800 16.410000
8.278350 0.588679 39.204900 -11.366400 10.060000
19.760500 2.044070 34.802900 -10.300800 7.180000
9.205310 0.595009 39.440200 -11.366400 5.580000
9.533500 0.601339 39.805400 -11.366400 7.830000
19.430500 1.961580 35.976700 -10.389600 5.780000
9.633850 0.607669 40.224400 -11.366400 8.390000
19.632000 2.110010 36.349800 -10.389600 7.990000
9.714240 -2.744960 40.560000 -11.277600 4.700000
6.791700 -2.642920 41.594600 -11.366400 7.040000
19.175400 2.251780 37.556000 -10.478400 6.310000
8.792530 -2.933190 41.640000 -11.366400 6.420000
19.371100 2.274760 37.939200 -10.478400 10.390000
8.881340 -2.962820 42.060600 -11.366400 14.910000
19.563400 2.430800 38.316000 -10.478400 14.660000
6.999600 -2.723830 42.867900 -11.366400 6.600000
19.460200 2.455110 38.850300 -10.478400 7.850000
7.068910 -2.750800 43.292300 -11.277600 9.420000
19.327900 1.578200 39.922000 -10.567200 9.890000
9.844800 1.316470 43.699000 -11.366400 12.450000
19.510900 1.870500 40.299900 -10.567200 8.920000
9.087560 1.329130 44.302500 -11.366400 8.230000
19.695900 2.028290 40.682000 -10.567200 14.650000
8.829130 1.341790 44.793800 -11.366400 16.090000
19.443600 1.105000 41.791300 -10.656000 10.840000
19.625300 1.115330 42.181900 -10.656000 13.360000
19.807000 1.125650 42.572500 -10.656000 6.740000
19.990100 0.989424 42.966000 -10.656000 6.410000
