VERSION .7
FIELDS x y z velocity intensity
SIZE 4 4 4 4 4
TYPE F F F F F
COUNT 1 1 1 1 1
WIDTH 875
HEIGHT 1
VIEWPOINT 0 0 0 1 0 0 0
POINTS 875
DATA ascii
6.179270 -1.077900 9.798550 -10.922400 3.010000
6.408130 -1.117820 10.161500 -10.922400 8.080000
6.555680 -1.157750 10.575200 -10.922400 9.480000
6.781740 -1.197670 10.939900 -11.011200 8.320000
7.728040 0.619447 10.344100 -10.656000 5.480000
7.081250 1.484170 11.228800 -11.011200 5.560000
7.907110 -0.474991 10.755700 -10.656000 6.080000
-8.031860 1.820430 13.651500 -10.922400 3.860000
-8.294900 0.734047 14.098600 -10.922400 4.660000
-7.126100 1.676740 16.551100 -11.544000 4.910000
-1.175060 1.159650 18.455000 1.864800 5.730000
-6.836060 1.716660 17.135800 -11.721600 5.730000
-1.456980 1.186620 18.866300 1.864800 3.880000
-1.378790 1.153730 19.307000 1.864800 7.400000
-6.791880 1.424050 18.566900 -11.899200 4.280000
-7.231120 1.455000 18.861300 -11.810400 3.660000
-6.413830 1.358330 19.616600 -11.988000 5.110000
-7.651710 1.166790 19.180300 -11.721600 5.460000
-6.547450 1.386630 20.025300 -12.076800 5.120000
-7.811120 1.191090 19.579900 -11.721600 7.020000
8.404660 0.316494 19.835500 -11.988000 5.990000
8.416560 0.322824 20.297700 -11.988000 14.230000
8.581160 0.398443 20.694700 -11.988000 17.280000
8.746180 0.406105 21.092700 -11.988000 16.070000
8.746560 0.125935 21.561800 -11.988000 10.040000
8.312940 0.128267 22.193300 -12.076800 8.410000
8.872850 -2.122740 21.873100 -0.266400 6.420000
8.283600 -0.932626 22.644800 -12.254400 8.620000
9.202950 -2.235650 22.194200 -0.710400 7.490000
7.491290 -1.025180 23.368500 -12.343200 10.890000
9.386790 -2.140040 23.529600 -0.799200 8.800000
7.673600 -2.236060 24.587500 -1.065600 9.190000
9.068780 -0.059969 24.211200 -12.165600 10.580000
6.466150 0.223550 25.476200 -12.343200 8.570000
9.409360 0.060969 24.542900 -12.165600 9.670000
8.497610 0.227215 25.327300 -12.254400 8.720000
8.731760 -2.639940 26.025200 -12.254400 5.790000
8.664210 -2.681190 26.499400 -12.343200 5.300000
9.030140 1.692140 26.914500 -12.343200 5.870000
18.722400 1.424730 23.053000 -10.300800 4.880000
18.812900 1.445380 23.532800 -10.300800 4.550000
8.922490 2.197980 29.181200 -12.432000 7.780000
9.048160 2.228940 29.592200 -12.432000 7.990000
7.545760 2.065790 30.467300 -12.432000 4.430000
-14.695000 1.798790 28.241400 -13.142400 4.830000
7.649130 2.094090 30.884600 -12.432000 8.430000
-15.111100 1.922880 28.502300 -13.142400 7.660000
7.752490 2.122390 31.302000 -12.432000 7.030000
18.703800 1.746280 26.824900 -10.833600 9.770000
-15.312500 1.948520 28.882300 -13.142400 6.510000
18.949900 1.769260 27.177800 -10.833600 8.790000
-14.424000 2.281370 29.792800 -13.408800 8.870000
19.192800 1.896030 27.526100 -10.833600 9.150000
-14.846500 2.207290 30.072500 -13.320000 5.940000
9.137340 1.299010 32.318200 -12.432000 13.260000
19.438800 1.920330 27.879000 -10.833600 8.000000
-15.212700 2.235580 30.370600 -13.320000 13.060000
9.065120 1.315670 32.785500 -12.432000 6.900000
9.626820 1.332320 33.073700 -12.432000 7.240000
-25.183000 1.780320 24.101100 -8.702400 5.620000
-25.493900 1.802300 24.398600 -8.702400 5.310000
-6.632520 0.000000 34.705700 -12.520800 8.870000
19.254200 1.976060 31.601000 -11.188800 8.760000
-5.251190 2.776650 36.578200 -12.609600 11.200000
19.723900 1.999030 31.817400 -11.188800 7.180000
19.206500 1.817040 32.644700 -11.277600 9.490000
-10.793600 1.934170 36.299100 -12.254400 8.290000
19.421800 1.956150 33.010600 -11.277600 13.900000
-10.420100 1.956150 36.855400 -12.343200 5.600000
19.643000 1.858340 33.386600 -11.277600 8.650000
19.600500 1.878990 33.909600 -11.366400 10.730000
19.285100 1.899640 34.583600 -11.455200 8.090000
-5.447570 3.218890 39.571000 -12.698400 9.030000
19.497500 1.796480 34.964600 -11.455200 12.450000
-5.522090 1.064670 40.112300 -12.609600 7.610000
19.707100 1.815800 35.340500 -11.455200 12.540000
10.068400 0.854503 39.668800 -12.520800 5.460000
-20.458800 -1.798560 37.880700 -11.100000 8.590000
-10.345500 2.197930 41.771800 -12.343200 4.980000
-10.449000 2.219910 42.189600 -12.343200 9.230000
-21.994700 -0.237878 38.051800 -10.922400 7.960000
-9.072550 1.834530 42.966100 -12.432000 7.360000
-9.160260 1.989650 43.381500 -12.432000 7.890000
-20.685300 -0.103947 39.753800 -11.188800 7.300000
19.818300 2.008970 40.143000 -11.721600 10.220000
-20.884200 -0.104946 40.136000 -11.188800 7.260000
9.332650 -2.552340 44.197900 -12.520800 6.140000
20.008800 2.028290 40.529000 -11.721600 10.110000
9.421530 -2.576650 44.618800 -12.520800 9.660000
20.199400 2.047600 40.915000 -11.721600 7.540000
11.068400 -2.458580 44.690500 -12.520800 7.770000
19.756000 1.781980 41.621100 -11.810400 14.820000
10.815900 3.056240 45.159600 -12.520800 8.280000
19.940700 1.798640 42.010100 -11.810400 8.790000
10.918200 2.939580 45.586800 -12.520800 16.220000
-21.609300 -1.007410 43.140800 -11.277600 7.760000
-21.802300 -1.016410 43.526000 -11.277600 12.250000
10.791400 1.443060 47.900900 -12.609600 5.800000
10.889100 0.881171 48.334300 -12.609600 5.930000
10.983700 0.888834 48.754600 -12.609600 8.670000
20.100500 1.336500 46.685300 -11.988000 8.890000
-17.236900 -2.015140 49.166000 -11.988000 8.920000
-14.711700 -3.208660 54.849500 -12.165600 9.010000
-14.472100 -4.956600 55.230400 -12.254400 9.830000
-14.583800 -4.860430 55.656700 -12.254400 8.200000
-18.921500 1.529040 54.986900 -11.988000 5.490000
-19.061700 1.540370 55.394200 -11.988000 5.340000
-19.202900 1.414810 55.804800 -11.988000 6.060000
-19.343100 1.425140 56.212100 -11.899200 7.630000
21.169900 0.754599 61.521000 -12.254400 7.270000
21.450300 0.764593 62.335900 -12.254400 6.460000
21.590500 0.769591 62.743300 -12.254400 7.840000
-16.153100 -1.974710 65.220900 -12.343200 11.240000
-16.249500 -2.823740 65.610100 -12.343200 5.830000
21.692900 -1.069750 69.507800 -12.343200 6.520000
21.821300 -1.076080 69.919100 -12.343200 6.690000
16.352200 3.147840 95.511700 -12.698400 7.620000
-17.094200 7.058320 96.488800 -12.520800 7.950000
18.684000 0.538723 97.767100 -12.698400 8.980000
18.764900 0.541055 98.190400 -12.698400 9.150000
18.844000 1.474860 98.604400 -12.698400 6.450000
19.744800 2.131760 100.174000 -12.698400 5.690000
-16.899400 7.553640 103.497000 -12.520800 5.440000
-16.968600 7.584590 103.921000 -12.520800 5.700000
28.898500 1.766040 116.683000 -12.520800 5.120000
29.003300 1.399260 117.106000 -12.520800 6.250000
29.785700 1.404250 117.354000 -12.520800 6.430000
19.620800 2.635470 124.692000 -12.698400 7.710000
19.687700 2.644460 125.117000 -12.698400 8.460000
20.483800 1.081100 125.450000 -12.698400 8.240000
-62.414800 -13.199700 122.243000 -11.188800 9.010000
-62.590900 -13.666700 122.588000 -11.188800 6.850000
-61.836300 -13.709300 123.450000 -11.100000 5.940000
-8.214610 1.649120 141.950000 -12.787200 5.630000
-9.062390 1.654120 142.330000 -12.787200 6.890000
-9.089770 1.659120 142.760000 -12.787200 4.980000
-8.438910 1.242350 145.826000 -12.787200 9.520000
-8.463540 1.699100 146.251000 -12.787200 4.950000
-8.488430 1.704090 146.682000 -12.787200 4.590000
26.315700 1.893990 161.166000 -12.698400 6.760000
26.385100 1.898990 161.591000 -12.698400 5.280000
26.454500 1.903990 162.016000 -12.698400 7.250000
19.821700 3.984680 189.815000 -12.787200 6.290000
19.866500 3.993680 190.243000 -12.787200 4.880000
19.911200 4.002670 190.672000 -12.787200 5.410000
6.149500 1.545590 6.455800 -9.324000 9.750000
6.376870 1.619190 6.824980 -9.412800 8.700000
6.344080 1.692790 7.423550 -9.679200 8.970000
8.295430 1.085440 6.079170 -7.636800 4.720000
7.060320 -0.023988 7.556450 -9.235200 7.960000
8.504930 1.130670 6.514180 -7.814400 5.910000
7.318540 1.064380 7.832810 -9.412800 4.230000
7.053130 -1.277510 11.779300 -10.833600 11.410000
7.273540 -1.317440 12.147400 -10.833600 9.490000
7.300140 -1.357360 12.629600 -10.833600 7.520000
7.423760 1.176540 13.075000 -11.011200 6.210000
-8.264510 1.378910 13.564100 -10.478400 7.010000
7.431120 1.114470 13.571000 -11.011200 4.030000
7.411460 1.453440 15.012300 -11.366400 3.770000
-7.075450 1.445460 17.063500 -11.366400 5.840000
16.835000 1.330030 11.179000 -6.393600 8.320000
7.604590 1.595960 17.294200 -11.544000 4.840000
-7.240000 1.479070 17.460300 -11.366400 4.250000
17.193200 1.358330 11.416900 -6.304800 5.670000
17.547700 1.451780 11.652300 -6.304800 8.360000
17.901900 1.547880 11.887500 -7.104000 6.880000
18.259900 1.578830 12.125300 -7.104000 7.280000
18.473800 1.609790 12.577400 -7.281600 7.130000
18.829100 1.640750 12.819300 -7.281600 10.290000
18.091400 1.499820 13.856800 -7.903200 4.760000
-7.141280 1.120940 20.753000 -11.632800 5.590000
18.432800 1.528120 14.118200 -7.903200 9.210000
-6.831220 1.142920 21.309500 -11.810400 6.890000
18.774100 1.556420 14.379700 -7.814400 9.840000
8.582240 0.547335 21.156700 -11.721600 6.000000
18.200400 1.007190 15.811600 -8.436000 5.790000
8.746100 0.269856 21.560600 -11.721600 9.500000
18.361600 1.252820 16.264700 -8.524800 6.770000
8.908060 0.274854 21.959900 -11.721600 15.910000
18.683800 1.274800 16.550000 -8.524800 10.090000
8.940910 0.205226 22.411900 -11.721600 17.240000
18.485500 1.950320 19.784500 -9.412800 10.240000
18.778900 1.981280 20.098500 -9.412800 12.070000
8.555440 1.562460 27.980800 -11.988000 10.900000
8.681250 1.585440 28.392300 -11.988000 4.950000
18.684300 0.449422 24.221500 -10.034400 8.700000
8.588390 1.352190 28.882800 -11.988000 5.730000
18.946500 0.551690 24.561400 -10.034400 12.830000
8.936610 1.371510 29.227400 -11.988000 6.920000
19.209700 0.559352 24.902500 -10.034400 12.430000
9.055530 1.845970 29.616300 -11.988000 10.820000
18.865300 1.527970 25.661700 -10.300800 7.590000
9.354720 1.871610 29.974100 -11.988000 11.600000
19.123000 1.448780 26.012200 -10.300800 6.610000
18.917900 1.468090 26.691100 -10.300800 13.860000
19.166900 1.487410 27.042300 -10.300800 15.610000
19.239700 1.315670 28.051800 -10.567200 6.640000
19.480800 1.438850 28.403300 -10.567200 10.790000
19.724300 1.456830 28.758300 -10.567200 12.870000
-6.666390 0.538040 36.010700 -12.165600 7.020000
19.027100 1.203180 31.776900 -10.922400 8.960000
-6.463800 0.544370 36.485300 -12.165600 7.350000
19.246300 1.333040 32.143000 -10.922400 9.980000
19.467600 1.348360 32.512500 -10.922400 10.820000
19.688800 1.363680 32.881900 -10.922400 14.050000
19.434200 1.815800 35.491400 -11.188800 8.870000
19.643600 1.708630 35.873800 -11.188800 13.070000
19.850300 1.726620 36.251400 -11.188800 8.070000
-9.745840 1.852520 43.259800 -12.076800 8.710000
-10.176800 1.870500 43.602700 -12.076800 9.420000
-10.529000 1.888490 43.961800 -12.076800 9.110000
-9.168840 2.047600 44.698800 -12.165600 7.030000
9.949390 -2.625270 45.385300 -12.165600 9.600000
10.043200 -2.504540 45.813400 -12.165600 11.280000
-20.331500 -2.461680 43.699800 -11.100000 6.200000
19.940700 1.187610 45.348700 -11.544000 6.870000
20.115500 1.043390 45.746200 -11.544000 5.120000
20.297700 0.942470 48.950900 -11.721600 10.660000
20.462800 0.950133 49.348800 -11.632800 7.020000
20.627800 0.957795 49.746800 -11.632800 7.460000
20.405700 0.965457 50.303600 -11.632800 7.400000
20.654900 2.022540 52.957400 -11.721600 6.440000
20.811400 2.037870 53.358600 -11.721600 8.530000
-12.675500 -2.766860 56.264100 -11.988000 9.160000
20.970000 1.874720 53.765400 -11.721600 7.200000
-12.770100 -2.787510 56.684000 -11.988000 7.900000
20.547100 1.721540 54.855200 -11.721600 9.980000
20.699900 1.551700 55.263300 -11.810400 6.200000
-18.772300 1.414810 55.951100 -11.721600 11.320000
-18.909300 1.425140 56.359600 -11.721600 8.510000
-19.046300 1.435460 56.768000 -11.721600 8.160000
-19.183300 1.445790 57.176400 -11.721600 8.900000
-28.722300 1.376200 59.326200 -11.100000 6.870000
-28.910100 1.385190 59.713900 -11.100000 7.220000
-29.097800 1.394190 60.101700 -11.100000 6.840000
-29.285500 1.403180 60.489400 -11.100000 6.950000
22.238600 0.571702 63.432600 -11.988000 7.430000
22.380500 0.784583 63.837300 -11.810400 12.440000
21.656000 0.000000 64.546100 -11.988000 6.770000
17.058400 2.344250 96.286800 -12.254400 6.800000
17.133500 2.354580 96.711000 -12.254400 6.110000
-17.326500 6.536960 97.800100 -12.165600 7.530000
-17.401500 6.565260 98.223500 -12.165600 7.050000
-17.476500 6.593560 98.646800 -12.165600 7.720000
-16.508300 6.989740 104.912000 -12.165600 7.840000
-16.575100 7.018030 105.336000 -12.165600 8.560000
-16.641900 7.046330 105.761000 -12.165600 5.450000
29.787300 0.655330 117.360000 -12.165600 6.750000
29.211400 1.033460 117.946000 -12.165600 4.980000
29.315000 1.037130 118.364000 -12.165600 7.560000
29.418500 1.040790 118.782000 -12.165600 7.720000
19.756900 1.867310 125.557000 -12.343200 7.890000
19.822900 2.268060 125.976000 -12.343200 4.660000
19.888600 2.671450 126.394000 -12.343200 8.090000
18.977600 2.680440 126.970000 -12.343200 11.310000
-62.804900 -13.282200 123.007000 -10.833600 7.340000
-63.036200 -12.466200 123.460000 -10.833600 5.540000
-62.275000 -12.504800 124.326000 -10.833600 4.480000
-10.128900 0.769604 141.834000 -12.343200 5.840000
-9.062870 0.771936 142.338000 -12.343200 5.590000
-9.090250 0.774269 142.768000 -12.343200 6.180000
-7.460850 2.107850 143.280000 -12.343200 10.150000
-9.144160 2.114180 143.614000 -12.343200 9.910000
-9.171540 2.120510 144.044000 -12.343200 4.860000
-7.640890 0.340826 146.738000 -12.343200 6.660000
-7.663210 0.797590 147.166000 -12.343200 8.920000
-7.685610 0.799922 147.597000 -12.343200 8.200000
-7.708110 0.343825 148.029000 -12.343200 6.240000
5.831830 -0.279808 6.338870 -9.235200 5.450000
6.123430 -0.293799 6.655820 -9.324000 6.910000
6.149990 -0.505503 7.196440 -9.679200 9.110000
6.467150 -0.366389 6.921590 -9.235200 5.720000
6.429530 -0.528480 7.523550 -9.679200 8.830000
6.708690 -0.206880 7.291960 -9.324000 5.670000
6.648370 -0.551457 7.902130 -9.768000 4.160000
6.926740 -0.215874 7.676090 -9.412800 5.640000
8.624920 2.975920 5.727260 -7.814400 3.840000
7.260140 1.031230 7.891370 -9.412800 3.760000
6.398770 -1.003740 10.686500 -10.833600 6.690000
6.527000 -1.197670 11.093700 -10.922400 9.250000
7.106610 1.312240 12.744200 -11.100000 5.110000
7.716540 1.350830 12.887300 -10.833600 5.470000
-8.269870 1.466620 14.056100 -10.656000 3.850000
-8.068430 0.612892 15.218600 -10.922400 8.150000
-8.149660 0.628214 15.662300 -10.922400 7.170000
-7.368870 1.955180 16.413600 -11.277600 4.670000
-7.284400 2.001730 16.918700 -11.366400 7.170000
-7.467550 1.698190 17.344100 -11.366400 5.710000
-7.658100 0.989067 17.786700 -11.366400 9.360000
-7.826000 1.118170 18.176700 -11.366400 10.050000
-8.139040 1.142480 18.509600 -11.277600 6.090000
-7.278170 0.899280 20.258500 -11.632800 6.100000
18.104800 1.217800 13.867000 -7.903200 4.760000
18.448600 1.186880 14.130400 -7.903200 5.650000
8.422430 0.190567 20.762700 -11.810400 5.280000
8.461930 0.194232 21.211300 -11.721600 7.090000
18.338700 1.361250 15.624200 -8.436000 5.950000
8.621590 0.197897 21.611500 -11.721600 12.050000
18.666100 1.385560 15.903200 -8.436000 7.380000
8.908340 0.201562 21.960600 -11.721600 17.560000
18.836800 1.409870 16.364500 -8.524800 11.290000
9.070500 0.130599 22.360300 -11.721600 17.640000
19.161600 1.434170 16.646600 -8.524800 12.590000
8.912010 -0.904015 23.792700 -11.810400 10.000000
6.903160 -1.919370 25.737100 -12.165600 7.200000
18.644300 0.886088 23.694100 -10.123200 4.710000
18.678300 0.898746 24.213600 -10.212000 5.400000
8.027920 1.538550 29.034300 -12.076800 6.330000
18.941400 0.911405 24.554700 -10.212000 9.560000
8.933960 1.560530 29.218800 -12.076800 6.090000
19.443400 0.924063 24.709600 -10.123200 8.890000
5.991920 1.582510 30.399500 -12.254400 8.310000
18.619800 1.429460 25.846000 -10.389600 4.870000
6.075140 1.604490 30.821700 -12.254400 9.250000
18.871500 1.448780 26.195200 -10.389600 7.910000
8.669750 1.133850 30.664400 -12.165600 8.930000
19.123100 1.468090 26.544500 -10.389600 14.000000
8.752090 -3.093680 30.955600 -12.165600 10.730000
19.166900 1.487410 27.042300 -10.478400 15.210000
8.687310 -3.134930 31.419100 -12.165600 11.540000
18.991200 1.506730 27.689500 -10.567200 12.000000
8.558520 -3.074020 31.908700 -12.165600 10.810000
19.018000 1.526040 28.191900 -10.656000 5.770000
6.091740 -3.113940 32.906500 -12.165600 8.470000
19.258700 1.545360 28.548800 -10.656000 12.370000
19.499400 1.564680 28.905600 -10.656000 5.750000
19.060900 1.474820 29.715000 -10.744800 11.010000
19.293400 1.492810 30.077400 -10.744800 6.110000
19.520400 1.734450 30.431400 -10.744800 6.000000
19.752800 1.755100 30.793600 -10.744800 9.190000
19.744400 1.775750 31.309000 -10.833600 6.900000
-5.537500 1.448900 37.048700 -12.254400 7.980000
-5.601150 1.465550 37.474600 -12.254400 4.990000
19.133700 1.498860 33.699000 -11.100000 7.410000
19.346300 1.515520 34.073400 -11.100000 7.740000
19.558900 1.532170 34.447800 -11.100000 7.860000
19.769100 1.672660 34.817900 -11.100000 11.940000
19.439200 1.565480 35.500600 -11.188800 15.410000
19.646000 1.582130 35.878200 -11.188800 14.340000
19.642900 1.598790 36.370000 -11.277600 12.010000
-22.128600 -1.132630 36.956600 -10.567200 13.520000
-23.590600 -3.736000 37.407900 -10.478400 6.730000
-9.743140 2.126770 43.247800 -12.076800 5.940000
-9.837730 2.147420 43.667700 -12.076800 7.150000
-9.083560 1.888490 44.283000 -12.165600 6.120000
-9.170070 1.906470 44.704800 -12.165600 11.060000
19.890900 1.624160 41.084800 -11.455200 10.430000
10.217600 -2.086240 45.353700 -12.254400 10.590000
12.500600 -2.395740 45.210600 -12.254400 11.980000
11.020400 -2.820230 46.013700 -12.343200 9.080000
-19.230500 -2.291950 43.733700 -11.277600 13.980000
20.087200 2.014390 43.835500 -11.544000 14.060000
-19.403800 -2.312600 44.127700 -11.277600 8.650000
-19.919600 -2.333250 44.369400 -11.277600 9.600000
-6.976830 -1.594910 48.598500 -12.343200 7.310000
-20.606700 -2.948420 44.969100 -11.188800 6.630000
19.942100 1.034400 45.351900 -11.632800 5.840000
-20.785900 -2.974060 45.360100 -11.188800 8.140000
20.116700 0.888834 45.749000 -11.632800 7.290000
20.169000 1.079370 47.600100 -11.632800 6.110000
20.337000 1.088370 47.996700 -11.632800 6.040000
20.296500 1.106360 48.947900 -11.721600 12.680000
20.461500 1.115350 49.345900 -11.721600 9.280000
20.625100 1.290890 49.740400 -11.721600 6.020000
13.155800 -0.296181 53.118600 -12.254400 14.550000
-17.401000 -1.438430 51.864100 -11.721600 13.130000
13.259300 -0.298513 53.536900 -12.165600 9.160000
20.428300 1.620270 51.207000 -11.721600 7.840000
11.483300 -0.644657 54.383200 -12.254400 8.140000
20.585900 1.804760 51.602100 -11.721600 6.240000
11.255400 -0.649655 54.870700 -12.343200 8.430000
20.198300 1.658250 52.684400 -11.810400 9.030000
20.659000 1.670910 52.968000 -11.810400 7.720000
20.815500 1.683570 53.369300 -11.810400 6.640000
20.973900 1.517720 53.775200 -11.810400 7.060000
-19.202900 1.414810 55.804800 -11.721600 8.070000
-19.343100 1.425140 56.212100 -11.721600 6.350000
-19.484600 1.250270 56.623400 -11.721600 7.040000
-19.186800 0.886183 57.186600 -11.721600 16.000000
-28.716200 1.936730 59.313500 -11.100000 11.470000
-28.906400 1.744240 59.706300 -11.100000 9.860000
-16.820200 0.000000 64.191500 -11.988000 8.660000
-29.095800 1.600700 60.097500 -11.100000 7.850000
-29.283500 1.611030 60.485200 -11.100000 6.330000
12.244700 2.497530 69.116000 -12.343200 6.540000
-6.795390 1.857510 70.315600 -12.432000 7.370000
17.055900 2.873460 96.272900 -12.343200 7.410000
17.132500 2.582390 96.705400 -12.343200 8.920000
16.645900 2.593710 97.227400 -12.343200 7.350000
-18.005000 6.202780 97.260200 -12.165600 7.660000
-18.079700 6.536960 97.663600 -12.165600 8.950000
-18.158000 6.565260 98.086400 -12.165600 7.180000
-18.236300 6.593560 98.509200 -12.165600 5.520000
-16.511600 6.661250 104.933000 -12.254400 5.260000
-16.575100 7.018030 105.336000 -12.254400 5.750000
29.785700 1.404250 117.354000 -12.254400 4.710000
29.891700 1.409250 117.771000 -12.254400 6.180000
29.999300 0.659994 118.195000 -12.254400 6.940000
18.852300 1.873640 126.132000 -12.343200 4.710000
18.916700 1.484210 126.563000 -12.343200 7.400000
18.981000 1.092100 126.993000 -12.343200 5.880000
-62.858200 -12.000200 123.111000 -10.922400 9.010000
-62.980900 -13.751800 123.351000 -10.922400 7.520000
-8.239940 0.771936 142.388000 -12.432000 7.180000
-8.264830 0.774269 142.818000 -12.432000 9.420000
-8.289730 0.776601 143.248000 -12.432000 7.250000
-8.311870 3.782970 143.631000 -12.432000 7.250000
-8.337820 3.013250 144.079000 -12.432000 10.170000
-7.640400 1.704090 146.728000 -12.432000 10.670000
-7.663210 0.797590 147.166000 -12.432000 8.310000
-7.685610 0.799922 147.597000 -12.432000 5.220000
-7.708020 0.802254 148.027000 -12.432000 6.970000
19.953400 5.051510 191.076000 -12.432000 5.280000
19.998200 5.062840 191.504000 -12.432000 9.370000
20.042900 5.074160 191.933000 -12.432000 8.420000
5.875250 -0.459548 6.288100 -9.324000 1.290000
5.765320 -0.459548 6.389040 -9.324000 1.640000
6.766060 -0.053639 7.241510 -9.412800 4.370000
7.001790 -0.055971 7.610550 -9.501600 5.710000
7.183780 1.031230 7.960940 -9.501600 4.150000
-8.241870 1.476930 7.443550 -8.347200 4.040000
-8.696560 0.620389 7.703370 -8.169600 3.530000
7.233500 1.077900 9.048290 -9.945600 5.030000
7.011160 1.303450 9.732090 -10.389600 3.800000
7.501410 1.117820 9.383410 -9.945600 4.220000
7.183660 1.350000 10.135300 -10.389600 3.700000
6.699120 -1.157860 10.994900 -10.833600 7.300000
6.746470 -1.196450 11.466800 -10.922400 8.690000
7.571010 1.606190 11.411900 -10.833600 6.390000
7.533430 1.656390 11.945900 -10.833600 6.750000
-8.064350 0.647482 13.235600 -10.478400 9.520000
7.418050 1.416170 14.528600 -11.277600 5.050000
7.613260 1.453440 14.911000 -11.277600 5.200000
-7.103900 1.522910 17.512300 -11.455200 6.060000
-7.866550 1.698190 17.166800 -11.188800 6.620000
-7.250560 1.069550 17.485800 -11.544000 7.410000
-7.439020 1.118170 18.338400 -11.455200 6.380000
7.717960 1.240560 18.214900 -11.721600 9.100000
-7.197910 0.704826 18.454800 -11.544000 5.690000
-6.839720 1.348430 20.386000 -11.721600 4.740000
18.079600 1.711190 13.847700 -7.992000 9.290000
-6.976520 1.375400 20.793700 -11.721600 6.640000
18.420700 1.743480 14.109000 -7.992000 9.520000
8.582200 0.190567 20.697200 -11.721600 10.090000
18.761900 1.775760 14.370300 -7.992000 6.670000
8.461930 0.194232 21.211300 -11.810400 9.380000
18.180600 1.510240 15.794300 -8.524800 14.790000
8.621590 0.197897 21.611500 -11.810400 6.260000
18.505200 1.537210 16.076400 -8.524800 17.590000
8.781250 0.201562 22.011700 -11.810400 11.270000
18.671400 1.564180 16.539100 -8.613600 15.770000
8.129710 -2.031220 22.628700 -11.810400 5.520000
8.284700 -1.688810 23.060100 -11.899200 6.860000
8.430050 -1.718430 23.464700 -11.899200 6.370000
8.269880 -0.609298 24.032700 -11.988000 9.270000
6.998260 -2.682250 26.091600 -12.165600 6.280000
18.565100 1.383430 22.066200 -9.856800 5.210000
18.842200 1.404080 22.395500 -9.856800 7.110000
18.614300 1.626470 25.838300 -10.389600 8.380000
18.868800 1.548620 26.191500 -10.389600 7.870000
7.834250 1.626470 30.866400 -12.254400 8.730000
18.917900 1.468090 26.691100 -10.478400 8.130000
7.741690 -2.720390 31.258400 -12.165600 9.940000
19.166900 1.487410 27.042300 -10.478400 5.920000
7.841210 -2.933230 31.660200 -12.254400 15.680000
18.779800 1.402880 27.838800 -10.656000 8.420000
8.129670 -2.971830 32.030300 -12.254400 9.490000
19.018000 1.526040 28.191900 -10.656000 12.870000
19.258700 1.545360 28.548800 -10.656000 7.200000
19.502100 1.456830 28.909500 -10.656000 5.640000
19.293400 1.492810 30.077400 -10.833600 9.480000
19.525800 1.510790 30.439800 -10.833600 7.510000
19.758300 1.528780 30.802200 -10.833600 4.740000
19.239200 1.680580 32.131000 -10.922400 11.270000
19.460300 1.699900 32.500300 -10.922400 9.400000
-5.537500 1.448900 37.048700 -12.254400 9.330000
19.427500 1.719210 33.020400 -11.011200 8.150000
19.087300 1.273130 34.229000 -11.188800 11.870000
19.563200 1.287120 34.455400 -11.188800 7.030000
19.775900 1.301110 34.829900 -11.188800 11.680000
19.440500 1.455620 35.995300 -11.277600 8.610000
19.642900 1.598790 36.370000 -11.277600 6.190000
19.847500 1.615440 36.748900 -11.277600 12.700000
-21.962600 -1.240520 36.046200 -10.567200 4.830000
-22.182300 -1.516910 36.406700 -10.567200 15.000000
-21.718200 -3.260950 37.573300 -10.656000 11.430000
-21.085100 -2.106120 38.506400 -10.833600 13.270000
-9.647070 2.241880 42.821400 -12.165600 6.760000
-21.769200 -3.219580 39.038400 -10.744800 6.520000
-9.741650 2.263860 43.241200 -12.165600 5.810000
-9.247870 2.147420 43.796400 -12.165600 9.190000
-9.081040 2.168060 44.270700 -12.165600 8.450000
19.893000 1.482980 41.089100 -11.455200 8.450000
-9.174900 1.200580 44.728300 -12.165600 6.990000
20.078500 1.639490 41.472300 -11.455200 12.500000
9.251470 -2.458580 45.101600 -12.343200 6.320000
20.266200 1.654810 41.859900 -11.455200 13.700000
9.329110 -3.199840 45.480100 -12.343200 12.890000
-11.161300 -3.199840 45.065500 -12.165600 9.670000
20.453800 1.670130 42.247500 -11.455200 9.070000
11.539600 -2.395740 45.465400 -12.343200 5.500000
19.559500 1.234560 42.683800 -11.632800 15.190000
19.738900 1.245890 43.075400 -11.632800 10.710000
-21.392100 -1.746740 44.185500 -11.100000 10.430000
-21.224600 -2.374550 44.715000 -11.188800 6.730000
19.770800 0.721606 44.962500 -11.721600 14.370000
-18.974000 -1.302520 45.758500 -11.455200 8.480000
-21.409100 -2.395200 45.103800 -11.188800 8.490000
19.944300 0.727936 45.356900 -11.721600 9.630000
10.699700 1.313850 48.808100 -12.343200 7.480000
20.115500 1.043390 45.746200 -11.721600 10.490000
10.792000 1.325170 49.228900 -12.343200 7.120000
-20.822600 -0.746926 46.381000 -11.366400 9.050000
19.831400 1.218600 46.803500 -11.721600 9.430000
19.999500 1.228920 47.200100 -11.721600 8.620000
20.167600 1.239250 47.596800 -11.721600 7.820000
-18.783700 1.239250 48.159700 -11.544000 9.930000
20.334400 1.370480 47.990600 -11.721600 8.310000
19.917300 1.270230 49.099500 -11.810400 11.580000
20.079200 1.280560 49.498700 -11.810400 7.320000
20.625100 1.290890 49.740400 -11.810400 7.660000
20.266700 1.776780 50.802100 -11.810400 8.370000
20.426300 1.790770 51.202100 -11.810400 10.390000
20.581400 2.148370 51.590800 -11.810400 8.680000
20.555900 -0.135931 54.878800 -11.899200 8.810000
-19.201800 1.551700 55.801600 -11.810400 10.030000
-19.342000 1.563020 56.208900 -11.810400 6.930000
-19.483300 1.435460 56.619500 -11.810400 6.640000
-19.187600 0.699628 57.188900 -11.810400 4.620000
20.870300 0.892513 57.052900 -11.988000 6.550000
-18.880100 0.704625 57.744700 -11.810400 8.450000
-29.134000 1.358210 58.163000 -11.100000 17.720000
-29.326900 1.367200 58.548200 -11.100000 15.270000
-28.445300 1.744240 59.927300 -11.188800 9.400000
-28.630000 1.755570 60.316500 -11.188800 5.170000
-29.281800 1.766900 60.481700 -11.188800 6.150000
15.530400 0.000000 83.892800 -12.432000 7.020000
16.096000 0.000000 84.224900 -12.343200 6.420000
16.176900 0.000000 84.648100 -12.343200 5.430000
16.501500 2.344250 96.383800 -12.432000 6.770000
16.574200 2.354580 96.808400 -12.432000 6.900000
-17.919500 6.784850 96.797900 -12.254400 5.960000
-17.997700 6.814480 97.220600 -12.254400 5.560000
-18.076000 6.844110 97.643300 -12.254400 6.460000
-18.154200 6.873730 98.066000 -12.254400 10.010000
18.746100 0.557380 101.263000 -12.432000 6.060000
18.824500 0.559712 101.687000 -12.432000 7.040000
18.900200 1.846630 102.096000 -12.432000 6.820000
29.787300 0.655330 117.360000 -12.254400 6.930000
29.893300 0.657662 117.778000 -12.254400 8.460000
29.315600 0.659994 118.367000 -12.254400 5.940000
18.852300 1.873640 126.132000 -12.432000 7.580000
19.890800 1.879970 126.408000 -12.432000 8.840000
-62.961200 -14.180100 123.313000 -10.922400 8.970000
-63.135900 -14.653500 123.655000 -10.922400 7.070000
-8.240060 0.000000 142.390000 -12.432000 5.910000
-8.264950 0.000000 142.820000 -12.432000 7.160000
-8.289290 1.664120 143.240000 -12.432000 6.630000
-8.314180 1.669110 143.671000 -12.432000 6.040000
-8.339080 1.674110 144.101000 -12.432000 7.350000
-7.640800 0.795258 146.736000 -12.432000 8.380000
-7.663210 0.797590 147.166000 -12.432000 4.660000
-7.685610 0.799922 147.597000 -12.432000 7.430000
-7.707850 1.260680 148.024000 -12.520800 7.470000
26.456200 0.380806 162.027000 -12.432000 6.610000
25.586200 0.381805 162.603000 -12.432000 8.180000
25.652900 0.893207 163.026000 -12.432000 7.020000
19.958200 2.823130 191.121000 -12.520800 7.690000
20.001900 3.425070 191.540000 -12.520800 7.680000
5.692350 -0.594269 7.009030 -9.945600 1.990000
5.759610 -0.594269 6.953870 -9.768000 1.320000
5.963420 -0.622568 7.342800 -9.945600 3.650000
6.370270 -0.559085 7.571590 -9.768000 3.050000
7.246380 1.570700 10.058600 -10.389600 5.220000
6.764670 -1.505810 10.912300 -10.922400 7.370000
7.097820 -1.505810 10.698600 -10.656000 6.720000
-7.590060 1.704150 10.324400 -9.945600 6.970000
6.990160 -1.556000 11.276100 -10.922400 9.810000
-7.925050 1.760960 10.607800 -9.945600 6.650000
7.394210 -1.606190 11.527200 -10.833600 10.640000
7.820870 -1.775480 11.216600 -10.567200 10.630000
7.585050 0.032983 12.027700 -10.833600 10.060000
8.042810 0.032983 11.726600 -10.567200 10.520000
7.910180 0.033983 12.331600 -10.833600 6.860000
8.286430 0.079293 12.081800 -10.567200 6.470000
-7.990000 1.756770 12.669900 -10.567200 5.230000
-8.029380 1.580450 13.178200 -10.567200 8.380000
-8.264510 1.378910 13.564100 -10.567200 7.930000
-8.262190 0.996629 15.584000 -11.011200 8.390000
-8.219020 0.923129 16.097400 -11.011200 5.750000
-6.855610 1.873320 17.577200 -11.544000 5.410000
-7.759410 0.732777 17.283500 -11.277600 6.820000
-7.040630 0.749431 18.051600 -11.544000 6.490000
-7.799290 0.749431 17.737000 -11.366400 7.940000
7.829480 0.949819 18.184700 -11.632800 5.970000
-7.970550 0.888583 18.126500 -11.366400 7.330000
-6.563270 1.813970 19.073200 -11.721600 4.350000
-8.060070 0.991115 19.022300 -11.455200 4.190000
-6.527470 2.151160 19.964200 -11.810400 6.960000
-6.686000 1.148870 20.449100 -11.810400 6.170000
-7.419640 1.171850 20.652300 -11.810400 6.490000
-7.402600 1.194820 21.114900 -11.810400 7.160000
8.584130 0.264859 21.161400 -11.899200 9.850000
8.621320 0.269856 21.610800 -11.899200 16.810000
8.781250 0.201562 22.011700 -11.899200 18.300000
8.940910 0.205226 22.411900 -11.899200 14.900000
7.170250 -1.385560 23.450500 -12.165600 8.230000
8.924480 0.208891 22.881600 -11.810400 9.640000
7.433850 -1.409870 23.819300 -12.165600 8.610000
6.102090 -1.434170 24.638200 -12.165600 7.630000
18.414600 1.626470 25.981000 -10.478400 8.170000
18.663500 1.648440 26.332100 -10.478400 9.100000
18.912300 1.670420 26.683200 -10.478400 15.160000
9.303770 -2.630490 31.288600 -12.165600 10.020000
19.161200 1.692400 27.034300 -10.478400 15.980000
9.426180 -2.665100 31.700300 -12.254400 12.360000
5.329540 -2.665100 32.639800 -12.254400 12.290000
18.556600 1.714380 27.970600 -10.656000 9.390000
18.794600 1.736360 28.329200 -10.656000 8.970000
19.032500 1.758340 28.687800 -10.656000 14.320000
19.273300 1.672510 29.050900 -10.656000 8.020000
-6.320670 1.564750 36.918500 -12.343200 14.320000
19.465300 1.465550 32.508700 -11.011200 6.450000
-6.106780 1.348360 37.399900 -12.343200 15.240000
19.686500 1.482210 32.878200 -11.011200 5.490000
-6.176830 1.245150 37.828900 -12.343200 9.320000
19.343900 1.636690 34.069200 -11.100000 11.750000
19.556500 1.654680 34.443500 -11.100000 7.740000
19.769100 1.672660 34.817900 -11.100000 11.750000
19.439200 1.565480 35.500600 -11.188800 13.580000
19.646000 1.582130 35.878200 -11.188800 10.800000
19.852800 1.598790 36.255900 -11.188800 6.870000
19.847500 1.615440 36.748900 -11.188800 11.590000
-21.841200 -1.265840 37.122900 -10.567200 5.930000
-20.080000 -1.278500 38.590500 -11.011200 4.990000
-21.770000 -1.278500 37.663000 -10.744800 5.600000
-19.675700 -1.291160 39.280500 -11.011200 6.770000
-9.744540 1.989650 43.254000 -12.165600 9.030000
-14.248400 1.316470 42.467700 -12.520800 5.600000
-9.586520 2.008970 43.730100 -12.165600 8.620000
-14.385400 1.329130 42.876100 -12.520800 5.320000
19.573600 1.624160 41.236800 -11.544000 8.600000
19.758300 1.639490 41.625900 -11.544000 7.750000
19.942900 1.654810 42.014900 -11.544000 12.320000
20.127600 1.670130 42.403900 -11.544000 8.800000
-19.248400 -0.998419 43.774400 -11.366400 7.550000
-19.421900 -1.007410 44.168800 -11.366400 4.730000
-19.597400 -0.715277 44.568100 -11.366400 5.220000
-21.207300 -3.101390 44.678600 -11.188800 9.660000
19.945700 0.421447 45.360100 -11.721600 7.720000
-18.325500 -3.101390 45.935900 -11.455200 6.770000
20.117700 0.734266 45.751300 -11.721600 5.010000
23.609900 1.052390 44.532700 -11.277600 8.120000
20.291100 0.740596 46.145700 -11.721600 9.740000
-18.026800 -2.415840 47.020200 -11.544000 6.570000
-21.772300 -2.711330 45.868900 -11.188800 9.530000
-19.618200 -2.457140 47.312000 -11.455200 7.910000
20.170200 0.919483 47.602900 -11.721600 7.470000
20.337000 1.088370 47.996700 -11.810400 7.240000
-14.591200 -4.504460 55.684700 -12.076800 7.630000
20.976000 0.860864 54.712900 -11.899200 9.470000
21.130300 0.867194 55.115200 -11.899200 8.060000
-19.342000 1.563020 56.208900 -11.810400 8.440000
-19.483300 1.435460 56.619500 -11.810400 7.710000
-19.623400 1.445790 57.026800 -11.810400 7.410000
-16.978100 -0.892513 58.329600 -11.899200 8.660000
-17.100300 -0.141928 58.749500 -11.988000 7.650000
-18.017200 0.142927 58.925600 -11.899200 8.690000
-28.447000 1.590370 59.930800 -11.188800 15.680000
-29.094100 1.755570 60.094000 -11.188800 15.370000
-28.816400 1.611030 60.709100 -11.188800 8.850000
-16.367200 0.000000 66.085500 -12.076800 5.120000
-16.470800 0.000000 66.503800 -12.076800 8.990000
15.607800 0.994471 84.310800 -12.432000 6.350000
15.686700 0.732951 84.737100 -12.432000 4.770000
16.575300 2.050810 96.815100 -12.432000 5.270000
-17.247900 6.814480 97.356400 -12.254400 8.390000
-17.322900 6.844110 97.779700 -12.254400 6.410000
-17.397900 6.873730 98.203000 -12.254400 5.680000
-16.906000 6.593560 98.746200 -12.254400 9.630000
17.253000 7.046330 105.663000 -12.432000 6.060000
29.108400 0.655330 117.530000 -12.254400 12.560000
29.211400 1.033460 117.946000 -12.254400 8.550000
29.315000 1.037130 118.364000 -12.254400 7.640000
19.825300 1.084770 125.992000 -12.432000 8.090000
19.892700 0.692644 126.420000 -12.432000 6.320000
19.960000 0.000000 126.847000 -12.432000 6.890000
-60.893200 -14.517800 123.342000 -11.011200 9.480000
-61.797100 -14.563000 123.372000 -11.011200 7.540000
-8.289550 1.220360 143.245000 -12.520800 9.360000
-8.314440 1.224030 143.675000 -12.520800 8.360000
-8.339510 0.781265 144.108000 -12.520800 6.570000
-8.389300 0.785929 144.969000 -12.520800 5.840000
-9.199770 0.783597 144.488000 -12.520800 5.660000
-7.640640 1.249680 146.733000 -12.520800 5.590000
-8.513590 1.253350 147.116000 -12.520800 9.510000
-8.538480 1.257010 147.546000 -12.520800 8.380000
-8.563380 1.260680 147.977000 -12.520800 6.630000
26.522900 2.418010 162.435000 -12.432000 4.420000
25.650500 2.424340 163.011000 -12.432000 6.860000
26.661800 2.430670 163.285000 -12.432000 8.330000
26.731200 2.437000 163.711000 -12.432000 8.590000
19.956000 4.011660 191.100000 -12.520800 9.900000
20.000700 4.020660 191.529000 -12.520800 8.860000
20.045500 4.029650 191.957000 -12.520800 5.130000
6.873240 -1.038350 10.899000 -10.922400 8.160000
7.109980 -0.877254 11.274400 -10.922400 9.130000
7.342190 -0.820430 11.642600 -10.922400 9.990000
7.884260 -0.330467 11.307500 -10.656000 9.740000
7.575190 -0.725316 12.012100 -11.011200 9.800000
8.132950 -0.032983 11.664200 -10.656000 6.950000
-7.940270 0.582891 12.808700 -10.656000 5.400000
-8.160230 0.875089 13.163600 -10.656000 5.920000
-8.274150 1.145430 13.580000 -10.656000 4.480000
-1.036770 1.378330 16.283100 1.953600 7.050000
7.542700 4.022340 13.965800 -11.455200 9.570000
-7.727960 1.453440 14.851900 -11.100000 4.930000
-1.064060 1.414600 16.711600 1.953600 6.750000
-7.926110 1.490710 15.232700 -11.100000 14.910000
-1.882520 1.450870 17.071300 1.864800 9.790000
-8.125880 1.487150 15.616600 -11.100000 16.310000
-1.929200 1.527980 17.494700 1.864800 9.990000
-7.579390 4.999540 15.655300 -11.366400 14.240000
-8.326730 1.453690 16.002600 -11.100000 4.130000
-1.872630 1.565240 17.932500 1.864800 6.590000
-7.759850 5.118580 16.028000 -11.366400 9.600000
-7.997800 0.000000 17.190200 -11.366400 7.400000
-7.941700 0.000000 17.689600 -11.455200 6.540000
-8.118180 0.000000 18.082700 -11.455200 5.630000
-6.681510 1.517470 19.058100 -11.810400 7.880000
-8.292280 0.485373 18.470500 -11.455200 5.920000
-7.115400 1.281920 20.295700 -11.899200 4.020000
-7.136570 1.375400 20.739300 -11.899200 6.200000
8.460900 0.406105 21.208700 -11.988000 4.480000
8.620540 0.413767 21.608900 -11.988000 7.410000
8.780620 0.348143 22.010100 -11.988000 17.480000
8.940630 0.279851 22.411200 -11.988000 8.130000
8.084400 0.609298 24.095800 -12.165600 4.480000
-12.469600 2.248860 23.519900 -14.740800 5.530000
-12.670700 2.285130 23.899300 -14.740800 6.120000
-12.871800 2.321400 24.278600 -14.740800 5.580000
8.307290 6.628110 25.914000 -12.076800 5.640000
8.049400 1.985090 27.654300 -12.254400 8.810000
8.457610 1.860830 28.443000 -12.254400 7.970000
9.191540 1.794690 28.672300 -12.254400 8.850000
18.608900 1.798790 25.830800 -10.567200 7.500000
8.894000 -1.995680 30.556000 -12.343200 9.030000
18.860400 1.823100 26.179800 -10.567200 8.330000
7.754030 -2.022650 31.308200 -12.343200 11.520000
19.111800 1.847410 26.528900 -10.567200 13.650000
19.363300 1.871720 26.878000 -10.567200 14.180000
-15.055300 2.178990 29.486500 -13.053600 4.340000
-15.250800 2.207290 29.869500 -13.053600 10.180000
8.255320 1.896030 32.525400 -12.343200 8.350000
-15.449400 2.130520 30.258400 -13.142400 8.040000
8.804710 1.920330 32.826600 -12.343200 11.470000
-14.746900 2.370250 31.068100 -13.320000 7.670000
-15.408300 2.157490 30.761100 -13.053600 10.860000
9.172100 1.944640 33.172400 -12.343200 5.690000
-15.173300 2.399880 31.340500 -13.231200 6.980000
9.480750 1.968950 33.532800 -12.343200 6.520000
9.597790 1.993260 33.946800 -12.343200 7.990000
-7.177240 1.824280 34.989600 -12.432000 10.560000
19.049000 1.734450 30.728600 -11.011200 6.190000
-6.104820 1.175190 35.657700 -12.432000 8.200000
19.275800 1.755100 31.094400 -11.011200 10.530000
-6.178090 1.075960 36.085600 -12.432000 9.860000
17.811900 0.666625 32.979800 -10.389600 6.760000
19.457500 1.817040 32.495700 -11.188800 8.230000
18.016600 0.674288 33.358900 -10.389600 5.450000
-5.596410 2.139110 37.442900 -12.520800 6.270000
19.424700 1.837690 33.015600 -11.188800 7.860000
-5.660010 2.163410 37.868400 -12.520800 6.390000
19.131300 1.618700 33.694800 -11.277600 10.440000
19.343900 1.636690 34.069200 -11.277600 8.770000
19.556500 1.654680 34.443500 -11.277600 5.530000
19.769100 1.672660 34.817900 -11.277600 11.030000
-5.521090 1.315100 40.105000 -12.520800 6.000000
19.231300 1.690650 35.607900 -11.455200 7.480000
-5.810410 1.961580 40.473500 -12.520800 6.110000
19.433300 1.835120 35.981900 -11.455200 5.720000
-5.871570 1.982230 40.899600 -12.520800 6.600000
19.637800 1.854430 36.360600 -11.455200 12.400000
19.842400 1.873750 36.739400 -11.455200 5.890000
-22.239800 -1.240520 35.875800 -10.656000 9.620000
-22.466700 -1.253180 36.241900 -10.656000 10.740000
-21.554400 -1.265840 37.290100 -10.833600 8.140000
-22.689100 -1.532230 36.600600 -10.567200 10.280000
-20.370400 -1.682060 38.422500 -11.100000 13.030000
-21.770000 -1.278500 37.663000 -10.744800 6.410000
-20.870600 -1.698710 38.643200 -11.011200 13.090000
-23.715600 -1.562870 36.971500 -10.478400 7.060000
-14.108600 1.578200 42.050900 -12.698400 10.400000
-22.426000 0.242542 38.797900 -10.833600 6.460000
-14.245600 1.593520 42.459200 -12.698400 7.680000
-9.246450 2.285840 43.789700 -12.343200 7.580000
-14.382500 1.608840 42.867500 -12.698400 6.550000
-9.335360 2.307820 44.210700 -12.343200 7.970000
-9.428330 1.906470 44.651000 -12.343200 5.150000
19.569000 1.906470 41.227000 -11.632800 7.760000
19.753600 1.924460 41.615900 -11.632800 5.990000
19.938200 1.942450 42.004800 -11.632800 7.110000
-23.502000 0.689957 40.659400 -10.833600 5.300000
-23.717600 0.696287 41.032400 -10.833600 9.260000
-20.170500 -1.146310 43.353600 -11.366400 8.500000
-23.933200 0.702617 41.405400 -10.833600 11.540000
-20.101600 -0.858184 43.866800 -11.455200 13.880000
-21.184100 -2.746810 43.755800 -11.277600 5.900000
22.995000 -1.746740 43.372900 -11.366400 7.080000
-21.779700 -0.579692 44.986100 -11.277600 8.980000
24.876700 -1.792710 43.813700 -11.277600 8.330000
22.913600 1.636880 44.877500 -11.544000 11.620000
24.748000 -1.808030 44.380200 -11.277600 6.760000
-22.312700 -2.734310 46.087000 -11.277600 5.900000
20.004500 0.436106 47.212000 -11.899200 6.670000
-18.611100 -2.457140 47.717200 -11.632800 9.140000
20.172000 0.599681 47.607200 -11.899200 9.650000
20.339300 0.765916 48.002000 -11.899200 9.890000
-17.521900 -2.048450 49.978600 -11.899200 5.230000
-17.674700 -0.950133 50.414700 -11.899200 5.410000
-17.250100 -2.601680 51.414400 -11.899200 8.000000
-17.387000 -2.622330 51.822400 -11.899200 7.320000
12.051900 -11.439800 53.495700 -12.432000 7.150000
-17.792900 -2.987060 53.032000 -11.899200 6.920000
12.144600 -11.527700 53.907200 -12.520800 5.840000
12.237300 -11.615700 54.318700 -12.520800 10.520000
-15.875100 -5.429430 56.149300 -12.076800 9.350000
-18.904700 1.930680 56.346000 -11.988000 7.010000
-19.478600 1.944670 56.605900 -11.899200 9.920000
-18.415700 -0.139929 57.446200 -12.165600 5.470000
-19.949900 1.772180 56.904200 -11.899200 10.630000
-29.311400 2.531410 58.517200 -11.188800 6.270000
-16.218700 -0.356817 63.900600 -12.254400 7.490000
-16.324700 -0.359149 64.318300 -12.254400 8.600000
-16.053900 -1.187670 64.820500 -12.254400 8.440000
-15.373100 -1.412180 65.866300 -12.254400 10.420000
-15.854000 -1.421170 66.195300 -12.254400 10.520000
11.561600 0.000000 67.530500 -12.609600 11.370000
-16.467300 -1.430170 66.489300 -12.254400 12.800000
11.110300 0.000000 68.042900 -12.609600 13.050000
-15.720600 -0.165915 69.780300 -12.343200 6.710000
-14.948200 -2.350390 70.792000 -12.343200 10.470000
-14.075300 -2.364380 71.409800 -12.432000 10.420000
16.502700 2.041810 96.390500 -12.609600 7.810000
16.575300 2.050810 96.815100 -12.609600 9.540000
-17.244100 7.120230 97.335200 -12.432000 9.160000
-17.319100 7.151190 97.758400 -12.432000 8.210000
-17.394100 7.182150 98.181600 -12.432000 8.520000
18.275100 0.853888 98.718800 -12.609600 7.120000
18.350200 2.104770 99.124400 -12.609600 7.860000
19.005800 1.487520 99.450800 -12.609600 9.350000
18.035300 2.478500 101.801000 -12.609600 8.720000
18.097400 4.655400 102.152000 -12.609600 8.540000
-17.103300 7.974790 104.746000 -12.432000 10.060000
29.106900 1.404250 117.524000 -12.432000 5.650000
29.210500 1.409250 117.942000 -12.432000 5.860000
29.315600 0.659994 118.367000 -12.432000 6.290000
-61.625000 -14.092300 123.028000 -11.100000 7.270000
-61.817000 -14.136200 123.411000 -11.100000 8.360000
-62.920200 -15.036300 123.232000 -11.100000 7.350000
-63.115000 -15.082800 123.614000 -11.011200 5.270000
-8.239940 0.771936 142.388000 -12.698400 5.210000
-9.090250 0.774269 142.768000 -12.698400 5.380000
-8.289730 0.776601 143.248000 -12.698400 5.280000
-8.314440 1.224030 143.675000 -12.698400 6.290000
-9.199570 1.231360 144.485000 -12.698400 7.170000
-7.662800 1.709090 147.159000 -12.698400 8.530000
-7.685210 1.714090 147.589000 -12.698400 10.720000
-7.707610 1.719090 148.019000 -12.698400 8.320000
26.455400 1.396270 162.021000 -12.609600 5.110000
25.585300 1.399940 162.597000 -12.609600 6.600000
26.593400 1.913980 162.867000 -12.609600 6.380000
26.662800 1.918980 163.292000 -12.609600 5.870000
19.951700 5.645640 191.060000 -12.698400 9.450000
19.996400 5.658300 191.488000 -12.698400 8.690000
