VERSION .7
FIELDS x y z velocity SNR
SIZE 4 4 4 4 4
TYPE F F F F F
COUNT 1 1 1 1 1
WIDTH 213
HEIGHT 1
VIEWPOINT 0 0 0 1 0 0 0
POINTS 213
DATA ascii
-11.1455235400712 6.12150941629179 3.47659959113014 2.78486473125109 5.53689688804544
-9.3933924674101 9.22139727871009 -0.715770504056204 2.78486473125109 5.53689688804544
-8.68914549013035 9.90893369292295 0.30675878745266 2.78486473125109 5.53689688804544
-8.38246976694928 10.1696812578162 0.30675878745266 2.78486473125109 5.53689688804544
-10.0254834928479 8.98655355462057 -0.942187704318882 2.78486473125109 5.39695563752387
-9.61269126101789 9.43668066068473 -0.837500181616785 2.78486473125109 5.39695563752387
-8.89817173710843 10.1473031877989 -0.104687522702098 2.78486473125109 5.39695563752387
5.23340090507649 12.1502722588944 3.96351830137245 1.08300295104209 8.52481354111256
5.97055402236684 12.1125629100736 2.89229713883936 1.08300295104209 8.52481354111256
5.24591025368626 12.1793149395808 3.85639618511914 1.23771765833382 9.61523438829983
-1.57119842693864 13.4124207765666 2.89229713883936 1.39243236562554 25.1922805445403
1.27552741046861 13.6441368475467 1.71395386005295 1.39243236562554 25.1922805445403
1.78650866908794 13.429947793271 2.67805290633274 1.39243236562554 25.1922805445403
7.26235773682267 11.6977657545013 1.0712211625331 1.54714707291727 46.732286812752
6.54415552265825 11.9309318700781 2.35668655757281 2.16600590208418 7.31593378759059
-2.05884780506886 13.8174957178179 2.0815774862859 1.39243236562554 102.908490504344
-1.61462424983973 13.7831221465093 2.62936103530851 1.39243236562554 102.908490504344
6.98118967518508 12.2077685464361 1.31468051765425 1.39243236562554 102.908490504344
-2.05884780506886 13.8174957178179 2.0815774862859 1.54714707291727 215.311792867006
6.99050477341219 12.2240575413546 1.09556709804521 1.54714707291727 215.311792867006
-2.05637720689447 13.8009148517572 2.19113419609042 1.701861780209 55.8849678067489
6.98118967518508 12.2077685464361 1.31468051765425 1.701861780209 55.8849678067489
6.71834546917208 12.2485050660563 2.0815774862859 2.16600590208418 20.8221793933163
7.14130626889807 12.4877589789321 1.23190433691306 1.39243236562554 194.777258821322
7.13632722352253 12.4790522919125 1.34389564026879 1.54714707291727 452.32886266664
7.13091127453595 12.4695816064328 1.45588694362452 1.701861780209 100.874559418969
6.74023092326901 12.5498290822772 2.35181737047039 2.16600590208418 17.4806564529146
7.18711272016441 12.8319150134387 1.14425896906944 1.39243236562554 65.8456327902811
7.17753563479967 12.8148160266464 1.37311076288333 1.54714707291727 151.348764354704
7.16620075995083 12.7945786717569 1.60196255669722 1.701861780209 28.7322590564513
6.07510004015836 13.7822798515997 0.350581471374468 0.928288243750363 6.5024351896798
7.02393232050709 13.0780608426238 2.57093079007943 1.54714707291727 5.79513566469586
-8.8597295983307 12.1400169236141 -1.0517444141234 1.701861780209 5.0078448592462
7.1231268057138 13.2627538968263 0.584302452290779 2.01129119479245 12.4862503026991
7.11109875655491 13.2403585274605 1.0517444141234 2.16600590208418 5.88512895239501
7.36937161495826 12.8865690797466 2.57093079007943 2.16600590208418 5.88512895239501
5.00724463930025 14.1529923140244 3.34026235226229 0.309429414583454 5.10969932074783
5.061178387501 14.3054362185543 2.50519676419672 0.464144121875182 5.12375431082143
5.95904061113422 13.834974071422 3.10167218424355 0.464144121875182 5.12375431082143
5.71581446374099 14.5995885052319 3.22827104890656 0.464144121875182 7.43526003943311
6.53601246754146 14.4931715678694 1.86246406667686 0.464144121875182 7.43526003943311
7.33034272683177 13.9409777149109 2.85577823557118 0.464144121875182 7.43526003943311
5.33504681862376 15.0795261781925 -0.620821355558953 0.618858829166909 5.384905817179
6.55213739306433 14.5289275143709 1.48997125334149 0.618858829166909 5.384905817179
7.1188876593044 13.5388286621369 4.71824230224804 0.618858829166909 5.384905817179
5.44113035117733 15.3793716079706 -0.506395458652009 0.464144121875182 5.25975104228788
6.68952470677917 14.8335747161328 1.26598864663002 0.464144121875182 5.25975104228788
7.22493910592307 14.3425672269764 2.91177388724905 1.23771765833382 5.84067802234855
4.8938220929449 15.8655766127051 1.03226766571371 0.154714707291727 6.18601147680831
5.56970349774475 15.3396210701307 3.22583645535534 0.154714707291727 6.18601147680831
6.0235843351469 15.0154371970054 3.87100374642641 0.154714707291727 6.18601147680831
-5.71885444170986 15.7504003806638 4.15098200481575 -0.154714707291727 5.17264380880749
5.90040298121369 15.4483088465846 4.95439787671557 -0.154714707291727 5.17264380880749
6.0210856708134 16.1650653962531 0.669513226583185 0.464144121875182 5.06307143262738
5.93078275756297 15.9226253151824 4.499128882639 -0.154714707291727 7.81302520896832
5.95517074095407 15.9881007739208 4.2264544049033 0 5.52064179202177
6.67871574927666 16.2534244731298 0.409011716603547 0.618858829166909 10.0574130795314
6.80680613580443 16.17723485905 0.954360672074938 0.773573536458636 13.8569337572261
7.62914127825084 15.8201722189307 0.681686194339243 0.773573536458636 13.8569337572261
6.80680613580443 16.17723485905 0.954360672074938 0.928288243750363 5.12958414811271
7.63465569564214 15.831607193017 -0.136337238867848 0.928288243750363 5.12958414811271
6.79654609608152 16.5401782015907 0.555087329676241 0.618858829166909 9.67183458612123
7.51000798974431 15.9214055269908 -3.19175214563838 0.618858829166909 9.67183458612123
6.92166374869586 16.4502084889762 1.24894649177154 0.773573536458636 13.3456548051714
7.76537594393389 16.1026752942687 0.6938591620953 0.773573536458636 13.3456548051714
-12.4258066706418 12.7445457461225 -1.80403382144778 2.32072060937591 5.542897843165
-8.24475587390362 15.6800250938129 -2.49789298354308 2.32072060937591 5.542897843165
-12.415606179854 12.7340835986802 -1.94280565386684 2.47543531666763 14.1102265819554
-8.23539122027545 15.6622152270163 -2.63666481596214 2.47543531666763 14.1102265819554
-0.837987176799957 17.9863200330223 -2.68292209343516 2.32072060937591 33.2502795201974
-0.837987176799957 17.9863200330223 -2.68292209343516 2.47543531666763 88.3904807718935
-0.837987176799957 17.9863200330223 -2.68292209343516 2.63015002395936 18.9788236622585
-0.855183150200547 18.3554095482622 -2.29825631234373 2.32072060937591 58.601691720779
-0.997713675233971 18.3482142271959 -2.29825631234373 2.47543531666763 146.845190994572
-0.996707216218021 18.3297051838762 -2.44189733186521 2.63015002395936 35.8163714577395
-1.59591869351734 18.6362486764367 -2.19113419609042 2.32072060937591 19.8187183483475
-1.01731750519874 18.7087337638082 -1.89898296994503 2.32072060937591 19.8187183483475
-0.432374043545411 18.5758108191839 -3.06758787452659 2.32072060937591 19.8187183483475
-1.59591869351734 18.6362486764367 -2.19113419609042 2.47543531666763 54.8186765195487
-1.01731750519874 18.7087337638082 -1.89898296994503 2.47543531666763 54.8186765195487
-0.433441643172393 18.621677422412 -2.7754366483812 2.47543531666763 54.8186765195487
-0.434400239513909 18.6628609868692 -2.48328542223581 2.63015002395936 13.8260818478618
-0.439580277604501 18.8854076661703 -3.11871433910203 2.47543531666763 6.74478300269507
-8.10441822084143 20.7006668689431 -1.5557052792242 -0.464144121875182 12.0807177632694
5.67517836828728 21.4327361848286 2.24712984776829 -0.464144121875182 12.0807177632694
6.74118674146463 21.2401964327992 0.172856142136022 -0.464144121875182 12.0807177632694
5.94192905740036 21.7331086792967 1.75290735687234 -0.464144121875182 10.9261576938797
6.83613303359794 21.5393541290358 0.175290735687233 -0.464144121875182 10.9261576938797
-17.9132355854964 15.6829086193286 1.48023287913664 0.773573536458636 6.94589016902696
-16.8371424716394 16.8968967239074 0.185029109892079 0.773573536458636 6.94589016902696
-18.1192105358458 15.4876414134042 0.925145549460401 0.928288243750363 5.7469209326298
-16.8371424716394 16.8968967239074 0.185029109892079 0.928288243750363 5.7469209326298
-17.9829758701627 16.1194196613016 0.937318517216459 0.773573536458636 6.21283942456216
-17.0586838199504 17.1192243123799 0.187463703443291 0.773573536458636 6.21283942456216
-17.9878513219601 16.1237898753378 0.749854813773168 0.928288243750363 5.45832286549288
-17.0586838199504 17.1192243123799 0.187463703443291 0.928288243750363 5.45832286549288
15.7670264664046 19.1286861754161 0.576998671637146 4.79615592604354 6.89441582008378
4.59150530675417 25.3239049832879 -0.199636671199349 4.02258238958491 5.76178709743861
6.32580099798921 24.6879165941742 3.59346008158829 4.02258238958491 5.76178709743861
15.5295019841166 20.8542167746647 -1.61657011800449 3.86786768229318 16.1462393764777
15.5477812210782 20.8787635483128 -1.01035632375281 4.02258238958491 21.2808259258415
15.7085337286192 21.0946344527862 -1.84055272471596 3.86786768229318 13.4543387911298
15.7298882903666 21.1233110104931 -1.22703514981064 4.02258238958491 16.9429662282533
17.1764248754429 19.9983100997622 0.409011716603544 4.02258238958491 16.9429662282533
14.0735275174366 24.1061762837814 1.08339413028915 3.09429414583454 5.43882690532121
14.0803099889087 24.117793801333 0.650036478173494 3.24900885312627 7.40289558515133
-6.95742223891971 27.1529660827936 3.50581471374468 2.93957943854282 5.07280907816814
-3.39610273538486 27.1529660827936 7.01162942748935 2.93957943854282 5.07280907816814
11.9331992911763 25.2986821596824 3.94404155296276 2.93957943854282 5.07280907816814
14.4906981647402 23.3407384892159 6.57340258827127 2.93957943854282 5.07280907816814
12.0520856893212 25.550724309184 4.20941225004482 2.93957943854282 8.29072156899857
13.0047087747906 25.266457371771 2.8801241710833 2.93957943854282 8.29072156899857
14.6517059221262 23.600080027985 6.64644039480762 2.93957943854282 8.29072156899857
13.9494566611895 25.9728930479515 1.14425896906944 3.55843826770973 6.13733601491479
14.8534233892018 25.4420394740493 1.60196255669722 3.55843826770973 6.13733601491479
14.0978551363086 26.2492004208021 1.1564319368255 3.55843826770973 5.87851357631839
14.7662159972178 25.8211788517175 2.0815774862859 3.55843826770973 5.87851357631839
15.0271104358725 26.8294948915539 -0.715770504056206 2.16600590208418 9.24664480932781
25.9562103261358 16.3945143245566 1.90872134414988 2.16600590208418 9.24664480932781
15.0293717660126 26.8335322842183 -0.477180336037468 2.32072060937591 5.95432059306035
15.180448297463 27.1032652475901 -0.723074284709841 2.16600590208418 6.89831578009127
15.1841031803954 27.1097906979342 -0.241024761569946 2.32072060937591 5.06139660947821
15.0439775694781 28.6109072734118 -0.501526271549584 1.85657648750073 10.3115741990404
17.04727591397 27.4587190029031 0.75228940732438 1.85657648750073 10.3115741990404
14.4166323106514 29.2472633460806 -1.51918637595603 1.85657648750073 7.64589491357875
15.1914067413288 28.8912907255764 -0.253197729326004 1.85657648750073 7.64589491357875
16.1968531383883 28.3228852808415 1.01279091730402 1.85657648750073 7.64589491357875
17.2091564595376 27.7194663759853 1.01279091730402 1.85657648750073 7.64589491357875
-14.3158183613489 31.7443720733186 1.08095953673794 -0.618858829166909 7.46336540521013
-14.3188355513829 31.7510624909137 0.810719652553458 -0.464144121875182 10.0851246733615
-14.1637089367803 32.1325079443828 1.63604686641418 -0.618858829166909 11.7904539569921
-14.1722464960898 32.1518766841361 1.09069791094279 -0.464144121875182 14.4110461270893
-14.3039501938921 32.4506663680266 0.550218142573815 -0.464144121875182 8.98703390126729
-15.3945172221847 31.9228475131994 1.37554535643454 -0.309429414583454 8.1574108114816
-15.5382366411743 32.2208713505743 0.832630994514363 -0.464144121875182 7.41335397594206
-15.5382366411743 32.2208713505743 0.832630994514363 -0.309429414583454 10.8511005303602
14.8625243140464 33.7178759268715 3.73466650755856 0.928288243750363 15.947212638376
16.6543363700616 33.0613082693613 1.14912815617187 0.928288243750363 15.947212638376
14.8625243140464 33.7178759268715 3.73466650755856 1.08300295104209 9.63792383937464
16.3671926395433 33.2043977435064 1.14912815617187 1.08300295104209 9.63792383937464
16.5093764312477 33.4928483823183 0.869149897782536 0.928288243750363 12.7027413884364
16.8015425864948 33.3535342693965 0.579433265188354 1.08300295104209 7.9896334620012
-12.4029731417547 45.3649245274036 2.19113419609042 -1.23771765833382 5.67974115514257
-11.3123427754676 45.6651728824927 1.82594516340869 -1.23771765833382 5.67974115514257
-21.3298600129771 44.2306737421368 8.90330861678075 0 6.53771710649649
-23.7358858555934 44.1945259732533 2.33720980916312 0.154714707291727 7.01331009870819
-25.1700398188074 43.1131012598102 5.45348955471394 0.309429414583454 17.4108567378812
-23.7265813876611 44.1772017178116 2.72674477735697 0.309429414583454 17.4108567378812
-22.5685472069576 44.8018870173751 2.33720980916312 0.309429414583454 17.4108567378812
-23.8640649328758 44.4331862699303 3.13575649396052 0.154714707291727 14.3305679341163
-22.7006984629078 45.0642267056142 2.74378693221545 0.154714707291727 14.3305679341163
-24.2552791121033 44.2208443204424 3.13575649396052 0.309429414583454 44.0184890172222
-22.7006984629078 45.0642267056142 2.74378693221545 0.309429414583454 44.0184890172222
-22.7006984629078 45.0642267056142 2.74378693221545 0.464144121875182 11.0566120068401
-25.9922754300075 43.6146160341053 2.76082908707393 0.154714707291727 5.56452510874445
-20.2351052379252 45.9063853059422 8.2824872612218 0.154714707291727 5.56452510874445
-24.3934002427724 44.4726589043295 3.54963739766649 0.309429414583454 14.7789804890291
-22.8416965900066 45.3441287348416 2.76082908707393 0.309429414583454 14.7789804890291
-23.0495080463601 52.2912821577753 5.79189805833234 -0.618858829166909 5.01525168429722
-23.0305864342088 52.2483556294565 6.23742867820407 -0.464144121875182 5.55401149899535
13.7509027791656 55.5090457533442 8.06337384161275 -0.618858829166909 15.3500614635546
16.5427710073331 55.2164210314423 3.58372170738345 -0.618858829166909 15.3500614635546
13.7509027791656 55.5090457533442 8.06337384161275 -0.464144121875182 12.7713174613401
13.8099323532982 55.7473337686075 8.55759633250871 -0.618858829166909 20.2289377149839
16.6145851298634 55.4561220358191 4.50399806974143 -0.618858829166909 20.2289377149839
16.6145851298634 55.4561220358191 4.50399806974143 -0.464144121875182 17.4760266160827
-35.0793616213064 46.1650317645617 3.15279864881899 1.54714707291727 17.026238584634
-35.513013847264 45.7990689564053 3.60319845579314 1.701861780209 12.4779033365736
-22.5864817062707 53.6796277008697 4.07550960472819 -0.618858829166909 5.72079453321745
-23.0249750974264 53.4565803886003 4.52834400525354 -0.464144121875182 5.40165656589961
-35.7470031704777 46.1008313805976 2.26417200262677 1.54714707291727 36.3656217713872
-35.7470031704777 46.1008313805976 2.26417200262677 1.701861780209 26.7906580978327
-35.9565115758251 46.3710221885286 1.3658069822297 1.54714707291727 10.8446010038263
-35.9489350080245 46.3612511295965 1.82107597630626 1.701861780209 8.31746864848924
-9.89466178849572 3.6386078038671 -1.65552361482388 1.34968224913704 5.8733095563367
-4.95754446360591 8.85123021013078 3.31104722964775 1.34968224913704 5.8733095563367
-5.21474250639843 9.3104331689875 -0.0827761807411935 1.45350396060912 5.86467011703138
6.07057376329996 11.3029752286026 0.998183355996748 -0.934395403248721 5.96979871839147
6.14128577982095 11.1964426853903 -3.27209373282836 -0.934395403248721 14.3818181402607
-6.78740566528057 12.374411684848 -0.547783549022606 -0.830573691776641 12.6323562021909
7.7501608454923 11.7463905309043 1.20512380784973 -0.830573691776641 12.6323562021909
7.28464725217007 11.7336683551117 -2.95803116472207 -0.726751980304561 10.3096209342262
6.20261438470511 12.313102227078 3.06758787452659 -0.62293026883248 5.89388593551884
6.82818057486744 12.7135850585889 -0.447965213422931 -1.0382171147208 8.62497805279939
7.26869655216258 12.4503597426199 0.783939123490128 -0.726751980304561 6.2889586550257
7.07709760129816 12.9025615339721 -1.0298330721625 -1.14203882619288 9.26544304164149
6.97976973195345 12.9958332536156 -0.114425896906944 -1.0382171147208 9.19689371130032
8.24743251163499 13.2844645077169 -1.33902645316637 -0.830573691776641 5.23878467606554
-0.129358989297031 16.6767179158238 3.02376519060478 -1.34968224913704 5.24831888558289
9.15585754678869 14.1605830488571 -1.70908467295053 -1.34968224913704 5.24831888558289
-11.6891624953101 13.0546537205178 -3.60806764289556 0.934395403248721 13.1503428595297
-8.27707078656935 15.7414821762605 -1.94280565386684 0.934395403248721 13.1503428595297
-11.8040607490615 13.1829740271623 -2.63666481596214 1.0382171147208 15.6004199516455
-8.1242399269052 15.7843412986767 -2.22034931870496 1.0382171147208 15.6004199516455
-0.842920218593244 18.0922014484983 -1.83568353761353 0.934395403248721 75.977556274972
-0.843560419084864 18.105942530995 -1.69447711164326 1.0382171147208 89.8041503307582
-0.844148974720287 18.1185751228879 -1.55327068567299 1.14203882619288 11.0861320883873
-0.8581045642415 18.4181139539432 -1.7236922342578 0.934395403248721 215.50974499005
-0.858703267387878 18.4309643491446 -1.58005121473632 1.0382171147208 263.893571281001
-0.859249545065248 18.4426894988892 -1.43641019521483 1.14203882619288 31.4765060886721
-0.872648709398135 18.7302853768914 -1.75290735687234 0.934395403248721 99.9969014800913
-0.873813096676524 18.7552774564975 -1.46075613072695 1.0382171147208 160.491160372116
-1.02055872841949 18.7683407026412 -1.16860490458156 1.14203882619288 17.0630333393711
-0.435635304556283 18.7159223001441 -2.04505858301773 1.14203882619288 17.0630333393711
-1.77438570910954 18.9803537240547 -1.78212247948688 0.934395403248721 9.41484993601336
-1.92079233719667 18.9515552632366 -1.93063268611078 1.0382171147208 14.0315117421061
-1.05036512320792 19.3164880624438 -2.11322720245165 1.0382171147208 6.6471655226266
-0.446192421999427 19.1694810170636 -3.32078560385259 1.0382171147208 6.6471655226266
16.8839391723967 22.2195488224393 -4.38226839218085 -0.31146513441624 5.03732736123967
17.0920487957647 22.4934245980879 -4.20941225004482 -0.41528684588832 7.36715211677247
18.8264818952824 21.4693563346664 -0.664644039480763 -0.41528684588832 7.36715211677247
17.1114845593473 22.5190023908895 -3.98786423688457 -0.31146513441624 6.45797099636723
-12.9523796755593 44.5395306808709 2.52223891905519 -2.0764342294416 5.83443171816693
