VERSION .7
FIELDS x y z velocity SNR
SIZE 4 4 4 4 4
TYPE F F F F F
COUNT 1 1 1 1 1
WIDTH 208
HEIGHT 1
VIEWPOINT 0 0 0 1 0 0 0
POINTS 208
DATA ascii
-1.43252620300114 2.66726158320233 -0.827761807411937 0 5.91189557433679
-0.849025683846214 2.91955659436635 0.779069936387705 0 5.91189557433679
0.0728177580563772 3.12842298959674 -0.243459355121158 0 5.91189557433679
2.07311433792557 8.36865771534512 1.70421548584811 -3.71315297500145 34.9638125745951
2.0627851670207 8.32696136787175 1.90872134414988 -3.55843826770973 37.9787766276992
2.14326418941688 8.36458933254837 1.63604686641418 -3.403723560418 7.25500493938734
4.25098248154461 7.43354824094153 1.9768899635838 4.48672651146009 5.63028258104114
4.15154793029408 7.41219906935481 2.2495644413195 4.64144121875182 8.2805307172806
6.4387768834617 6.32088138948437 1.20025462074731 -3.86786768229318 15.7583712251105
5.25060768811757 8.81043442616764 -1.44614856941968 4.64144121875182 5.90687600479323
5.53247369106287 9.09512442861947 -0.744985626670744 4.64144121875182 7.14285935761245
5.983474876909 8.70991223606382 -1.48997125334149 4.64144121875182 7.14285935761245
4.13333211090295 10.0589400431062 3.06758787452659 3.09429414583454 5.13930962096488
4.45649008368051 10.1102192693377 2.36642493177766 3.09429414583454 5.13930962096488
-1.35018284739452 11.5257374015086 0.450399806974142 2.93957943854282 5.68195128671234
4.23834014702905 10.3144892008065 3.24287861021382 2.93957943854282 5.68195128671234
4.24814689176136 10.3383550443036 3.152798648819 3.09429414583454 7.76465166301389
5.42835480229335 10.1072093437564 1.80159922789657 3.55843826770973 6.41988360391074
-1.85861191425995 11.2578925216031 2.16191907347588 3.71315297500145 6.32919206771031
5.01464639467008 10.3986237359219 -1.2611194595276 3.71315297500145 6.32919206771031
2.76641945432023 11.167361629192 3.14549486816536 2.47543531666763 5.2733772391222
5.04804169683423 10.4678739191694 2.68292209343516 3.55843826770973 12.316062818155
5.58811231453468 10.4046664332927 1.66526198902872 3.55843826770973 12.316062818155
5.05715073205075 10.4867628741144 2.59040753848912 3.71315297500145 7.62507083056795
5.67972071313361 10.3549435270668 1.66526198902872 3.71315297500145 7.62507083056795
-4.4238411218516 11.0276381700353 2.9434236034148 2.32072060937591 8.71733451543191
4.88465790537781 10.8314030036757 2.9434236034148 2.93957943854282 7.21245444875632
-1.98579512127632 11.4662543511599 3.79796593989007 3.71315297500145 5.3891810423305
5.28291638973159 10.7175409316397 2.65857615792304 3.71315297500145 5.3891810423305
6.04577260232396 10.572036579367 1.23433893046427 3.71315297500145 5.3891810423305
3.69370737532593 11.6381689494862 2.9215122614539 2.16600590208418 8.59929793102177
4.26976560103189 11.1790089451985 3.79796593989006 2.16600590208418 8.59929793102177
3.78841782084711 11.6076845704047 2.9215122614539 2.32072060937591 18.2161120324935
4.23627339825926 11.3733037965589 3.21366348759929 2.32072060937591 18.2161120324935
3.78106078790735 11.5851426751393 3.01889600350236 2.47543531666763 6.96591820636494
4.17507208008846 11.4986414761525 2.82412851940543 2.47543531666763 6.96591820636494
3.86778367085498 11.8508609559353 3.19418673918959 2.32072060937591 11.524394315927
4.35125662971185 11.6820041800982 3.19418673918959 2.32072060937591 11.524394315927
3.85971576285844 11.8261409446811 3.29400507478927 2.47543531666763 5.07838522126483
4.38460672022258 11.7715405899006 2.79491339679089 2.47543531666763 5.07838522126483
4.32758671659658 11.9186847931137 2.19600338319285 2.78486473125109 7.04843645204518
-10.7641880788172 8.53932276887751 -1.39258751129302 4.17729709687663 17.4078396569228
-7.49854813773167 11.5973641035345 -0 4.17729709687663 17.4078396569228
-10.7641880788172 8.53932276887751 -1.39258751129302 4.33201180416836 15.6438395000457
-10.2824856397209 9.21692284884709 -0.214244232506618 4.33201180416836 15.6438395000457
-7.38856268687221 11.4272589983488 -2.35668655757281 4.33201180416836 15.6438395000457
-1.84212698348267 13.8480543894468 -2.0815774862859 4.02258238958491 6.01516191286354
-1.84620101793411 13.8786806444086 -1.86246406667686 4.17729709687663 93.3104297613185
-1.84806528221305 13.8926951142918 -1.75290735687234 4.33201180416836 78.6280767776526
-1.99143897930833 14.1236439284688 -2.23982606711465 4.02258238958491 11.189875354619
-1.88722770722153 14.1870957698399 -1.90385215704746 4.17729709687663 245.555003372125
-1.88913339959556 14.2014216723872 -1.79186085369172 4.33201180416836 134.889852399591
-2.14220340239509 14.3769181317893 -2.51736973195277 4.02258238958491 5.50801747207227
-2.03717572291024 14.4480171519484 -2.17409204123194 4.17729709687663 71.5260908090393
-1.93020151697807 14.5101482304825 -1.83081435051111 4.33201180416836 34.1478390797906
-1.86023772379199 14.8732166709123 -1.51918637595602 4.17729709687663 16.1855412269463
-1.86023772379199 14.8732166709123 -1.51918637595602 4.33201180416836 7.06067606804128
-1.89899267637099 15.1830753515563 -1.55083609212178 4.17729709687663 9.01491931600951
-1.89899267637099 15.1830753515563 -1.55083609212178 4.33201180416836 7.17370850835085
4.09038143292731 17.0954685658174 3.33052397805744 1.85657648750073 5.23648885313682
4.17405814128495 17.4451896275023 3.10654137134598 1.85657648750073 5.07391123561362
16.5020865592245 22.1602785905387 -4.11689769509878 -4.95087063333527 22.8146435662081
16.5020865592245 22.1602785905387 -4.11689769509878 -4.79615592604354 7.60919270473201
16.6674784137762 22.3823795691222 -4.38226839218085 -4.95087063333527 48.8460234162973
16.6674784137762 22.3823795691222 -4.38226839218085 -4.79615592604354 16.0125828175138
16.8729199650497 22.6582623790902 -4.20941225004482 -4.95087063333527 14.1633204478036
16.8526726183737 22.6310726754458 -4.43096026320508 -4.79615592604354 5.14348808233223
-18.2214597806869 23.9797485100519 0.934883923665248 1.23771765833382 8.46010827303694
-19.1558936155939 23.240087670501 0.934883923665248 1.39243236562554 5.48670830734269
-18.4589578143273 23.8054445459826 0.701162942748937 1.39243236562554 5.48670830734269
-18.4112666534024 24.2295375570316 0.944622297870094 1.23771765833382 6.13907433073563
-5.54356951610877 30.5749026332784 -0 4.02258238958491 15.9548055053162
-4.33204590500124 30.7236498229384 1.68717333098962 4.02258238958491 15.9548055053162
1.92349392595338 30.9378486217178 2.16922285412952 4.02258238958491 15.9548055053162
14.9430856695955 27.2433832654798 0.241024761569946 4.02258238958491 15.9548055053162
-5.54206842605793 30.5666235484731 0.723074284709841 4.17729709687663 20.5891337787938
-4.31961111152077 30.6354600278872 2.89229713883936 4.17729709687663 20.5891337787938
1.92116663212204 30.9004159772572 2.65127237726941 4.17729709687663 20.5891337787938
14.9417369452195 27.2409243479638 0.482049523139891 4.17729709687663 20.5891337787938
15.0872129594362 27.5061479369114 -0.973837420484633 4.02258238958491 44.8218451965581
15.0940259288843 27.5185689550301 -0.243459355121157 4.17729709687663 59.3586339224288
15.3213197633441 27.354778024471 1.46075613072695 4.33201180416836 5.67729625831995
15.2380850890306 27.7812094162806 -0.98357579468948 4.02258238958491 23.1760372462064
15.2435902168401 27.7912460519631 -0.491787897344738 4.17729709687663 32.2530353588374
-19.4909459621748 26.1739502434914 -0.759593187978015 0.464144121875182 5.86478396980055
-5.81916643417603 32.0949248701156 1.26598864663002 3.71315297500145 21.6771234336796
-3.53184168733546 32.3313860211647 2.78517502258605 3.71315297500145 21.6771234336796
0.759387505019798 32.6250820147076 -0.759593187978015 3.71315297500145 21.6771234336796
2.02338699096862 32.5445480149946 1.51918637595603 3.71315297500145 21.6771234336796
3.03828134826575 32.5000671540698 -0.253197729326004 3.71315297500145 21.6771234336796
0.759501780206662 32.6299915468227 -0.506395458652007 3.86786768229318 28.1888338146901
2.02064008382981 32.5003662288753 2.27877956393404 3.86786768229318 28.1888338146901
3.29117438089552 32.472470840612 0.506395458652007 3.86786768229318 28.1888338146901
4.55413025283341 32.2987120183953 1.26598864663002 3.86786768229318 28.1888338146901
17.0536248370283 26.9158314178067 7.08953642112812 3.86786768229318 28.1888338146901
14.7820048854445 29.3444547712759 2.55632322877216 3.71315297500145 99.0617902982208
16.5980964102894 28.4304441474184 -1.5337939372633 3.71315297500145 99.0617902982208
16.611601672308 28.4535769566288 -0.76689696863165 3.86786768229318 130.013406080171
14.772607057605 29.3257987001866 2.81195555164938 4.02258238958491 13.0193230122786
16.616100987019 28.4612837148275 -0 4.02258238958491 13.0193230122786
16.5038566427467 28.8597318497685 -1.29033458214214 3.71315297500145 124.563422076688
16.7698074025205 28.7245634038348 -0.774200749285285 3.86786768229318 167.927103211384
16.7723309795637 28.7288859727853 0.516133832856853 4.02258238958491 15.8588529085415
16.6640700558418 29.1398915870196 -1.04200603991856 3.71315297500145 19.1107283059424
16.6700903553051 29.1504190795886 -0.521003019959276 3.86786768229318 25.7214606708448
14.8906569901916 30.8780175180955 6.21551733624316 3.55843826770973 5.18469807235559
15.0418614719555 33.3543242299197 3.1333219004093 3.24900885312627 17.5232144614513
15.0418614719555 33.3543242299197 3.1333219004093 3.403723560418 8.01379791947858
16.5087221665211 32.7722426491723 1.42423722745877 3.403723560418 8.01379791947858
-17.0680911073794 33.1610806401199 5.25872207061701 1.23771765833382 9.66687877876702
4.92320271449096 37.0098150517563 4.96657084447162 1.23771765833382 9.66687877876702
-17.0487046314474 33.1234152393633 5.55087329676241 1.39243236562554 11.9073823478757
-10.6787307586099 35.643441681411 5.84302452290779 1.39243236562554 11.9073823478757
-7.87301354457704 35.384886655377 10.2252929150886 1.39243236562554 11.9073823478757
4.91792455636356 36.9701368854411 5.25872207061701 1.39243236562554 11.9073823478757
4.96924220328397 37.3559135295401 4.71337311514562 1.23771765833382 40.3576824845073
4.96422940377838 37.3182301771876 5.00795893484222 1.39243236562554 49.6245670320135
6.76547909855132 37.3142005533801 2.06210073787621 1.39243236562554 49.6245670320135
5.91874568482041 37.690935567501 3.26722454572594 1.23771765833382 33.1466664159089
6.81480297503178 37.5862405659575 2.67318371923032 1.23771765833382 33.1466664159089
6.81480297503178 37.5862405659575 2.67318371923032 1.39243236562554 39.7849081324296
14.8398475119037 35.2687727082129 1.48510206623906 3.09429414583454 7.60005048839352
16.6251353127207 34.4747192662513 -1.18808165299125 3.09429414583454 7.60005048839352
14.9614856062636 35.5578610090999 1.49727503399512 3.09429414583454 6.47131109910624
16.7614069136446 34.7572989323682 -1.1978200271961 3.09429414583454 6.47131109910624
-15.8814213790198 42.6375290459244 1.05904819477704 2.32072060937591 12.9387823296585
-14.0593403180811 43.0777161859529 4.23619277910815 2.32072060937591 12.9387823296585
14.4736586619528 43.1487336566923 -0 2.32072060937591 12.9387823296585
14.4666904909433 43.1279602114987 1.41206425970272 2.47543531666763 21.9216861434772
14.5730385823067 43.4450041308224 -0.35545065847689 2.32072060937591 40.451449108373
15.6379469104089 43.0687522266895 0.710901316953779 2.32072060937591 40.451449108373
14.5730385823067 43.4450041308224 0.35545065847689 2.47543531666763 70.7105180657567
14.5717232574265 43.4410828967892 0.710901316953779 2.63015002395936 8.47599310624182
14.314979429329 43.8609925581882 0.357885252028101 2.32072060937591 12.6494944653351
15.7450561358227 43.3637436802969 0.715770504056202 2.32072060937591 12.6494944653351
14.6728539150622 43.7425726522663 0.357885252028101 2.47543531666763 35.1934223491817
15.7393699067151 43.3480831339387 1.43154100811241 2.47543531666763 35.1934223491817
14.6693220921612 43.7320436153975 1.07365575608431 2.63015002395936 5.02278544856153
15.7298882903666 43.3219696429822 2.14731151216861 2.63015002395936 5.02278544856153
13.9490905740164 45.2223969274786 2.57336538363064 2.32072060937591 11.1836234927342
14.0584045801101 45.5767885881444 1.11017465935248 2.32072060937591 27.0007036499964
17.0098711152838 44.5348806286873 1.8502910989208 2.32072060937591 27.0007036499964
14.041468657288 45.5218829998461 2.59040753848912 2.47543531666763 6.69182175048356
15.6404618822346 45.3904117109269 1.11747844000612 2.32072060937591 10.5498884013791
17.1217781620948 44.8278732644023 1.86246406667686 2.32072060937591 10.5498884013791
-6.42697636459508 48.3143230920701 7.26239256326415 2.16600590208418 8.640153784364
14.1408520551939 47.199301766119 -0.764462375080434 2.16600590208418 8.640153784364
16.7857611807663 46.2299682543112 3.05784950032175 2.16600590208418 8.640153784364
-6.44119021812567 48.4211746927144 6.49793018818371 2.32072060937591 6.20453679209884
-4.88214532433019 48.16983342001 9.17354850096523 2.32072060937591 6.20453679209884
13.7599087983959 47.3163924655933 0.382231187540217 2.32072060937591 6.20453679209884
13.8413011795602 47.5962775947252 1.53866312436572 2.16600590208418 18.0925188477413
16.8840022389241 46.5005357281953 3.46199202982287 2.16600590208418 18.0925188477413
13.8375496143784 47.5833770346196 1.92332890545715 2.32072060937591 12.6452424831309
16.7513096079229 48.6142190381522 2.39564005439219 2.01129119479245 8.50473683380842
15.1609720810138 49.1512685802727 1.9963667119935 2.16600590208418 6.90761626176803
16.7614069136447 48.6435225758184 1.5970933695948 2.16600590208418 6.90761626176803
13.9381609446631 50.9800039134804 4.52590941170233 2.01129119479245 15.7033479587152
16.8687912356838 50.2890801240341 0.411446310154756 2.01129119479245 15.7033479587152
14.0448320244397 51.3701624204781 3.31104722964775 1.85657648750073 5.88128697049662
16.5547381155506 50.723596836 -0.413880903705967 1.85657648750073 5.88128697049662
14.0206352697795 51.2816607413708 4.55268994076566 2.01129119479245 31.8886150295214
16.5552361482387 50.7251228045239 -0 2.01129119479245 31.8886150295214
13.9887336685295 51.1649779334287 5.79433265188356 2.16600590208418 12.3253906982087
16.553243927581 50.71901865496 0.827761807411935 2.16600590208418 12.3253906982087
16.652118927995 51.0219709350353 0.416315497257179 2.01129119479245 6.84731141928037
13.9881156964827 52.8271666527466 5.53870032900634 1.85657648750073 12.0319022222349
13.9987397132618 52.867289047863 5.11264645754432 2.01129119479245 12.4506339848192
16.6156011233283 52.3525968414065 0.426053871462025 2.01129119479245 12.4506339848192
14.0885553022282 53.2064843468796 4.71337311514562 1.85657648750073 10.2790481598354
16.7105474154616 52.6517545376431 0.428488465013237 1.85657648750073 10.2790481598354
14.0787325116232 53.1693878424222 5.14186158015886 2.01129119479245 16.7606074460399
16.7090391645465 52.6470023260614 0.856976930026473 2.01129119479245 16.7606074460399
13.3304403194222 62.2398299930329 6.95319918226028 1.701861780209 12.9033969893361
16.3817931682137 61.8670689137675 1.98662833778865 1.701861780209 12.9033969893361
13.3304403194222 62.2398299930329 6.95319918226028 1.85657648750073 5.4687625866567
13.3957856151057 62.5449271988811 6.98728349197724 1.701861780209 7.33030959641523
16.45763416689 62.1534881258413 2.49545838999187 1.701861780209 7.33030959641523
8.19385574415262 6.33394746730995 0.160683174379964 2.38789936385784 5.265029792773
5.09724306394639 9.69402858912076 -0.852107742924053 -0.31146513441624 5.17286767335258
5.02743568325191 9.76765351535141 -0 -0.20764342294416 9.85736927335355
7.59385409438491 7.7886469233365 1.53379393726329 0.20764342294416 6.25560581145704
5.25808924758457 9.9999287557556 -0.175290735687233 -0.20764342294416 12.5578797585733
7.81920431125035 8.01977768400782 1.48997125334149 0.20764342294416 6.08642130929805
6.19828871208702 10.1896927538952 -0.0925145549460397 0.10382171147208 5.96474007042039
-10.8998304128437 8.86906152413737 -1.42423722745877 1.5573256720812 5.6404838107893
-10.4050691793578 9.54575918125822 -0.328670129413564 1.5573256720812 5.6404838107893
-7.47686834472376 11.8007831075747 -2.0815774862859 1.5573256720812 5.6404838107893
-1.63064583724681 13.9198892588791 -1.75290735687234 1.5573256720812 5.6404838107893
-1.29169939987178 13.8171263377787 -2.62936103530851 1.5573256720812 5.6404838107893
-10.9157195006934 8.88199028471105 -1.20512380784973 1.66114738355328 52.9731074060939
-10.9226637084566 8.88764070343825 -1.09556709804521 1.76496909502536 36.3365010038039
-7.49340413161492 11.8268816324676 -1.86246406667686 1.76496909502536 36.3365010038039
-1.77621431267909 14.2014216723872 -1.90385215704746 1.5573256720812 33.9258211761965
-1.77621431267909 14.2014216723872 -1.90385215704746 1.66114738355328 328.135639545047
-1.7780079055017 14.2157620410018 -1.79186085369172 1.76496909502536 205.325841986641
-1.81482766730255 14.5101482304825 -1.94524024741805 1.5573256720812 41.007872410289
-1.81482766730255 14.5101482304825 -1.94524024741805 1.66114738355328 352.237611688082
-1.81666025127348 14.524800346241 -1.83081435051111 1.76496909502536 212.857621275254
-2.91271032225508 14.7353814653517 -1.16860490458156 1.5573256720812 9.32904093165553
-1.97126963436058 14.8188747885779 -1.86976784733049 1.5573256720812 9.32904093165553
-1.85145395063099 14.8029874955006 -2.1034888282468 1.66114738355328 55.6171783468927
-1.85145395063099 14.8029874955006 -2.1034888282468 1.76496909502536 35.4429342391717
-1.88787915692864 15.0942190830653 -2.26660659617798 1.66114738355328 14.1260905967471
-1.89205437654947 15.1276013466733 -2.02801642815925 1.76496909502536 14.452687120702
-1.93066773117292 15.4363279047687 -2.06940451852984 1.66114738355328 11.2899488435469
-1.93444690123314 15.4665436209768 -1.82594516340869 1.76496909502536 10.4517816744083
16.5918385643345 25.1471187873148 -6.20334436848711 0 9.82078499725883
