VERSION .7
FIELDS x y z velocity intensity
SIZE 4 4 4 4 4
TYPE F F F F F
COUNT 1 1 1 1 1
WIDTH 939
HEIGHT 1
VIEWPOINT 0 0 0 1 0 0 0
POINTS 939
DATA ascii
5.718550 -0.650866 8.068240 -10.478400 1.990000
5.780570 -0.650866 8.023930 -10.300800 1.320000
5.967190 -0.679165 8.419030 -10.478400 3.650000
6.370570 -0.607701 8.665640 -10.389600 3.050000
7.240790 1.679020 11.098900 -10.744800 5.220000
6.761840 -1.606190 11.909200 -11.188800 7.370000
7.125720 -1.606190 11.695100 -11.011200 6.720000
-7.643940 1.817760 11.331200 -10.300800 6.970000
6.973150 -1.656390 12.281300 -11.188800 9.810000
-7.972640 1.874570 11.624200 -10.300800 6.650000
7.378640 -1.706580 12.541300 -11.100000 10.640000
7.844350 -1.886450 12.229000 -10.922400 10.630000
7.547290 0.034982 13.057100 -11.100000 10.060000
8.044750 0.034982 12.756700 -10.922400 10.520000
7.866210 0.035982 13.370000 -11.100000 6.860000
8.274500 0.083957 13.121000 -10.922400 6.470000
-7.924270 1.857160 13.709300 -10.833600 5.230000
-0.888330 4.214470 15.350500 1.953600 3.320000
-8.042650 1.668250 14.165000 -10.833600 8.380000
-0.942932 1.315240 16.294000 1.953600 12.440000
-8.266390 1.453440 14.559000 -10.833600 7.930000
-0.967746 1.349860 16.722800 1.953600 16.480000
-0.992243 1.450870 17.146100 1.953600 16.670000
-1.015030 1.854300 17.540000 1.953600 13.220000
-1.141740 2.163710 17.931700 1.953600 9.210000
-8.189280 1.045250 16.587800 -11.188800 8.390000
-1.780290 0.887874 18.421600 1.953600 6.160000
-8.251060 0.967087 17.042600 -11.188800 5.750000
-1.603650 0.908522 18.869800 1.953600 6.090000
-1.751350 0.989067 19.285900 1.953600 4.540000
-1.257870 1.011050 19.755600 1.953600 5.980000
-6.776160 1.958470 18.523900 -11.721600 5.410000
-7.727340 0.766086 18.237000 -11.455200 6.820000
-1.285220 1.033030 20.185100 1.953600 7.670000
-6.952310 0.782740 19.005500 -11.721600 6.490000
-7.751480 0.782740 18.693800 -11.544000 7.940000
7.765900 0.991115 19.144300 -11.810400 5.970000
-7.914360 0.927217 19.086600 -11.544000 7.330000
-6.535240 1.891160 19.988000 -11.810400 4.350000
-7.974070 1.032410 19.988400 -11.632800 4.190000
-6.513020 2.238970 20.868800 -11.899200 6.960000
-6.665970 1.194820 21.358900 -11.899200 6.170000
-7.420430 1.217800 21.564200 -11.899200 6.490000
-7.390880 1.240780 22.028700 -11.899200 7.160000
8.611070 0.274854 22.078000 -11.988000 9.850000
8.637540 0.279851 22.529800 -11.988000 16.810000
8.792060 0.208891 22.932800 -11.988000 18.300000
8.946310 0.212556 23.335100 -11.988000 14.900000
-13.185400 2.042090 21.640500 -14.119200 7.240000
7.093780 -1.434170 24.371200 -12.254400 8.230000
8.917330 0.216221 23.806900 -11.899200 9.640000
-14.086800 1.937200 21.592600 -13.852800 8.920000
7.357150 -1.458480 24.742200 -12.254400 8.610000
-12.955100 1.563950 22.817000 -14.385600 5.930000
-14.151900 1.969480 22.062200 -13.852800 8.610000
6.112420 -1.482790 25.521300 -12.254400 7.630000
-12.988400 1.589580 23.291800 -14.474400 4.000000
-16.264900 2.145920 21.085100 -11.899200 10.290000
8.573040 -3.245560 25.552200 -0.888000 5.570000
-16.361600 2.180540 21.551900 -11.988000 9.040000
7.449090 -3.297080 26.347000 -0.888000 9.190000
7.565480 -3.348590 26.758700 -0.799200 11.200000
-12.557100 2.043200 25.435100 -14.740800 6.070000
18.498800 1.670420 26.971500 -10.656000 8.170000
18.742200 1.692400 27.326400 -10.656000 9.100000
18.985600 1.714380 27.681300 -10.656000 15.160000
9.362820 -2.699710 32.166700 -12.254400 10.020000
19.229000 1.736360 28.036200 -10.656000 15.980000
-14.559400 2.445640 30.673100 -13.142400 8.420000
9.482850 -2.734320 32.579100 -12.343200 12.360000
5.274300 -2.734320 33.518700 -12.343200 12.290000
18.588000 1.758340 28.977800 -10.833600 9.390000
-14.743700 2.476600 31.061400 -13.142400 7.920000
18.820300 1.780320 29.340000 -10.833600 8.970000
-14.931300 2.399880 31.456500 -13.142400 14.260000
19.052700 1.802300 29.702300 -10.833600 14.320000
-14.206300 1.693160 32.307800 -13.408800 14.880000
-15.115600 2.429510 31.844800 -13.142400 14.970000
19.288000 1.713800 30.069100 -10.833600 8.020000
-14.379600 1.713800 32.701700 -13.408800 11.690000
-14.556900 1.510790 33.104900 -13.408800 8.950000
16.652800 0.651301 32.615400 -10.567200 7.720000
-14.987900 1.528780 33.384500 -13.408800 9.130000
16.848700 0.658963 32.999100 -10.567200 5.850000
-6.174700 1.600720 37.815900 -12.432000 14.320000
19.392900 1.498860 33.550500 -11.188800 6.450000
-6.024360 1.379010 38.285400 -12.432000 15.240000
19.608400 1.515520 33.923300 -11.188800 5.490000
-6.091940 1.273130 38.714900 -12.432000 9.320000
19.230000 1.672660 35.118500 -11.277600 11.750000
19.436800 1.690650 35.496100 -11.277600 7.740000
19.643600 1.708630 35.873800 -11.277600 11.750000
19.362000 1.598790 36.520300 -11.366400 13.580000
19.563700 1.615440 36.900800 -11.366400 10.800000
19.765400 1.632100 37.281200 -11.366400 6.870000
19.676200 1.648750 37.814400 -11.366400 11.590000
-21.691700 -1.291160 38.204200 -10.744800 5.930000
-19.868600 -1.303810 39.665600 -11.100000 4.990000
-21.606400 -1.303810 38.746400 -10.922400 5.600000
-19.829700 -1.316470 40.166000 -11.100000 6.770000
-9.678700 2.028290 44.150600 -12.254400 9.030000
-14.188400 1.341790 43.395100 -12.609600 5.600000
-9.427070 2.047600 44.645000 -12.254400 8.620000
-14.322200 1.354450 43.804500 -12.609600 5.320000
19.618500 1.654810 42.167400 -11.632800 8.600000
19.800200 1.670130 42.557800 -11.632800 7.750000
19.981800 1.685450 42.948200 -11.632800 12.320000
20.163500 1.700770 43.338700 -11.632800 8.800000
-19.251200 -1.016410 44.712900 -11.455200 7.550000
-19.421600 -1.025400 45.108500 -11.455200 4.730000
-19.594100 -0.727936 45.509200 -11.455200 5.220000
-21.225200 -3.155330 45.620600 -11.277600 9.660000
19.936300 0.428776 46.304000 -11.810400 7.720000
-18.283400 -3.155330 46.877100 -11.544000 6.770000
20.105300 0.746926 46.696400 -11.810400 5.010000
23.663700 1.070380 45.477700 -11.366400 8.120000
20.275600 0.753256 47.092200 -11.810400 9.740000
-17.965800 -2.457140 47.963900 -11.632800 6.570000
-21.781100 -2.757290 46.815600 -11.277600 9.530000
-19.576500 -2.498440 48.259500 -11.544000 7.910000
20.132700 0.934808 48.552900 -11.810400 7.470000
20.296500 1.106360 48.947900 -11.899200 7.240000
-14.372900 -4.571690 56.628300 -12.165600 7.630000
20.856000 0.873524 55.679900 -11.988000 9.470000
21.007100 0.879853 56.083400 -11.988000 8.060000
-19.182200 1.585680 57.173000 -11.899200 8.440000
-19.320400 1.456120 57.584800 -11.899200 7.710000
-19.457400 1.466450 57.993200 -11.899200 7.410000
-16.762500 -0.905173 59.288000 -11.988000 8.660000
-16.881500 -0.143927 59.708900 -12.076800 7.650000
-17.808100 0.144926 59.888800 -11.988000 8.690000
-28.347700 1.611030 60.929400 -11.277600 15.680000
-28.999500 1.778220 61.094700 -11.277600 15.370000
-28.711100 1.631680 61.710600 -11.277600 8.850000
-16.058100 0.000000 67.047800 -12.165600 5.120000
-16.158500 0.000000 67.466900 -12.165600 8.990000
15.764700 1.004470 85.158200 -12.520800 6.350000
15.843600 0.740281 85.584500 -12.520800 4.770000
16.720700 2.068800 97.664400 -12.520800 5.270000
-17.397900 6.873730 98.203000 -12.343200 8.390000
-17.472800 6.903360 98.626300 -12.343200 6.410000
-17.547800 6.932990 99.049600 -12.343200 5.680000
-17.051100 6.650150 99.593800 -12.343200 9.630000
17.391600 7.102930 106.512000 -12.520800 6.060000
29.315600 0.659994 118.367000 -12.343200 12.560000
29.418500 1.040790 118.782000 -12.343200 8.550000
29.522100 1.044460 119.201000 -12.343200 7.640000
19.959200 1.092100 126.843000 -12.520800 8.090000
20.026600 0.697308 127.271000 -12.520800 6.320000
20.093900 0.000000 127.699000 -12.520800 6.890000
-61.272600 -14.608300 124.111000 -11.100000 9.480000
-62.180900 -14.653500 124.138000 -11.100000 7.540000
-8.339330 1.227690 144.105000 -12.609600 9.360000
-8.364230 1.231360 144.535000 -12.609600 8.360000
-8.389300 0.785929 144.969000 -12.609600 6.570000
-8.439090 0.790593 145.829000 -12.609600 5.840000
-9.254530 0.788261 145.348000 -12.609600 5.660000
-7.685450 1.257010 147.593000 -12.609600 5.590000
-8.563380 1.260680 147.977000 -12.609600 9.510000
-8.588270 1.264340 148.407000 -12.609600 8.380000
-8.613160 1.268010 148.837000 -12.609600 6.630000
26.661800 2.430670 163.285000 -12.520800 4.420000
25.784400 2.437000 163.862000 -12.520800 6.860000
26.800600 2.443330 164.136000 -12.520800 8.330000
26.870000 2.449660 164.561000 -12.520800 8.590000
20.045500 4.029650 191.957000 -12.609600 9.900000
20.090200 4.038650 192.386000 -12.609600 8.860000
20.135000 4.047640 192.814000 -12.609600 5.130000
5.898690 -1.033020 4.218810 -7.370400 3.960000
6.096020 -1.093780 4.669130 -7.725600 3.940000
6.431710 -0.742483 4.270890 -6.837600 1.460000
5.655550 1.602120 7.979350 -10.034400 3.280000
6.310990 1.671780 8.020300 -9.856800 3.230000
6.493160 1.741430 8.417430 -9.945600 7.570000
6.259080 -0.502242 9.278350 -10.389600 9.570000
6.425360 -0.521559 9.685020 -10.389600 5.830000
8.245160 -0.341777 8.201070 -8.880000 6.820000
8.550530 -0.354435 8.504810 -8.880000 6.800000
7.088630 -1.672820 12.711900 -10.922400 3.930000
7.203410 -1.582940 13.155100 -10.833600 7.320000
7.404240 -1.723550 13.521900 -10.833600 6.140000
7.645130 0.899397 13.961800 -10.833600 5.050000
7.840050 1.505210 14.787800 -11.011200 6.580000
-7.833710 0.559617 15.342700 -10.833600 6.780000
-8.029550 0.573607 15.726300 -10.833600 4.470000
7.388300 1.453690 16.456900 -11.277600 9.920000
-8.118480 1.011010 17.103600 -10.922400 5.590000
-8.438590 0.989067 17.430000 -11.011200 5.650000
18.122500 1.511040 12.338200 -7.192800 5.470000
-6.975070 1.485960 19.414800 -11.455200 6.440000
18.477800 1.540660 12.580200 -7.192800 3.210000
-7.388660 1.451780 19.725800 -11.366400 9.080000
18.833200 1.570290 12.822100 -7.192800 6.240000
7.844750 1.646620 20.461900 -11.632800 12.570000
7.998570 1.678900 20.863100 -11.632800 6.270000
-6.195880 1.711190 21.914500 -11.721600 5.990000
18.187300 1.361250 15.800200 -8.347200 5.960000
-6.322340 1.186880 22.361700 -11.721600 5.250000
18.361600 1.252820 16.264700 -8.436000 7.310000
-7.051400 1.208860 22.593900 -11.632800 6.260000
18.683800 1.274800 16.550000 -8.436000 4.290000
-6.868680 1.230840 23.099400 -11.721600 5.950000
-6.994340 1.025180 23.522000 -11.632800 7.200000
8.765920 0.289846 23.402700 -11.632800 10.760000
18.599500 1.645090 18.500000 -8.880000 8.160000
8.917330 0.216221 23.806900 -11.632800 9.850000
18.904400 1.672050 18.803300 -8.880000 9.180000
9.068470 0.219885 24.210400 -11.632800 7.980000
6.318900 -0.965305 26.383400 -11.988000 9.470000
7.463410 -0.411442 26.992700 -11.810400 11.520000
9.252710 -0.417772 26.888900 -11.721600 7.200000
7.404470 -2.285840 28.257900 -11.899200 5.920000
8.064420 -2.319460 28.523400 -11.810400 10.270000
18.888700 1.725870 24.004700 -9.945600 5.070000
8.395880 -2.701660 28.844700 -11.810400 5.730000
19.154800 1.750180 24.342800 -9.945600 6.610000
9.445510 0.949380 30.891800 -11.899200 5.000000
9.571450 0.962038 31.303700 -11.899200 7.780000
9.014090 1.769260 31.882300 -11.899200 6.730000
19.015200 1.631210 28.187900 -10.478400 8.640000
8.945400 1.714380 32.352500 -11.988000 4.140000
19.255900 1.651860 28.544700 -10.478400 5.680000
8.614800 1.920330 32.877000 -11.988000 9.110000
19.496600 1.672510 28.901500 -10.478400 7.540000
6.460450 1.944640 33.805300 -12.076800 6.760000
6.343240 1.968950 34.265100 -12.076800 6.200000
19.058400 1.603310 30.221200 -10.656000 6.880000
19.288000 1.622630 30.585300 -10.656000 7.190000
19.517700 1.641950 30.949400 -10.656000 5.790000
19.752400 1.432250 31.321600 -10.656000 7.610000
19.239200 1.680580 32.131000 -10.744800 8.790000
9.858240 2.204910 35.654000 -11.988000 8.090000
19.460300 1.699900 32.500300 -10.744800 8.720000
9.972870 2.230550 36.068500 -11.988000 6.850000
19.681400 1.719210 32.869700 -10.744800 8.540000
19.085300 1.394330 34.225400 -11.011200 11.440000
19.295000 1.409650 34.601500 -11.011200 4.500000
-5.858850 0.827518 39.198700 -12.076800 14.840000
19.231300 1.690650 35.607900 -11.011200 13.750000
19.435900 1.708630 35.986700 -11.011200 7.870000
19.642900 1.598790 36.370000 -11.011200 8.140000
19.847500 1.615440 36.748900 -11.011200 6.820000
19.381800 1.780580 37.960200 -11.100000 12.580000
19.574900 1.931700 38.338500 -11.100000 7.080000
-21.270900 -1.496970 40.879100 -10.744800 8.190000
-20.399700 -1.496970 41.320700 -10.833600 6.340000
-9.344250 1.798640 45.553900 -11.988000 13.170000
-9.429600 1.960430 45.970000 -11.988000 5.130000
-9.516110 1.978420 46.391800 -11.988000 7.380000
-8.970350 1.996400 46.938800 -11.988000 8.100000
9.962010 -2.014390 47.178400 -12.076800 4.980000
10.051000 -2.032370 47.599700 -12.076800 7.330000
19.766100 1.291190 44.951800 -11.455200 6.230000
19.939500 1.302520 45.346100 -11.455200 10.090000
20.111200 1.468370 45.736500 -11.455200 6.960000
10.792000 -1.325170 49.228900 -12.076800 7.160000
20.282600 1.636880 46.126300 -11.455200 6.100000
11.552900 -1.336500 49.498300 -12.076800 6.700000
20.338200 0.927146 47.999600 -11.455200 9.480000
11.638200 2.212230 51.659800 -12.076800 14.320000
20.460100 1.280560 49.342500 -11.544000 13.530000
20.625100 1.290890 49.740400 -11.544000 7.880000
20.790100 1.301210 50.138300 -11.544000 6.880000
20.037300 1.151330 51.373900 -11.544000 7.520000
20.192400 1.332190 51.771700 -11.544000 10.750000
20.349000 1.342520 52.173000 -11.544000 7.620000
11.429300 -0.131933 55.718500 -12.076800 6.690000
11.840200 -0.132932 56.073100 -12.076800 6.760000
14.198700 -1.696230 55.941900 -12.076800 5.450000
11.161400 -1.696230 56.626200 -12.165600 6.150000
11.244600 -1.708880 57.048800 -12.165600 10.440000
-18.673400 1.466450 58.250300 -11.632800 11.140000
-18.804900 1.476770 58.660500 -11.632800 9.420000
-19.277600 1.487100 58.960300 -11.632800 7.940000
-16.646200 1.497430 60.203600 -11.721600 7.610000
20.811600 0.924163 59.362200 -11.810400 7.550000
21.414200 0.930493 59.605500 -11.810400 7.560000
-28.533100 1.202990 61.327900 -11.011200 7.530000
-28.714800 1.210650 61.718600 -11.011200 6.180000
-28.894800 1.430170 62.105500 -11.011200 7.730000
-28.714800 1.439160 62.663100 -11.011200 8.110000
-28.897500 1.019110 63.061700 -11.011200 12.650000
-2.270490 1.936790 73.623400 -12.254400 6.020000
-3.281770 2.406350 74.003000 -12.254400 11.790000
-0.510583 1.024460 88.327100 -12.254400 5.600000
-17.708400 6.050670 99.955700 -11.988000 6.780000
-17.460900 7.131230 106.936000 -12.076800 4.700000
-17.530200 7.159530 107.361000 -12.076800 7.640000
-16.976100 7.187830 107.885000 -12.076800 5.370000
19.172100 1.103090 128.271000 -12.165600 5.690000
19.235200 1.509200 128.693000 -12.165600 5.210000
19.235800 1.106760 128.697000 -12.165600 7.010000
19.299500 1.110420 129.124000 -12.165600 5.870000
-62.564800 -14.743900 124.904000 -10.744800 4.920000
-62.776900 -14.355700 125.328000 -10.744800 6.610000
-62.948600 -14.834400 125.670000 -10.833600 6.730000
-64.003900 -16.949000 125.355000 -10.833600 5.400000
-8.339330 1.227690 144.105000 -12.254400 6.500000
-8.364230 1.231360 144.535000 -12.254400 7.900000
-8.388860 1.684100 144.961000 -12.254400 6.700000
-7.572870 2.139500 145.431000 -12.254400 11.920000
-8.438650 1.694100 145.821000 -12.254400 6.080000
-8.463800 1.246020 146.256000 -12.165600 11.260000
-7.730520 0.344824 148.459000 -12.254400 6.470000
-6.605160 0.345824 148.945000 -12.254400 6.090000
-6.624250 0.346823 149.375000 -12.254400 5.070000
-6.643340 0.347823 149.806000 -12.254400 5.560000
-6.662350 0.813915 150.234000 -12.254400 8.720000
20.133600 4.647190 192.801000 -12.254400 11.650000
20.178300 4.657510 193.229000 -12.254400 9.970000
20.223000 4.667840 193.658000 -12.254400 7.440000
5.540170 -0.596283 4.060020 -7.370400 4.440000
5.721930 -0.596283 3.799570 -6.926400 4.600000
5.793680 -0.633551 4.437560 -7.636800 5.480000
6.032470 -0.633551 4.107060 -7.104000 3.540000
6.079760 -0.670819 4.769190 -7.725600 2.670000
6.854860 1.009730 7.086130 -9.235200 7.040000
6.344390 -1.299890 8.062740 -10.034400 5.230000
7.095700 1.053630 7.449130 -9.324000 8.830000
6.462100 -1.354050 8.512020 -10.123200 6.410000
6.329500 -0.536854 9.228510 -10.300800 4.490000
6.957040 1.175900 8.702470 -9.856800 8.700000
6.424440 -0.557502 9.683630 -10.478400 5.300000
7.154760 1.221120 9.092590 -9.945600 8.040000
7.935960 -0.485611 8.493620 -9.235200 8.340000
7.124640 -0.941229 9.691370 -10.123200 8.670000
7.492200 1.266350 9.371890 -9.856800 8.630000
8.161760 -0.503597 8.871370 -9.324000 8.380000
7.459700 -0.897768 9.984960 -10.123200 8.280000
-7.916700 1.455610 9.558220 -9.412800 6.980000
-8.094050 1.505810 9.966260 -9.501600 8.970000
-7.715110 0.475674 12.445500 -10.300800 6.770000
7.508040 1.536550 12.989200 -10.833600 11.180000
-7.843040 0.489664 12.872400 -10.389600 7.640000
-8.067130 0.503655 13.240200 -10.389600 7.900000
-8.870400 0.323812 12.721900 -9.945600 10.100000
7.411600 1.580450 13.535300 -10.922400 7.480000
7.447150 -0.455702 13.600300 -10.922400 9.650000
8.292440 -0.835212 14.094400 -10.833600 10.910000
-7.491750 1.608710 14.956500 -10.833600 5.930000
-7.801850 1.649960 15.280300 -10.833600 4.900000
7.723660 1.556970 14.843600 -11.100000 7.500000
-7.996890 1.691210 15.662300 -10.833600 4.720000
7.921700 1.596890 15.224200 -11.100000 7.460000
-8.189470 1.788170 16.039500 -10.922400 5.590000
7.373680 1.843850 16.424400 -11.366400 4.710000
17.539900 1.582040 11.647100 -7.104000 6.990000
-6.941040 1.392520 18.974700 -11.455200 7.260000
17.759200 1.614330 12.090900 -7.281600 4.330000
-7.088720 1.422150 19.378400 -11.455200 6.510000
18.118500 1.578830 12.335600 -7.281600 6.320000
-6.960680 1.777320 19.854400 -11.544000 5.240000
18.477800 1.540660 12.580200 -7.281600 5.250000
-7.102730 1.813590 20.259500 -11.544000 3.320000
18.072000 1.834420 13.841900 -7.814400 4.050000
7.955420 1.900650 20.397000 -11.632800 5.830000
-7.244790 1.849860 20.664700 -11.544000 11.330000
18.416400 1.815230 14.105700 -7.814400 5.180000
-6.527160 1.937920 21.347300 -11.721600 8.270000
18.766100 1.702660 14.373600 -7.814400 12.470000
7.833210 1.288330 21.413600 -11.721600 6.630000
18.187300 1.361250 15.800200 -8.436000 9.270000
-6.918620 1.456310 22.168400 -11.632800 5.790000
18.349500 1.537210 16.253900 -8.524800 8.750000
-7.048080 1.410110 22.583200 -11.632800 5.300000
18.671400 1.564180 16.539100 -8.524800 5.520000
-7.018980 2.458470 22.955700 -11.632800 11.380000
18.989600 1.669610 16.820900 -8.524800 4.670000
18.484000 1.238890 18.034300 -8.880000 4.310000
8.584940 0.367133 23.468600 -11.721600 7.720000
18.611700 1.340730 18.512200 -8.968800 7.160000
8.732950 0.373463 23.873200 -11.721600 12.230000
8.880970 0.379793 24.277800 -11.721600 10.760000
6.650740 -1.563950 25.381400 -11.899200 12.120000
6.056550 -1.919370 25.949300 -11.899200 7.380000
18.982600 2.195490 22.212600 -9.679200 9.760000
9.019040 1.723300 30.985600 -11.988000 8.800000
9.321770 1.670420 31.349200 -11.988000 10.900000
18.771700 1.714380 27.826800 -10.478400 10.900000
6.659430 1.589910 32.465200 -12.076800 6.650000
19.012300 1.736360 28.183600 -10.478400 10.460000
9.382380 1.610560 32.233900 -11.988000 7.710000
19.253000 1.758340 28.540300 -10.478400 7.650000
9.061470 1.631210 32.772300 -11.988000 5.090000
19.493700 1.780320 28.897100 -10.478400 8.430000
9.176180 1.651860 33.187200 -11.988000 7.660000
19.508300 1.802300 29.405000 -10.478400 5.200000
19.290800 1.603310 30.073400 -10.656000 6.890000
19.520400 1.734450 30.431400 -10.656000 10.560000
19.514900 1.755100 30.945000 -10.744800 6.590000
19.241700 1.564750 32.135300 -10.833600 8.090000
19.462900 1.582730 32.504700 -10.833600 8.450000
19.350600 1.273130 34.080900 -10.922400 11.570000
19.563200 1.287120 34.455400 -10.922400 13.950000
19.773800 1.424970 34.826300 -10.922400 11.970000
-5.691620 1.301110 39.646100 -12.165600 5.970000
19.441400 1.440300 35.504600 -11.100000 6.000000
19.440500 1.455620 35.995300 -11.100000 11.940000
19.645200 1.470940 36.374200 -11.100000 10.220000
19.847500 1.615440 36.748900 -11.100000 15.210000
10.232700 1.291160 42.724500 -12.076800 10.720000
10.333000 1.303810 43.143400 -12.076800 13.990000
-22.023800 -1.468990 39.495000 -10.656000 8.730000
-21.069900 -1.624160 40.492800 -10.833600 7.350000
-22.245000 -0.247206 39.891600 -10.656000 10.440000
-20.945200 -2.066920 41.022200 -10.833600 4.740000
-22.111300 -0.827535 40.940400 -10.744800 13.710000
-21.999600 -0.399458 41.495300 -10.744800 10.600000
-8.727910 1.942450 45.670100 -11.988000 7.040000
-22.201400 -0.403123 41.876000 -10.744800 7.980000
-9.075010 1.960430 46.041300 -11.988000 6.380000
-9.158270 1.978420 46.463700 -11.988000 7.200000
-8.971470 1.848600 46.944600 -12.076800 7.440000
9.499440 0.265863 48.194600 -12.165600 7.130000
19.764400 1.443060 44.947900 -11.455200 4.870000
8.632090 -2.642400 48.724300 -12.165600 5.760000
19.937800 1.455720 45.342200 -11.455200 4.490000
20.111200 1.468370 45.736500 -11.455200 7.630000
19.998300 1.347820 47.197400 -11.544000 7.470000
20.167600 1.239250 47.596800 -11.544000 8.070000
20.335600 1.249580 47.993400 -11.544000 6.140000
-18.283500 1.249580 48.812100 -11.366400 10.100000
11.255800 0.772246 51.344900 -12.165600 5.870000
-18.054700 1.259900 49.356100 -11.544000 8.140000
11.348100 0.778575 51.765700 -12.165600 9.150000
-21.349800 -0.296181 50.387000 -11.188800 11.530000
20.431200 1.321870 51.214400 -11.632800 8.470000
20.590800 1.332190 51.614500 -11.632800 7.300000
20.750500 1.342520 52.014600 -11.632800 7.120000
19.947000 1.187310 53.253200 -11.721600 7.250000
20.847200 1.930680 55.656600 -11.721600 11.120000
20.385900 1.958660 56.743300 -11.810400 7.630000
20.533500 1.784830 57.154100 -11.810400 5.800000
20.679100 1.797490 57.559400 -11.810400 7.790000
-18.674700 1.277260 58.254400 -11.632800 9.220000
-18.806200 1.286250 58.664600 -11.632800 7.040000
-18.937700 1.295250 59.074800 -11.632800 5.650000
-17.808100 -0.144926 59.888800 -11.721600 6.780000
-16.707300 -1.376200 63.760700 -11.810400 8.180000
-28.892800 1.642010 62.101200 -11.011200 9.240000
-29.076600 1.439160 62.496100 -11.011200 7.230000
21.291000 -0.582696 65.118300 -11.899200 12.140000
-29.258300 1.448160 62.886700 -11.011200 16.180000
21.425600 0.159918 65.530100 -11.899200 15.600000
21.559500 0.160918 65.939700 -11.899200 14.740000
21.693500 0.000000 66.349400 -11.899200 16.170000
22.339800 -0.814567 66.584300 -11.899200 12.950000
-17.633300 6.025040 99.532200 -12.076800 5.310000
-17.708400 6.050670 99.955700 -12.076800 5.850000
-17.776500 6.706750 100.340000 -12.076800 6.360000
-16.779000 6.769120 106.632000 -12.076800 7.600000
-16.845800 6.796090 107.057000 -12.076800 7.650000
-17.537000 6.486530 107.402000 -12.076800 5.610000
29.518500 2.183770 119.186000 -12.076800 7.030000
29.622100 2.191430 119.604000 -12.076800 5.240000
29.728400 1.434240 120.033000 -12.076800 7.050000
30.529300 0.671655 120.283000 -12.076800 7.630000
19.107800 1.499200 127.841000 -12.254400 8.110000
19.171500 1.504200 128.267000 -12.254400 6.200000
19.235200 1.509200 128.693000 -12.254400 5.150000
-61.917700 -13.014700 125.418000 -10.833600 6.020000
-62.089500 -13.488400 125.766000 -10.833600 5.710000
-62.241100 -14.399600 126.073000 -10.833600 6.150000
-62.430900 -14.443500 126.457000 -10.833600 5.810000
-8.339330 1.227690 144.105000 -12.254400 7.170000
-8.364230 1.231360 144.535000 -12.254400 7.700000
-8.389120 1.235020 144.966000 -12.254400 10.320000
-7.573420 1.238690 145.442000 -12.254400 8.630000
-8.438910 1.242350 145.826000 -12.254400 12.250000
-7.618230 1.246020 146.302000 -12.254400 9.910000
-7.752830 0.806918 148.887000 -12.254400 5.000000
-7.775240 0.809251 149.318000 -12.254400 8.590000
-7.797650 0.811583 149.748000 -12.254400 9.270000
-7.820060 0.813915 150.178000 -12.254400 5.760000
6.204290 1.839990 8.612080 -10.300800 9.750000
6.452460 1.913590 8.956570 -10.300800 8.700000
6.410750 1.987190 9.503180 -10.478400 8.970000
8.281380 1.221120 8.079880 -8.968800 4.720000
7.052420 -0.027986 9.789360 -10.300800 7.960000
8.425060 1.266350 8.543050 -9.146400 5.910000
7.365430 1.234690 10.018900 -10.300800 4.230000
-7.924310 1.350000 9.567410 -9.412800 6.060000
-7.871580 1.008460 10.204300 -9.679200 5.620000
-8.474290 -1.342060 13.437800 -10.300800 8.930000
7.218820 -1.477130 14.138400 -11.188800 11.410000
-8.701590 -1.416170 13.798200 -10.300800 5.640000
7.413930 -1.517050 14.520600 -11.188800 9.490000
-7.411460 1.453440 15.012300 -11.011200 4.160000
7.493940 -1.556970 14.960900 -11.188800 7.520000
-7.482600 1.490710 15.455400 -11.011200 3.990000
7.606830 1.344610 15.408000 -11.277600 6.210000
-8.244360 1.527980 15.550400 -10.833600 7.010000
7.556150 1.269260 15.918900 -11.366400 4.030000
7.430280 1.602510 16.897800 -11.544000 3.770000
-7.474830 1.479070 17.361000 -11.188800 4.340000
-7.664040 0.629569 17.800500 -11.188800 3.420000
-7.082240 1.579920 18.907700 -11.455200 3.420000
-7.082240 1.579920 18.907700 -11.544000 5.840000
17.770900 1.414930 12.098800 -7.281600 8.320000
7.636710 1.741050 19.142700 -11.721600 4.840000
-7.383620 1.647150 19.712300 -11.544000 4.250000
-7.274160 1.148870 20.247300 -11.455200 8.450000
17.922400 1.640750 14.059000 -7.992000 6.880000
18.260600 1.671710 14.324300 -7.992000 7.280000
18.598700 1.702660 14.589500 -7.992000 7.130000
18.792900 1.733620 15.036600 -8.080800 10.290000
18.501600 1.613020 16.073200 -8.524800 4.760000
-7.051400 1.208860 22.593900 -11.721600 5.590000
18.667700 1.641310 16.535800 -8.613600 9.210000
-6.735030 1.230840 23.138700 -11.899200 6.890000
18.989600 1.669610 16.820900 -8.524800 9.840000
8.612880 0.588644 22.994100 -11.810400 6.000000
18.009300 1.061150 17.913000 -9.057600 5.790000
8.765920 0.289846 23.402700 -11.810400 9.500000
18.306600 1.318760 18.208700 -9.057600 6.770000
8.917050 0.294843 23.806200 -11.810400 15.910000
18.611700 1.340730 18.512200 -9.057600 10.090000
8.881610 0.219885 24.279600 -11.810400 17.240000
18.538500 2.074150 22.034500 -9.856800 10.240000
18.815100 2.105110 22.363300 -9.856800 12.070000
8.428760 1.654370 29.812000 -12.076800 10.900000
8.545830 1.677350 30.226100 -12.076800 4.950000
18.685800 0.474741 26.363600 -10.389600 8.700000
8.489180 1.429460 30.702500 -12.076800 5.730000
18.934000 0.582339 26.713700 -10.389600 12.830000
8.783630 1.448780 31.067200 -12.076800 6.920000
19.183100 0.590002 27.065200 -10.389600 12.430000
8.893920 1.948520 31.457300 -12.076800 10.820000
18.774500 1.610560 27.831100 -10.567200 7.590000
9.256320 1.974160 31.800800 -12.076800 11.600000
19.018000 1.526040 28.191900 -10.567200 6.610000
19.038100 1.545360 28.696400 -10.567200 13.860000
19.276100 1.564680 29.055100 -10.567200 15.610000
19.295800 1.382280 30.081200 -10.744800 6.640000
19.525800 1.510790 30.439800 -10.744800 10.790000
19.758300 1.528780 30.802200 -10.744800 12.870000
-6.470910 0.563359 37.796000 -12.165600 7.020000
19.087300 1.273130 34.229000 -11.100000 8.960000
-6.248850 0.569689 38.270000 -12.165600 7.350000
19.295000 1.409650 34.601500 -11.100000 9.980000
19.504800 1.424970 34.977600 -11.100000 10.820000
19.714500 1.440300 35.353700 -11.100000 14.050000
19.671100 1.912380 37.804600 -11.277600 8.870000
19.872500 1.798560 38.191600 -11.277600 13.070000
20.071200 1.816550 38.573500 -11.277600 8.070000
-9.517280 1.924460 45.072300 -12.076800 8.710000
-10.218900 1.942450 45.359800 -12.076800 9.420000
-10.666100 1.960430 45.698900 -12.076800 9.110000
-8.888340 2.124870 46.509600 -12.165600 7.030000
9.954820 -2.722500 47.144400 -12.165600 9.600000
10.045400 -2.596440 47.573400 -12.165600 11.280000
-19.740900 -2.549590 45.850200 -11.277600 5.900000
-20.266900 -2.571570 46.090600 -11.277600 6.200000
-18.451800 -2.593550 47.309000 -11.366400 8.900000
19.999500 1.228920 47.200100 -11.632800 6.870000
20.169000 1.079370 47.600100 -11.632800 5.120000
-30.464800 0.291517 44.418200 -10.034400 6.160000
20.274200 0.973120 50.820800 -11.810400 10.660000
20.433900 0.980782 51.221000 -11.721600 7.020000
20.593500 0.988444 51.621200 -11.721600 7.460000
20.351600 0.996107 52.179700 -11.721600 7.400000
20.965000 2.083830 54.684200 -11.810400 6.440000
21.119200 2.099150 55.086300 -11.810400 8.530000
-12.718800 -2.849460 58.018100 -11.988000 9.160000
21.275600 1.930680 55.494300 -11.810400 7.200000
-12.810900 -2.870100 58.438600 -11.988000 7.900000
20.387900 1.772180 56.748800 -11.810400 9.980000
20.535300 1.597000 57.159000 -11.899200 6.200000
-18.876000 1.456120 57.732000 -11.721600 11.320000
-19.009800 1.466450 58.141400 -11.721600 8.510000
-19.143700 1.476770 58.550800 -11.721600 8.160000
-19.277600 1.487100 58.960300 -11.721600 8.900000
-28.713100 1.421170 61.714900 -11.188800 6.870000
-28.894800 1.430170 62.105500 -11.188800 7.220000
-29.076600 1.439160 62.496100 -11.188800 6.840000
-29.258300 1.448160 62.886700 -11.188800 6.950000
21.929300 0.586361 65.360800 -11.988000 7.430000
22.065700 0.804572 65.767300 -11.899200 12.440000
21.693500 0.000000 66.349400 -11.988000 6.770000
16.865000 2.395880 98.506800 -12.254400 6.800000
16.937700 2.406210 98.931400 -12.254400 6.110000
-17.626500 6.650150 99.493600 -12.165600 7.530000
-17.701500 6.678450 99.917000 -12.165600 7.050000
-17.776500 6.706750 100.340000 -12.165600 7.720000
-16.775600 7.102930 106.611000 -12.165600 7.840000
-16.842500 7.131230 107.035000 -12.165600 8.560000
-16.909300 7.159530 107.460000 -12.165600 5.450000
29.522800 0.664658 119.203000 -12.165600 6.750000
28.702900 1.048120 119.844000 -12.165600 4.980000
28.803300 1.051780 120.263000 -12.165600 7.560000
28.903600 1.055450 120.682000 -12.165600 7.720000
20.091700 1.898960 127.685000 -12.343200 7.890000
20.157700 2.306370 128.104000 -12.343200 4.660000
20.223500 2.716420 128.522000 -12.343200 8.090000
19.296000 2.725410 129.100000 -12.343200 11.310000
-62.623400 -13.447200 125.021000 -10.833600 7.340000
-62.851600 -12.620600 125.477000 -10.833600 5.540000
-62.315200 -12.659200 126.223000 -10.833600 4.480000
-9.172390 0.781265 144.058000 -12.343200 5.840000
-8.364410 0.783597 144.538000 -12.343200 5.590000
-8.389300 0.785929 144.969000 -12.343200 6.180000
-7.572870 2.139500 145.431000 -12.343200 10.150000
-8.438300 2.145830 145.815000 -12.343200 9.910000
-8.463190 2.152160 146.246000 -12.343200 4.860000
-7.752930 0.345824 148.889000 -12.343200 6.660000
-7.775240 0.809251 149.318000 -12.343200 8.920000
-7.797650 0.811583 149.748000 -12.343200 8.200000
-7.820150 0.348822 150.180000 -12.343200 6.240000
5.911770 -0.335770 8.478610 -10.300800 5.450000
6.225980 -0.349760 8.784170 -10.300800 6.910000
6.184800 -0.597412 9.322420 -10.656000 9.110000
6.473600 -0.433005 9.133520 -10.389600 5.720000
6.422680 -0.620389 9.680970 -10.656000 8.830000
6.726140 -0.242859 9.489830 -10.389600 5.670000
6.660550 -0.643367 10.039500 -10.656000 4.160000
6.975260 -0.251853 9.841310 -10.389600 5.640000
8.605570 3.333030 7.772020 -9.146400 3.840000
7.367660 1.196220 10.021900 -10.300800 3.760000
-8.083440 1.157750 9.458870 -9.235200 2.780000
-8.210350 1.197670 9.912770 -9.324000 2.970000
6.540200 -1.176800 13.056800 -11.366400 6.690000
6.725330 -1.397280 13.426400 -11.366400 9.250000
7.177210 1.505210 15.120600 -11.455200 5.110000
-8.157740 1.543810 15.104600 -10.833600 7.860000
7.923950 1.543810 15.228500 -11.277600 5.470000
-8.361680 1.582400 15.482200 -10.833600 8.040000
-8.320140 1.621000 15.989900 -11.011200 3.850000
-8.565630 1.621000 15.859800 -10.833600 4.110000
-8.174390 0.689503 17.569700 -11.188800 8.150000
-8.252080 0.704826 18.008200 -11.188800 7.170000
-7.460330 2.187940 18.700600 -11.455200 4.670000
-7.471630 2.234490 19.156600 -11.455200 7.170000
-7.641360 1.891160 19.591800 -11.455200 5.710000
-7.702570 1.098960 20.091000 -11.544000 9.360000
-7.854340 1.239710 20.486900 -11.544000 10.050000
-8.128960 1.264020 20.842000 -11.544000 6.090000
-7.358660 0.989209 22.506400 -11.721600 6.100000
18.037300 1.286730 15.977400 -8.613600 4.760000
18.361600 1.252820 16.264700 -8.613600 5.650000
8.437520 0.208891 23.065600 -11.988000 5.280000
8.585550 0.212556 23.470300 -11.899200 7.090000
18.167900 1.434170 17.725800 -9.146400 5.950000
8.733580 0.216221 23.874900 -11.899200 12.050000
18.475800 1.458480 18.026300 -9.146400 7.380000
9.068470 0.219885 24.210400 -11.899200 17.560000
18.783700 1.482790 18.326700 -9.146400 11.290000
9.219810 0.142260 24.614400 -11.899200 17.640000
19.091700 1.507100 18.627100 -9.146400 12.590000
9.118110 -0.980627 26.008100 -11.899200 10.000000
6.922610 -2.074150 27.951200 -12.165600 7.200000
18.630500 0.936721 25.860800 -10.389600 4.710000
18.679700 0.949380 26.355000 -10.478400 5.400000
8.180990 1.648440 31.221400 -12.076800 6.330000
18.928800 0.962038 26.706400 -10.478400 9.560000
8.898100 1.670420 31.472100 -12.165600 6.090000
19.385800 0.974697 26.909200 -10.478400 8.890000
6.219990 1.692400 32.547100 -12.254400 8.310000
18.562200 1.506730 27.979000 -10.656000 4.870000
6.300770 1.714380 32.969800 -12.254400 9.250000
18.800100 1.526040 28.337700 -10.656000 7.910000
8.813170 1.210460 32.858200 -12.165600 8.930000
19.038100 1.545360 28.696400 -10.656000 14.000000
8.889370 -3.299920 33.142200 -12.165600 10.730000
19.276100 1.564680 29.055100 -10.656000 15.210000
8.806360 -3.341170 33.608000 -12.165600 11.540000
19.058400 1.584000 29.711100 -10.744800 12.000000
8.655120 -3.273630 34.100600 -12.165600 10.810000
19.058400 1.603310 30.221200 -10.833600 5.770000
6.212160 -3.313550 35.064800 -12.165600 8.470000
19.288000 1.622630 30.585300 -10.833600 12.370000
19.517700 1.641950 30.949400 -10.833600 5.750000
19.020600 1.546760 31.766000 -10.922400 11.010000
19.241700 1.564750 32.135300 -10.922400 6.110000
19.457500 1.817040 32.495700 -10.922400 6.000000
19.678600 1.837690 32.865000 -10.922400 9.190000
19.899700 1.858340 33.234200 -10.922400 6.900000
-5.629180 1.532170 39.211200 -12.254400 7.980000
-5.690370 1.548830 39.637400 -12.254400 4.990000
19.438300 1.582130 35.991200 -11.188800 7.410000
19.642900 1.598790 36.370000 -11.188800 7.740000
19.847500 1.615440 36.748900 -11.188800 7.860000
19.762900 1.762590 37.276600 -11.277600 11.940000
19.384200 1.648750 37.964900 -11.366400 15.410000
19.580000 1.665400 38.348400 -11.366400 14.340000
19.775800 1.682060 38.731900 -11.366400 12.010000
-22.119000 -1.177930 38.956700 -10.656000 13.520000
-21.493100 -1.189260 39.795700 -10.744800 4.940000
-23.601700 -3.881090 39.416800 -10.567200 6.730000
-9.953810 2.230010 45.405500 -12.076800 5.940000
-10.046000 2.250660 45.825900 -12.076800 7.150000
-9.158270 1.978420 46.463700 -12.165600 6.120000
-9.241530 1.996400 46.886100 -12.165600 11.060000
19.912600 1.700770 43.454500 -11.544000 10.430000
10.416100 -2.182820 47.514400 -12.254400 10.590000
12.709200 -2.505640 47.383800 -12.254400 11.980000
11.243100 -2.948420 48.171000 -12.343200 9.080000
-19.123600 -2.395200 46.119300 -11.366400 13.980000
20.275600 2.104320 46.110400 -11.632800 14.060000
-19.288500 -2.415840 46.516900 -11.366400 8.650000
-19.814300 -2.436490 46.763100 -11.366400 9.600000
-7.282830 -1.664860 50.730000 -12.343200 7.310000
-20.412000 -3.076610 47.408900 -11.277600 6.630000
20.169000 1.079370 47.600100 -11.721600 5.840000
-20.582100 -3.102250 47.804000 -11.277600 8.140000
20.338200 0.927146 47.999600 -11.721600 7.290000
20.242500 1.124350 49.901300 -11.721600 6.110000
20.404500 1.133340 50.300600 -11.721600 6.040000
20.432600 1.151330 51.217900 -11.810400 12.680000
20.592300 1.160320 51.618100 -11.810400 9.280000
20.750500 1.342520 52.014600 -11.810400 6.020000
13.247800 -0.307842 55.313600 -12.254400 14.550000
-17.357400 -1.495070 54.145000 -11.721600 13.130000
13.025800 -0.310174 55.808900 -12.165600 9.160000
20.506700 1.683570 53.488700 -11.810400 7.840000
11.601700 -0.669644 56.559100 -12.254400 8.140000
20.658900 1.874720 53.885700 -11.810400 6.240000
11.248700 -0.674641 57.069600 -12.343200 8.430000
20.123700 1.721540 55.012000 -11.899200 9.030000
20.698200 1.734200 55.258600 -11.899200 7.720000
20.849200 1.746860 55.661900 -11.899200 6.640000
21.002100 1.574350 56.070100 -11.899200 7.060000
-19.009800 1.466450 58.141400 -11.721600 8.070000
-19.143700 1.476770 58.550800 -11.721600 6.350000
-19.278900 1.295250 58.964400 -11.721600 7.040000
-19.414900 0.917833 59.380400 -11.721600 16.000000
-28.707000 2.000030 61.701700 -11.188800 11.470000
-28.891100 1.800880 62.097500 -11.188800 9.860000
-16.855000 0.000000 66.407500 -11.988000 8.660000
-29.074500 1.652330 62.491700 -11.188800 7.850000
-29.256300 1.662660 62.882300 -11.188800 6.330000
12.208400 2.574150 71.307900 -12.343200 6.540000
-6.583600 1.914140 72.498600 -12.432000 7.370000
16.862500 2.936750 98.492600 -12.343200 7.410000
16.936700 2.639020 98.925700 -12.343200 8.920000
16.243100 2.650340 99.478400 -12.343200 7.350000
-17.630000 6.337630 99.513400 -12.165600 7.660000
-17.701500 6.678450 99.917000 -12.165600 8.950000
-17.776500 6.706750 100.340000 -12.165600 7.180000
-17.851500 6.735050 100.764000 -12.165600 5.520000
-16.020200 6.796090 107.183000 -12.254400 5.260000
-16.080600 7.159530 107.587000 -12.254400 5.750000
29.624800 1.429240 119.615000 -12.254400 4.710000
29.728400 1.434240 120.033000 -12.254400 6.180000
29.833500 0.671655 120.458000 -12.254400 6.940000
19.170700 1.905290 128.262000 -12.343200 4.710000
19.235200 1.509200 128.693000 -12.343200 7.400000
19.299500 1.110420 129.124000 -12.343200 5.880000
-62.676500 -12.149300 125.127000 -10.922400 9.010000
-62.796500 -13.922100 125.367000 -10.922400 7.520000
-8.364410 0.783597 144.538000 -12.432000 7.180000
-8.389300 0.785929 144.969000 -12.432000 9.420000
-8.414200 0.788261 145.399000 -12.432000 7.250000
-8.436300 3.839600 145.781000 -12.432000 7.250000
-8.462260 3.058220 146.229000 -12.432000 10.170000
-7.752430 1.729080 148.880000 -12.432000 10.670000
-7.775240 0.809251 149.318000 -12.432000 8.310000
-7.797650 0.811583 149.748000 -12.432000 5.220000
-7.820060 0.813915 150.178000 -12.432000 6.970000
20.177100 5.108140 193.218000 -12.432000 5.280000
20.221900 5.119470 193.647000 -12.432000 9.370000
20.266600 5.130800 194.075000 -12.432000 8.420000
5.906480 -0.551457 8.471020 -10.567200 1.290000
5.841010 -0.551457 8.516290 -10.389600 1.640000
6.800470 -0.062968 9.439630 -10.478400 4.370000
7.052330 -0.065300 9.789250 -10.478400 5.710000
7.192770 1.196220 10.148200 -10.478400 4.150000
-8.137850 1.647350 9.338850 -9.412800 4.040000
-8.386350 0.689322 9.813320 -9.324000 3.530000
-8.555260 0.689322 9.666420 -9.235200 3.530000
7.267290 1.237590 11.139500 -10.744800 5.030000
6.951280 1.489660 11.814900 -11.011200 3.800000
7.501720 1.277510 11.498800 -10.744800 4.220000
7.074390 1.536210 12.239000 -11.011200 3.700000
6.635390 -1.312240 12.995800 -11.366400 7.300000
6.727240 -1.350830 13.430200 -11.366400 8.690000
7.503580 1.806970 13.456100 -11.366400 6.390000
7.417180 1.857160 13.990200 -11.277600 6.750000
-0.916301 1.624350 15.833800 1.953600 9.830000
-0.931583 -2.846670 16.097900 1.953600 16.750000
-8.066500 0.719424 15.214900 -10.922400 9.520000
-1.821070 2.166430 17.438700 1.953600 9.720000
-1.865490 2.219270 17.864100 1.953600 7.780000
7.384480 1.565240 16.448400 -11.632800 5.050000
-1.770200 2.158320 18.317200 2.042400 5.750000
7.560300 1.602510 16.840000 -11.632800 5.200000
-1.811370 2.208510 18.743200 2.042400 4.950000
-1.223290 -2.318260 19.212500 1.953600 3.940000
-7.082580 1.661360 19.361600 -11.632800 6.060000
-7.743580 1.852570 19.089300 -11.455200 6.620000
-7.394390 1.191090 19.741100 -11.721600 7.410000
-7.389820 1.215400 20.201500 -11.632800 6.380000
7.851440 1.375400 20.479300 -11.899200 9.100000
-7.265990 0.781437 20.725200 -11.721600 5.690000
17.362300 5.436490 14.506000 14.563200 5.370000
-6.916110 1.483270 22.619300 -11.899200 4.740000
18.012200 1.808050 15.955200 -8.791200 9.290000
-7.041860 1.510240 23.030600 -11.899200 6.640000
18.333900 1.840340 16.240100 -8.791200 9.520000
8.615050 0.208891 22.999900 -11.899200 10.090000
18.655500 1.872620 16.525000 -8.791200 6.670000
8.585550 0.212556 23.470300 -11.988000 9.380000
17.989600 1.591150 17.893400 -9.235200 14.790000
8.733580 0.216221 23.874900 -11.988000 6.260000
18.294500 1.618120 18.196700 -9.235200 17.590000
8.881610 0.219885 24.279600 -11.988000 11.270000
18.599500 1.645090 18.500000 -9.235200 15.770000
8.139550 -2.212580 24.894700 -11.988000 5.520000
8.282800 -1.836950 25.332900 -12.076800 6.860000
-12.869800 1.866570 23.829200 -14.385600 7.990000
8.416400 -1.866570 25.741500 -12.076800 6.370000
7.893810 -2.849290 25.816900 -0.532800 8.410000
-13.074000 1.896200 24.207400 -14.385600 9.770000
8.213600 -0.660933 26.317800 -12.165600 9.270000
-13.278300 1.925830 24.585600 -14.385600 8.670000
-14.857800 -2.939740 23.560200 -0.976800 9.910000
-16.716200 2.098630 22.375000 -11.988000 5.340000
-16.797800 2.130910 22.849400 -11.988000 7.050000
-12.542400 1.743410 26.423700 -14.829600 8.930000
7.009660 -2.895120 28.302700 -12.254400 6.280000
-12.726800 1.769050 26.812200 -14.829600 6.050000
18.664900 1.466020 24.196300 -10.212000 5.210000
18.927800 1.486670 24.537100 -10.212000 7.110000
18.556600 1.714380 27.970600 -10.744800 8.380000
18.797400 1.631210 28.333600 -10.744800 7.870000
7.918390 1.736360 33.061800 -12.343200 8.730000
19.038100 1.545360 28.696400 -10.744800 8.130000
7.807350 -2.901750 33.450600 -12.254400 9.940000
19.276100 1.564680 29.055100 -10.744800 5.920000
7.901210 -3.126210 33.852800 -12.343200 15.680000
18.831300 1.474820 29.861100 -10.922400 8.420000
-14.687800 2.320480 32.052500 -13.142400 16.490000
8.196720 -3.164810 34.223900 -12.343200 9.490000
19.058400 1.603310 30.221200 -10.922400 12.870000
-14.866900 2.348780 32.443400 -13.142400 7.030000
19.288000 1.622630 30.585300 -10.922400 7.200000
-15.241500 2.153630 32.759400 -13.142400 6.960000
19.520300 1.528780 30.953600 -10.922400 5.640000
-14.270900 1.868240 33.680200 -13.408800 13.410000
19.241700 1.564750 32.135300 -11.100000 9.480000
19.462900 1.582730 32.504700 -11.100000 7.510000
19.684100 1.600720 32.874100 -11.100000 4.740000
19.078200 1.757850 34.212700 -11.188800 11.270000
19.287800 1.777170 34.588600 -11.188800 9.400000
-5.629180 1.532170 39.211200 -12.343200 9.330000
19.497500 1.796480 34.964600 -11.188800 8.150000
19.164500 1.329090 36.147900 -11.366400 11.870000
19.647200 1.343080 36.378000 -11.366400 7.030000
19.851900 1.357070 36.757000 -11.366400 11.680000
19.386400 1.516910 37.969300 -11.455200 8.610000
19.580000 1.665400 38.348400 -11.455200 6.190000
19.775800 1.682060 38.731900 -11.455200 12.700000
-21.985500 -1.291160 38.035900 -10.744800 4.830000
-22.196600 -1.578200 38.401100 -10.744800 15.000000
-21.509700 -1.593520 39.281700 -10.744800 12.820000
-21.669200 -3.390090 39.573000 -10.833600 11.430000
-21.059000 -2.188710 40.471900 -11.011200 13.270000
-21.227100 -3.312460 40.795000 -10.922400 10.700000
-9.513180 2.351780 45.052900 -12.254400 6.760000
-21.742200 -3.343410 41.009900 -10.922400 6.520000
-9.602090 2.373760 45.473900 -12.254400 5.810000
-9.426980 2.250660 45.957300 -12.254400 9.190000
-9.155730 2.271310 46.450800 -12.254400 8.450000
19.735300 1.538950 43.067600 -11.632800 8.450000
-9.246390 1.257210 46.910800 -12.254400 6.990000
19.912600 1.700770 43.454500 -11.632800 12.500000
9.319640 -2.573470 47.282400 -12.432000 6.320000
20.092000 1.716100 43.846000 -11.632800 13.700000
9.393960 -3.347980 47.659500 -12.432000 12.890000
-11.041000 -3.347980 47.305100 -12.254400 9.670000
20.271400 1.731420 44.237500 -11.632800 9.070000
11.793900 -2.505640 47.619900 -12.432000 5.500000
19.766100 1.291190 44.951800 -11.721600 15.190000
19.939500 1.302520 45.346100 -11.721600 10.710000
-21.168400 -1.808030 46.194900 -11.277600 10.430000
-21.336800 -2.457140 46.562300 -11.277600 6.730000
20.003100 0.753256 47.208600 -11.810400 14.370000
-18.993500 -1.347820 47.610600 -11.544000 8.480000
-21.516100 -2.477790 46.953600 -11.277600 8.490000
20.171200 0.759586 47.605300 -11.810400 9.630000
10.768200 1.370480 50.996400 -12.432000 7.480000
20.337000 1.088370 47.996700 -11.810400 10.490000
10.857200 1.381800 51.417900 -12.432000 7.120000
-20.786800 -0.772246 48.279400 -11.455200 9.050000
19.917300 1.270230 49.099500 -11.810400 9.430000
20.079200 1.280560 49.498700 -11.810400 8.620000
20.241100 1.290890 49.897900 -11.810400 7.820000
-18.887900 1.290890 50.425700 -11.632800 9.930000
20.401900 1.427110 50.294100 -11.810400 8.310000
20.035900 1.321870 51.370300 -11.899200 11.580000
20.192400 1.332190 51.771700 -11.899200 7.320000
20.750500 1.342520 52.014600 -11.899200 7.660000
20.350600 1.846730 53.081500 -11.899200 8.370000
20.504700 1.860720 53.483600 -11.899200 10.390000
20.654400 2.231640 53.873900 -11.899200 8.680000
20.542300 -0.140928 57.178600 -11.988000 8.810000
-19.008700 1.608330 58.138000 -11.899200 10.030000
-19.142600 1.619660 58.547400 -11.899200 6.930000
-19.277600 1.487100 58.960300 -11.899200 6.640000
-19.072100 0.724615 59.494000 -11.899200 4.620000
20.811600 0.924163 59.362200 -12.076800 6.550000
-18.741400 0.729612 60.050600 -11.899200 8.450000
-29.097800 1.394190 60.101700 -11.188800 17.720000
-29.285500 1.403180 60.489400 -11.188800 15.270000
-28.352300 1.789550 61.871900 -11.277600 9.400000
-28.531700 1.800880 62.263500 -11.277600 5.170000
-29.072800 1.812200 62.488100 -11.277600 6.150000
15.259200 0.000000 86.131500 -12.520800 7.020000
16.001100 0.000000 86.435000 -12.432000 6.420000
16.079500 0.000000 86.858700 -12.432000 5.430000
16.865000 2.395880 98.506800 -12.520800 6.770000
16.937700 2.406210 98.931400 -12.520800 6.900000
-17.547800 6.932990 99.049600 -12.343200 5.960000
-17.622800 6.962620 99.472900 -12.343200 5.560000
-17.697800 6.992250 99.896100 -12.343200 6.460000
-17.772800 7.021880 100.319000 -12.343200 10.010000
19.138200 0.569041 103.382000 -12.520800 6.060000
19.216700 0.571373 103.805000 -12.520800 7.040000
19.292300 1.884940 104.214000 -12.520800 6.820000
29.626400 0.666990 119.621000 -12.343200 6.930000
29.729900 0.669322 120.040000 -12.343200 8.460000
29.833500 0.671655 120.458000 -12.343200 5.940000
19.170700 1.905290 128.262000 -12.520800 7.580000
20.225700 1.911620 128.536000 -12.520800 8.840000
-62.776900 -14.355700 125.328000 -11.011200 8.970000
-62.948600 -14.834400 125.670000 -11.011200 7.070000
-8.364530 0.000000 144.541000 -12.520800 5.910000
-8.389430 0.000000 144.971000 -12.520800 7.160000
-8.413750 1.689100 145.391000 -12.520800 6.630000
-8.438650 1.694100 145.821000 -12.520800 6.040000
-8.463540 1.699100 146.251000 -12.520800 7.350000
-7.752830 0.806918 148.887000 -12.520800 8.380000
-7.775240 0.809251 149.318000 -12.520800 4.660000
-7.797650 0.811583 149.748000 -12.520800 7.430000
-7.819890 1.279000 150.175000 -12.609600 7.470000
26.803400 0.385803 164.153000 -12.520800 6.610000
25.921100 0.386803 164.731000 -12.520800 8.180000
25.987800 0.904868 165.155000 -12.520800 7.020000
20.181900 2.854780 193.264000 -12.609600 7.690000
20.225700 3.463390 193.683000 -12.609600 7.680000
