VERSION .7
FIELDS x y z velocity intensity
SIZE 4 4 4 4 4
TYPE F F F F F
COUNT 1 1 1 1 1
WIDTH 863
HEIGHT 1
VIEWPOINT 0 0 0 1 0 0 0
POINTS 863
DATA ascii
-0.435788 0.274333 0.691035 0.000000 0.700000
-6.102430 1.486150 8.752050 -11.721600 2.800000
-5.860560 1.339440 9.453880 -12.254400 2.680000
-6.139560 1.476930 9.254220 -11.988000 3.770000
-6.416490 1.545600 9.052950 -11.721600 4.270000
-6.085970 1.390950 9.817490 -12.254400 4.200000
-6.375690 1.533740 9.610160 -11.988000 3.810000
-6.256860 1.436300 11.220300 -12.609600 6.530000
-6.471850 1.360940 11.605900 -12.609600 6.730000
-6.128830 1.690870 12.235600 -12.964800 7.710000
-6.429160 1.319970 12.126600 -12.787200 6.770000
-6.320360 1.743710 12.617900 -12.964800 7.510000
-6.777960 1.743710 12.378100 -12.698400 7.000000
-6.611890 1.796550 12.949700 -12.876000 5.350000
-5.454970 1.443720 13.986100 -13.408800 5.070000
-5.527580 1.484970 14.417900 -13.497600 7.540000
9.185620 0.371775 12.494800 -12.165600 8.620000
-5.569950 1.428020 14.870300 -13.586400 8.080000
9.316620 0.382102 12.932300 -12.343200 9.840000
9.568420 0.392429 13.281800 -12.254400 14.410000
-9.664290 1.378330 13.146000 -11.544000 8.370000
-9.916650 1.453440 13.489200 -11.544000 11.410000
-9.698160 -1.756050 14.140100 -0.177600 9.990000
-10.406600 -1.854300 14.155700 0.000000 4.670000
-9.940610 -1.799950 14.493600 -0.177600 3.950000
-5.966290 1.523420 17.018000 -13.675200 3.920000
-5.255200 1.830740 17.673300 -13.941600 4.440000
9.389840 0.658859 15.959600 -12.964800 7.210000
-5.394280 1.128090 18.141000 -13.852800 5.320000
9.609210 0.615578 16.332500 -12.964800 5.970000
10.108100 0.615578 16.028500 -12.787200 5.610000
10.083900 0.629569 16.550200 -12.787200 4.570000
0.893376 1.876350 20.145400 0.888000 11.220000
9.346170 0.422754 17.961800 -13.231200 7.460000
1.070930 1.916270 20.566400 0.888000 14.570000
-5.601340 1.979950 19.811600 -14.030400 4.160000
9.533530 -1.102910 18.321900 -13.231200 7.320000
0.121735 1.516920 21.059200 0.888000 14.790000
0.122367 -4.007800 21.168600 0.888000 11.880000
0.665575 -4.087950 21.582100 0.888000 6.680000
-4.978770 1.765200 21.331600 -14.208000 3.090000
0.560789 0.866010 22.383000 0.888000 6.910000
-5.202030 1.799810 21.720100 -14.119200 6.020000
0.571574 0.882664 22.813500 0.888000 7.890000
10.106400 0.600292 20.471000 -13.408800 4.640000
-9.926020 1.640750 20.502300 -13.142400 5.780000
0.443236 -3.494940 23.000400 0.888000 6.780000
-9.362910 0.611618 21.292900 -13.320000 3.630000
0.136752 1.410110 23.657100 0.888000 6.970000
0.139239 1.435750 24.087200 0.888000 7.500000
0.754050 2.199930 24.451000 0.888000 6.380000
0.623447 2.238520 24.883900 0.888000 4.010000
-5.336670 1.872620 24.343900 -14.208000 6.510000
-5.428680 1.904910 24.763600 -14.208000 4.500000
-4.498460 1.857450 25.391800 -14.385600 3.670000
-4.574430 1.807320 25.820600 -14.385600 4.670000
10.241400 -1.340730 24.170500 -13.764000 5.890000
-5.707260 1.836950 26.034300 -14.208000 6.420000
10.219700 -1.362710 24.646200 -13.764000 4.160000
-5.799310 1.866570 26.454200 -14.296800 8.370000
10.387600 -1.216970 25.051200 -13.852800 9.940000
10.721300 -1.384690 24.901400 -13.675200 10.410000
10.891500 -1.406670 25.296600 -13.675200 13.010000
11.052200 -1.839400 25.669900 -13.675200 11.390000
10.524200 1.450630 26.380600 -13.852800 7.150000
18.475600 -0.241874 21.619300 -11.455200 10.800000
-8.589880 1.472610 27.523400 -13.852800 6.620000
18.755500 -0.245539 21.946900 -11.455200 7.970000
-8.556470 1.494590 27.984200 -13.852800 8.530000
-12.962900 1.041920 26.257100 -13.053600 8.340000
18.863200 -0.249203 22.420500 -11.455200 9.260000
-13.155000 0.965339 26.646100 -13.053600 8.980000
-8.406070 2.260060 28.879700 -13.941600 8.780000
-8.246690 2.228940 29.825500 -14.030400 7.020000
-8.127910 2.259900 30.303300 -14.030400 6.630000
-4.706870 1.700330 31.491400 -14.474400 5.650000
-4.770480 1.723300 31.917000 -14.474400 8.120000
12.028200 0.805513 31.373900 -13.941600 8.510000
11.937200 0.815840 31.869000 -13.941600 6.320000
18.596900 -0.605326 28.505900 -12.520800 7.010000
19.054300 -0.612989 28.720700 -12.520800 9.120000
-3.440270 0.193567 35.598300 -14.474400 7.710000
-18.012600 -4.166060 30.615400 -0.888000 5.640000
-7.739730 1.930100 35.305700 -14.208000 8.250000
-17.990200 -4.216250 31.123900 -0.976800 7.450000
-18.204400 -4.266450 31.494400 -0.976800 6.280000
11.649800 -0.318834 35.630800 -14.119200 4.260000
11.783700 -0.322499 36.040300 -14.119200 4.750000
-16.494400 -2.256180 34.069200 -12.964800 7.440000
-16.151600 -2.163410 34.715600 -13.142400 11.630000
-17.145000 -2.281820 34.228200 -12.876000 6.730000
-16.129900 -2.187720 35.199500 -13.142400 7.080000
-8.812020 0.929438 37.755100 -14.208000 12.470000
-8.909930 0.939765 38.174600 -14.208000 11.790000
-10.144400 2.044070 38.714500 -14.119200 6.390000
-10.252300 2.159870 39.126100 -14.119200 9.330000
-17.649600 -0.344487 36.455400 -12.964800 7.050000
-16.648300 -0.735587 37.861200 -13.231200 9.280000
-17.406100 -1.098650 37.984700 -13.142400 7.290000
12.031700 1.109970 40.462700 -14.208000 6.510000
-17.591000 -0.359146 38.388100 -13.142400 8.780000
12.152300 1.385050 40.868100 -14.208000 6.250000
-17.994400 -0.362811 38.676500 -13.142400 5.920000
12.281000 0.366476 41.301200 -14.208000 5.810000
-18.176100 -0.366476 39.067100 -13.142400 9.090000
12.403000 0.639318 41.711200 -14.208000 8.840000
12.524400 0.917466 42.119600 -14.208000 7.080000
12.064500 1.852520 42.671300 -14.296800 8.570000
19.644400 -0.789223 39.790700 -13.408800 8.490000
11.932300 1.870500 43.155300 -14.296800 7.360000
-16.281300 -0.796885 41.743800 -13.497600 10.020000
-17.640500 -1.608840 41.632800 -13.320000 7.440000
-16.314700 -0.858184 45.411400 -13.675200 8.100000
-17.583600 -0.569697 45.864200 -13.586400 11.020000
13.967800 0.734266 47.987500 -14.208000 6.570000
14.088800 0.584689 48.403200 -14.208000 10.610000
14.209200 0.589686 48.816900 -14.208000 7.270000
14.329600 0.594684 49.230600 -14.208000 7.340000
14.450100 0.599681 49.644300 -14.208000 6.520000
-15.750800 -3.395820 49.133500 -13.852800 7.060000
-15.882100 -3.424120 49.542900 -13.852800 7.070000
14.654100 0.000000 51.830700 -14.296800 6.210000
14.771300 0.000000 52.245400 -14.296800 12.480000
14.888500 -0.126935 52.659900 -14.296800 19.790000
14.696400 0.980782 53.152100 -14.296800 21.720000
31.078200 0.131933 47.637500 -12.609600 19.270000
31.313600 0.132932 47.998400 -12.609600 9.050000
14.958300 0.133932 55.769200 -14.296800 11.220000
15.172000 2.083830 56.566000 -14.296800 7.750000
-25.936600 1.223290 52.536000 -12.964800 9.920000
15.288000 1.551700 56.998200 -14.296800 7.700000
-26.432800 1.232280 52.770400 -12.964800 12.170000
15.400500 1.425140 57.417600 -14.296800 16.770000
14.946300 0.516731 58.887500 -14.385600 19.030000
15.052300 0.520395 59.305200 -14.385600 11.560000
15.158300 0.524060 59.722800 -14.385600 7.990000
15.263900 0.719617 60.138600 -14.385600 18.030000
16.053900 0.930493 61.267100 -14.385600 12.860000
16.217200 0.968472 63.894600 -14.385600 12.430000
16.261900 0.993791 65.660200 -14.385600 9.220000
15.856400 0.789580 66.205300 -14.385600 9.410000
15.864500 1.025440 67.971400 -14.474400 11.270000
14.862800 1.724620 70.387600 -14.474400 9.950000
18.452200 1.914140 70.419500 -14.474400 23.480000
-12.775000 -1.755600 72.109100 -14.385600 23.240000
-12.850100 -1.765930 72.533200 -14.385600 18.160000
15.451400 0.721957 83.466100 -14.563200 9.080000
15.530200 0.461763 83.891600 -14.563200 10.020000
15.608300 0.729286 84.313400 -14.563200 9.440000
-14.541400 1.265980 84.934900 -14.385600 8.990000
-13.955800 1.272310 85.469700 -14.385600 7.270000
-14.024500 1.547800 85.890600 -14.385600 5.620000
-14.093900 1.555460 86.315800 -14.385600 6.450000
-13.339900 0.000000 96.900400 -14.474400 9.010000
-13.398600 0.227884 97.327000 -14.474400 8.970000
-13.457400 0.228883 97.753900 -14.474400 11.300000
-13.515700 0.842894 98.177500 -14.474400 13.990000
-13.751200 0.233881 99.888200 -14.474400 12.810000
-13.810000 0.234880 100.315000 -14.474400 13.690000
-13.868600 0.550384 100.741000 -14.474400 9.970000
-13.146900 0.868547 101.270000 -14.474400 5.350000
-12.826600 0.564376 103.484000 -14.474400 5.930000
-12.078300 0.566709 104.008000 -14.563200 6.570000
-12.128000 0.569041 104.436000 -14.563200 5.390000
-12.177700 0.571373 104.864000 -14.563200 5.550000
13.519500 3.121180 148.877000 -14.652000 12.050000
13.558500 3.130180 149.306000 -14.652000 15.610000
13.597500 3.139170 149.735000 -14.652000 14.800000
-6.655690 0.265818 4.760230 -8.347200 2.370000
-6.838120 0.279808 5.237530 -8.702400 6.580000
-7.064120 0.253168 4.929910 -8.169600 4.520000
-7.061860 0.293799 5.650340 -8.880000 6.690000
-7.356990 0.265826 5.261810 -8.258400 5.760000
7.892250 -0.337091 5.240740 -7.725600 5.790000
8.250990 -0.352413 5.478960 -7.903200 5.230000
-6.633780 0.413669 7.351450 -10.656000 5.850000
-6.788990 0.399697 7.790930 -10.833600 8.190000
-7.071870 0.416351 8.115550 -10.833600 6.270000
-5.983390 1.254840 8.869680 -11.988000 3.960000
-6.081440 1.279220 9.321800 -12.076800 5.460000
8.532370 0.593440 7.886910 -10.123200 5.900000
-5.945680 1.185330 9.929790 -12.254400 5.210000
-10.055900 1.118030 8.045910 -9.146400 6.990000
-5.903470 1.350000 10.930600 -12.609600 8.270000
-10.294300 1.155300 8.433680 -9.235200 9.200000
-6.625150 0.888845 11.064600 -12.343200 4.580000
-5.540770 1.237590 12.091400 -13.053600 7.640000
-6.754660 1.000880 11.480700 -12.343200 7.800000
-5.697470 1.361220 12.957100 -13.142400 5.270000
-9.388630 1.402470 11.159200 -11.277600 6.220000
-9.575940 1.443720 11.561500 -11.366400 5.090000
-6.265070 1.130030 13.672000 -13.053600 7.420000
9.115330 -0.443044 12.006900 -11.810400 9.910000
-6.229320 1.066610 14.166600 -13.231200 9.210000
9.184290 -0.455702 12.493000 -11.899200 9.360000
-6.514390 1.096240 14.510300 -13.231200 12.420000
9.315270 -0.468361 12.930400 -11.988000 15.160000
9.567040 -0.481019 13.279900 -11.988000 12.350000
-5.308980 1.378330 15.428200 -13.675200 9.340000
8.617840 -0.999899 14.392500 -12.698400 13.180000
-5.448690 1.414600 15.834200 -13.675200 7.330000
9.746760 0.359791 14.210900 -12.254400 11.000000
-5.588400 1.450870 16.240200 -13.675200 8.590000
9.877180 0.423410 14.641800 -12.343200 15.280000
-5.728110 1.487150 16.646200 -13.675200 10.370000
10.118100 0.433738 14.998900 -12.343200 16.960000
-5.609710 1.300220 17.157200 -13.675200 14.310000
-5.878490 1.331170 17.521000 -13.675200 8.950000
9.884860 -0.685530 18.644700 -13.053600 9.950000
10.086600 -0.699521 19.025200 -13.053600 7.610000
9.987980 -0.713511 19.562000 -13.142400 3.610000
10.025000 -1.004480 20.013900 -13.142400 8.920000
10.414500 0.827404 20.791400 -13.231200 5.590000
-20.815500 0.521696 13.822200 -7.903200 7.530000
10.483500 0.915972 21.234900 -13.320000 7.460000
-21.011700 0.452079 14.305300 -7.992000 4.410000
10.674100 0.932626 21.621000 -13.320000 8.300000
-21.367800 0.459742 14.547700 -7.992000 6.030000
-3.489310 1.531410 26.877900 -14.385600 5.500000
-3.912640 1.555710 27.254300 -14.296800 7.960000
10.890800 -0.593654 26.264800 -13.675200 5.360000
19.036100 -0.067965 22.275200 -11.366400 4.130000
8.970050 -0.602649 27.434800 -13.764000 7.170000
19.141000 -0.160917 22.750700 -11.455200 8.100000
19.418400 -0.163249 23.080400 -11.455200 7.160000
-17.882900 -0.070964 24.823000 -11.632800 9.240000
-4.274230 2.260060 29.773000 -14.385600 10.720000
-18.134800 -0.071963 25.172700 -11.632800 8.790000
-3.993270 0.647623 30.759900 -14.385600 7.340000
-7.662370 0.936721 30.938100 -14.030400 7.530000
-7.765170 1.049280 31.353200 -14.030400 5.310000
-17.675500 -0.860796 27.555300 -11.988000 5.620000
-7.868700 1.063270 31.771200 -14.030400 9.560000
-18.110800 -1.487410 27.760700 -11.988000 7.660000
19.976600 -1.037990 29.126200 -12.254400 5.970000
20.672200 -1.050650 29.166200 -12.165600 6.130000
10.909700 1.382280 34.032100 -14.030400 8.430000
20.929600 -0.307839 29.529300 -12.165600 7.560000
11.041200 1.398940 34.442100 -14.030400 5.110000
20.001200 -0.974058 31.181000 -12.432000 5.940000
12.973000 0.090954 37.003600 -14.030400 6.350000
-16.226100 -1.409650 36.142500 -13.053600 6.700000
-8.486480 0.950092 38.712100 -14.208000 7.810000
-16.402500 -1.424970 36.535300 -13.053600 6.000000
-8.579840 0.712599 39.138000 -14.208000 8.610000
-8.672090 0.720262 39.558800 -14.208000 6.480000
-9.392730 1.854430 40.243200 -14.030400 7.990000
12.649100 0.514726 42.538900 -14.030400 5.900000
12.771900 0.519724 42.951900 -14.030400 8.770000
12.894700 0.524721 43.364900 -14.030400 8.760000
11.832000 0.529718 44.113100 -14.208000 5.420000
14.449500 0.759586 49.642300 -14.208000 7.240000
14.569900 0.765916 50.055900 -14.208000 13.550000
14.690300 0.772246 50.469600 -14.208000 6.690000
14.588500 4.637970 55.674400 -14.208000 8.960000
15.502400 0.314838 56.066900 -14.208000 8.100000
14.961800 0.867194 57.099200 -14.208000 6.990000
15.071000 0.873524 57.516000 -14.208000 7.250000
15.513200 1.250270 57.837700 -14.208000 17.520000
15.624800 1.259270 58.253800 -14.208000 13.490000
15.608900 2.191090 59.568700 -14.208000 7.250000
15.369200 0.917833 60.553800 -14.208000 10.840000
15.475200 0.924163 60.971400 -14.208000 7.920000
15.581900 0.734609 61.391500 -14.208000 10.700000
16.924600 -1.600700 64.589700 -14.208000 10.000000
17.033800 -1.611030 65.006400 -14.208000 20.270000
25.039600 0.934503 76.583300 -14.030400 9.700000
25.173500 0.939500 76.992900 -14.030400 16.690000
25.307400 0.944498 77.402400 -14.030400 10.700000
15.687300 0.199898 84.740000 -14.385600 13.080000
15.765700 0.200897 85.163700 -14.385600 25.090000
15.844000 0.471091 85.586300 -14.385600 24.000000
-14.230900 2.117050 87.154900 -14.296800 13.480000
-13.516200 0.000000 98.181000 -14.385600 12.050000
-13.574900 0.230882 98.607600 -14.385600 9.880000
-13.633500 0.541055 99.033300 -14.385600 6.050000
-12.925000 0.853888 99.560600 -14.385600 6.500000
-12.980500 0.857553 99.987900 -14.385600 5.780000
-12.455300 0.861218 100.489000 -14.385600 8.510000
-12.508300 0.864882 100.916000 -14.385600 7.030000
-13.147200 0.552716 101.272000 -14.385600 11.090000
-11.828700 1.506510 101.859000 -14.385600 14.020000
-11.878400 1.512840 102.287000 -14.385600 12.950000
-11.928100 1.519170 102.715000 -14.385600 8.400000
-11.977800 1.525500 103.143000 -14.385600 7.470000
-11.571100 0.897865 104.931000 -14.385600 7.420000
-11.618300 0.901530 105.359000 -14.385600 4.730000
-11.665600 0.905195 105.787000 -14.385600 9.230000
-11.712800 0.908859 106.215000 -14.385600 12.380000
-11.759700 1.244340 106.640000 -14.385600 11.270000
-55.472000 -14.203900 94.284100 -12.254400 8.930000
14.505100 2.681830 150.092000 -14.474400 9.570000
14.544600 3.624810 150.501000 -14.474400 5.200000
14.585200 3.986840 150.921000 -14.474400 10.820000
8.236670 0.681448 5.469450 -7.370400 2.580000
-6.445970 0.849094 6.898920 -10.389600 3.810000
8.952900 0.740704 5.945050 -7.725600 3.560000
-6.683180 0.887689 7.264240 -10.567200 7.920000
-6.898450 0.958135 7.644740 -10.656000 8.640000
-7.185880 0.998057 7.963270 -10.656000 5.200000
-5.378690 1.154970 10.738000 -12.787200 3.430000
-5.503030 1.273140 11.146700 -12.876000 5.700000
-5.696280 1.237470 11.538100 -12.876000 5.570000
-9.398470 1.233240 11.170900 -11.366400 3.650000
-5.489380 1.176800 13.532300 -13.320000 8.070000
-9.674900 1.269520 11.499400 -11.366400 4.810000
-6.162260 1.036990 13.726000 -13.142400 3.560000
8.966270 -0.455702 12.650400 -12.076800 9.520000
-9.863010 1.246020 11.908100 -11.366400 5.330000
-6.225070 1.210150 14.156900 -13.231200 9.780000
9.114850 -0.468361 13.072400 -12.165600 7.240000
9.464400 -0.481019 13.353200 -12.076800 5.300000
9.072480 0.246865 14.143600 -12.432000 4.620000
-5.322470 1.556970 15.863700 -13.675200 9.460000
9.638010 0.253195 14.287200 -12.343200 18.050000
-5.241920 1.490710 16.351800 -13.764000 12.880000
9.878960 0.259525 14.644400 -12.343200 18.990000
-5.243630 1.527980 16.801500 -13.675200 16.590000
10.119900 0.265855 15.001600 -12.343200 15.430000
-6.094400 1.621000 16.963500 -13.586400 9.000000
10.241700 0.329481 15.437400 -12.432000 16.090000
-5.152950 1.830740 17.703300 -13.852800 11.020000
-9.720850 1.186620 16.234600 -12.343200 6.350000
-5.274380 1.814960 18.120500 -13.852800 7.700000
-5.254280 1.736780 18.584100 -13.941600 6.950000
-5.371040 1.775380 18.997000 -13.941600 7.300000
-5.115220 1.704780 19.521400 -14.030400 8.740000
9.812110 1.714380 19.588900 -13.231200 10.550000
-5.375060 1.471520 21.702700 -14.030400 9.790000
9.727380 1.937920 20.092000 -13.320000 8.910000
-21.365000 0.619625 14.545800 -7.992000 7.400000
-21.721100 0.629952 14.788300 -7.992000 7.560000
10.229000 0.746845 23.262500 -13.497600 5.270000
-5.001880 1.919370 26.173100 -14.296800 5.220000
-4.928730 1.950320 26.624200 -14.296800 4.900000
-4.065150 2.066340 27.198000 -14.385600 5.860000
-4.500860 2.098630 27.564700 -14.296800 5.110000
10.683600 -1.011270 26.337000 -13.675200 13.560000
10.845500 -1.026590 26.736000 -13.675200 5.690000
19.034100 -0.430432 22.272800 -11.455200 7.730000
11.007400 -1.041920 27.135100 -13.675200 10.330000
19.314800 -0.344817 22.601300 -11.455200 6.340000
19.594700 -0.349814 22.928800 -11.455200 7.320000
-4.686960 0.792838 29.786100 -14.296800 8.380000
-18.121000 -0.165582 24.649300 -11.632800 9.840000
-4.520930 0.804164 30.247300 -14.385600 6.520000
10.722100 1.276980 28.625000 -13.852800 7.240000
-4.582190 1.294960 30.657200 -14.385600 9.070000
-8.030340 1.294960 29.939500 -13.941600 6.050000
-4.645830 1.312950 31.083000 -14.385600 10.210000
-8.143820 1.118530 30.362600 -13.941600 7.800000
-9.317690 1.133850 30.473800 -13.852800 8.890000
-17.254000 -0.278521 27.833100 -12.165600 6.070000
-7.867880 1.164490 31.767900 -14.030400 8.400000
-17.481000 -0.282186 28.199300 -12.165600 5.200000
-17.707500 -0.389793 28.564600 -12.165600 4.800000
-18.157000 -0.394790 28.791800 -12.076800 8.160000
-16.097900 -2.689230 30.363600 -12.609600 5.760000
-18.798400 -2.157490 28.814700 -11.988000 9.450000
11.795800 1.025330 32.833200 -13.941600 5.970000
11.684900 1.037990 33.329600 -13.941600 4.500000
11.553500 -0.209892 37.019400 -14.030400 7.450000
-15.869600 -1.618700 35.348300 -13.142400 6.670000
-17.351000 -1.738530 34.639400 -12.876000 7.530000
11.675900 1.273130 37.411600 -14.030400 13.150000
-16.045900 -1.636690 35.741100 -13.142400 7.400000
-8.485260 1.164570 38.706500 -14.208000 14.740000
-15.941100 -1.777170 36.252900 -13.142400 12.220000
-8.577490 1.177230 39.127300 -14.208000 8.550000
11.537300 1.440300 38.800000 -14.208000 7.640000
-17.033500 -1.961580 37.171600 -13.053600 7.400000
-9.619550 2.333570 40.164600 -14.119200 8.020000
-9.719750 2.357880 40.583000 -14.119200 6.300000
12.402300 0.773898 41.709100 -14.208000 5.610000
12.525100 0.781561 42.122100 -14.208000 6.040000
12.649100 0.514726 42.538900 -14.208000 6.890000
12.772300 0.381135 42.953300 -14.208000 6.800000
12.895100 0.384799 43.366300 -14.208000 6.380000
11.942500 0.819872 44.525200 -14.208000 6.520000
-2.060190 1.798640 46.456800 -14.563200 13.600000
12.048400 -1.654810 44.920000 -14.208000 8.000000
-2.440580 1.815290 46.869500 -14.474400 12.930000
-2.736000 1.978420 47.278600 -14.474400 7.630000
-2.761530 1.700770 47.719800 -14.474400 7.900000
13.950700 0.118939 49.342700 -14.208000 8.800000
14.301500 0.609676 50.583400 -14.208000 5.630000
14.845200 0.841874 55.347200 -14.208000 7.560000
15.180000 0.860864 56.595600 -14.208000 9.800000
15.627100 0.699628 58.262600 -14.208000 7.860000
16.190500 0.704625 58.555700 -14.208000 16.700000
15.726300 0.911503 60.016700 -14.296800 6.530000
15.835500 0.917833 60.433500 -14.296800 10.620000
15.944700 0.924163 60.850300 -14.296800 21.980000
16.053900 0.930493 61.267100 -14.296800 20.180000
16.161300 1.331230 61.677100 -14.296800 19.250000
17.460200 1.886100 61.755600 -14.208000 13.540000
16.218900 -0.152922 63.901400 -14.208000 19.080000
16.324400 -0.564372 64.316900 -14.296800 23.180000
25.767500 0.438441 76.800600 -14.030400 10.740000
25.904000 0.692639 77.207500 -14.030400 8.250000
15.687100 0.466427 84.739000 -14.385600 9.030000
15.765200 0.736616 85.160800 -14.385600 8.320000
15.843100 1.009460 85.581800 -14.385600 7.410000
-13.662900 1.019460 86.829300 -14.296800 6.910000
-13.729400 1.297630 87.251400 -14.296800 7.480000
-14.302900 1.303960 87.595800 -14.296800 5.680000
-19.005800 1.303960 86.697000 -14.296800 4.600000
-20.266500 2.344540 86.831800 -14.296800 8.450000
-13.516100 0.229883 98.180700 -14.385600 8.170000
-13.574900 -0.230882 98.607600 -14.385600 10.540000
-13.633700 -0.231882 99.034500 -14.385600 14.000000
-12.925400 -0.232881 99.563900 -14.385600 12.880000
-12.980900 0.233881 99.991300 -14.385600 9.050000
-13.091400 0.864882 100.843000 -14.385600 9.290000
-12.561300 0.868547 101.344000 -14.385600 10.330000
-12.614300 0.872212 101.772000 -14.385600 6.980000
-12.667700 0.238878 102.203000 -14.385600 5.260000
-12.720700 0.239878 102.630000 -14.385600 6.090000
-12.177700 0.571373 104.864000 -14.385600 6.930000
-12.227400 0.573705 105.292000 -14.385600 5.700000
-12.277100 0.576037 105.720000 -14.385600 5.080000
-12.326800 0.578369 106.148000 -14.385600 5.820000
-12.376700 0.248873 106.578000 -14.385600 4.950000
14.462800 3.139170 149.654000 -14.563200 7.300000
14.504200 3.148170 150.083000 -14.563200 11.820000
14.544600 3.624810 150.501000 -14.563200 11.730000
-6.836620 0.333081 5.236370 -8.613600 3.750000
-7.178450 0.349735 5.498190 -8.702400 4.600000
-6.002930 1.276130 7.781920 -11.277600 2.970000
-6.983800 0.742981 7.591000 -10.478400 6.020000
-6.263930 1.331610 8.120270 -11.277600 3.140000
-7.277890 0.707463 7.910660 -10.478400 6.700000
-6.072920 1.408210 9.308740 -12.076800 2.950000
-6.020100 1.221120 9.880490 -12.165600 6.330000
-5.843670 1.266350 10.479400 -12.520800 5.760000
-6.243070 1.266350 10.246400 -12.165600 5.780000
-6.046180 1.426820 10.842500 -12.520800 6.290000
-6.402920 0.897768 10.693400 -12.254400 6.480000
-5.851390 1.237470 11.460200 -12.787200 6.960000
-6.538250 0.928726 11.112900 -12.343200 8.890000
-6.044610 1.319840 11.838700 -12.787200 7.050000
-6.756200 0.959683 11.483300 -12.343200 5.900000
-6.248020 1.160700 12.237100 -12.787200 3.990000
-5.692140 1.492480 12.945000 -13.142400 6.680000
-9.673390 1.267100 10.929800 -11.011200 6.570000
-6.069520 1.537710 13.245200 -13.053600 7.320000
-9.959880 1.269520 11.253500 -11.011200 7.510000
-5.746630 1.536550 13.858800 -13.231200 8.250000
-6.433430 1.536550 13.553700 -12.964800 9.060000
-10.154900 1.305790 11.653600 -11.100000 4.830000
-6.037680 1.066610 14.249300 -13.231200 8.990000
-6.528160 1.066610 14.031400 -13.053600 7.560000
-5.464230 1.096240 14.937500 -13.408800 7.360000
9.394350 -1.624350 12.778800 -12.076800 9.800000
-5.706010 1.869630 15.233500 -13.497600 5.770000
8.178160 -1.024810 14.148600 -12.787200 6.940000
-5.434240 1.867180 15.792200 -13.586400 5.550000
8.617840 -0.999899 14.392500 -12.698400 7.370000
9.288390 0.350796 14.000500 -12.343200 9.350000
9.636950 0.359791 14.285600 -12.343200 14.410000
-5.611590 0.942073 16.725500 -13.586400 10.580000
-6.411230 0.901150 16.437900 -13.408800 7.140000
9.877870 0.368785 14.642800 -12.343200 15.890000
-5.880340 0.965050 17.088600 -13.586400 6.510000
-6.470160 0.923129 16.876500 -13.408800 5.370000
10.118800 0.377780 14.999900 -12.343200 12.680000
-9.872220 4.783990 14.393900 -11.988000 13.340000
-9.993390 4.897900 14.814000 -11.988000 8.380000
-5.525840 1.522910 18.072400 -13.764000 6.150000
-5.258440 1.557530 18.598800 -13.852800 6.970000
10.035300 1.118170 17.056700 -12.787200 8.590000
-5.500190 1.205010 19.453800 -13.852800 6.870000
10.111000 1.392520 17.492400 -12.787200 7.840000
-5.347720 1.294490 19.937900 -13.852800 6.110000
10.188100 1.422150 17.943700 -12.787200 5.390000
-5.341390 1.321460 20.384500 -13.941600 5.610000
9.525190 1.098960 19.293800 -13.231200 8.200000
9.829290 1.120940 19.623200 -13.142400 8.140000
10.544100 0.985168 19.256000 -12.964800 7.570000
9.761370 1.834420 20.564800 -13.231200 6.970000
10.351600 1.834420 20.274100 -13.053600 7.210000
10.276200 1.599920 20.815100 -13.231200 6.060000
10.468700 1.556420 21.204900 -13.231200 11.320000
-5.291880 1.584720 23.489600 -14.119200 13.300000
10.487900 1.733620 21.662800 -13.320000 5.000000
10.675100 1.764580 22.049600 -13.408800 12.200000
-4.739540 1.613020 24.045600 -14.208000 6.710000
-8.937630 1.120390 23.312500 -13.497600 4.090000
-4.681170 1.641310 24.495000 -14.208000 6.050000
-4.761880 1.669610 24.917300 -14.208000 4.830000
-10.217600 0.919338 23.731500 -13.231200 8.280000
-10.387900 0.934660 24.127000 -13.231200 6.010000
-10.558200 0.949982 24.522500 -13.231200 8.880000
-4.297600 1.589580 26.319900 -14.296800 4.340000
-4.212250 1.615220 26.769200 -14.296800 6.590000
-4.280600 1.470550 27.203600 -14.296800 5.790000
-4.881050 1.255610 27.551300 -14.296800 8.900000
11.084200 1.274920 26.159400 -13.586400 8.560000
-4.956810 1.187050 27.978900 -14.296800 12.350000
11.032100 -1.985090 26.605400 -13.675200 11.010000
-5.578220 1.205040 28.300600 -14.296800 7.790000
11.196700 -2.014720 27.002500 -13.675200 10.590000
18.862600 -0.339819 22.419800 -11.455200 10.570000
10.192200 -1.952600 27.862200 -13.852800 14.090000
12.148400 -2.044340 27.059800 -13.586400 10.580000
19.140000 -0.344817 22.749500 -11.455200 8.920000
-3.822270 1.585440 29.442700 -14.385600 14.640000
12.137100 -0.792838 27.602000 -13.586400 10.750000
-2.319170 1.608420 30.030700 -14.296800 11.390000
12.525900 -0.804164 27.900600 -13.497600 9.900000
-17.877800 -0.733223 24.816000 -11.544000 9.390000
-4.516050 1.631390 30.214700 -14.296800 9.310000
12.920000 -0.815491 28.194800 -13.497600 8.770000
-17.935100 -0.743550 25.304500 -11.632800 7.440000
-18.184200 -0.753877 25.655900 -11.632800 7.390000
-8.481060 1.995680 30.673200 -13.941600 9.860000
-7.754030 2.022650 31.308200 -14.030400 5.550000
-8.045010 1.746280 31.696800 -14.030400 6.610000
-8.151850 1.692400 32.117700 -14.030400 8.600000
-18.154900 -1.012670 29.286400 -12.076800 7.270000
-18.836700 -1.025330 29.365600 -11.988000 7.770000
-16.503800 -0.857148 31.717600 -12.609600 4.930000
-16.702600 -0.867475 32.099700 -12.609600 6.490000
-7.191480 1.719210 37.630500 -14.208000 8.990000
11.833600 1.139260 36.913900 -14.030400 8.690000
-16.882200 -1.738530 34.870300 -12.876000 9.270000
10.663600 1.151910 37.716500 -14.119200 7.440000
-17.069800 -1.757850 35.257700 -12.876000 9.220000
-17.805700 -2.090940 34.873400 -12.698400 7.520000
-8.393750 1.030690 38.289100 -14.119200 9.700000
-18.272600 -2.113920 35.116900 -12.698400 9.480000
-8.578230 1.053340 39.130600 -14.119200 6.770000
-18.471200 -2.136900 35.498600 -12.698400 9.000000
-8.670470 1.064670 39.551400 -14.119200 8.750000
-9.628800 1.470940 40.203300 -14.030400 7.710000
-9.726770 1.744600 40.612300 -14.030400 5.190000
-9.822810 2.153970 41.013300 -14.030400 7.970000
12.521700 1.291160 42.110600 -14.119200 8.390000
12.521700 1.291160 42.110600 -14.119200 6.410000
12.772600 0.242542 42.954200 -14.119200 7.090000
-2.587380 1.593520 44.710500 -14.474400 6.400000
12.895500 0.104946 43.367700 -14.119200 10.680000
12.765000 0.105946 43.855300 -14.119200 11.460000
13.132900 -1.639490 44.165900 -14.119200 8.610000
14.209700 0.432441 48.818400 -14.119200 7.420000
14.330100 0.436106 49.232100 -14.119200 7.270000
14.570900 0.443435 50.059500 -14.119200 7.310000
14.691300 0.447100 50.473200 -14.119200 7.680000
14.690900 0.609676 50.471700 -14.119200 7.340000
-26.282300 0.465424 47.997600 -12.609600 18.630000
14.698700 0.127935 53.160400 -14.119200 21.800000
14.812600 -0.644657 53.572200 -14.119200 20.470000
14.508700 1.169320 54.092800 -14.208000 14.200000
14.622500 0.654652 54.517100 -14.208000 7.850000
14.734100 0.659649 54.933300 -14.208000 7.230000
14.845800 0.664647 55.349500 -14.208000 8.320000
14.853200 0.679639 56.684800 -14.208000 14.410000
15.158700 0.333495 59.724100 -14.208000 17.710000
15.264700 0.335827 60.141700 -14.208000 20.210000
15.370700 0.338159 60.559400 -14.208000 17.670000
15.779000 2.878240 62.168400 -14.208000 14.610000
16.004400 -1.157020 63.056300 -14.208000 24.640000
16.100900 2.531410 63.436500 -14.296800 25.770000
16.263600 -0.156920 65.667100 -14.208000 10.240000
25.173500 0.939500 76.992900 -14.030400 7.190000
25.904000 0.692639 77.207500 -14.030400 13.190000
15.608600 0.464095 84.315300 -14.385600 13.470000
15.687100 0.466427 84.739000 -14.385600 11.820000
15.765500 0.468759 85.162700 -14.385600 9.290000
14.026700 0.201897 85.903900 -14.296800 7.600000
-14.091300 2.299230 86.299600 -14.296800 8.150000
-14.163300 1.563120 86.741000 -14.296800 9.400000
-13.729400 1.297630 87.251400 -14.296800 13.540000
-13.457200 0.534059 97.752700 -14.385600 8.840000
-13.516200 0.000000 98.181000 -14.385600 9.920000
-13.574900 0.000000 98.607900 -14.385600 12.010000
-13.633700 0.231882 99.034500 -14.385600 10.020000
-13.692000 -0.853888 99.458000 -14.385600 5.850000
-12.980800 -0.545719 99.990100 -14.385600 7.910000
-13.809800 -0.548051 100.314000 -14.385600 13.600000
-13.868800 0.000000 100.742000 -14.385600 14.450000
-12.561700 -0.236879 101.347000 -14.385600 12.250000
-12.614700 -0.237879 101.775000 -14.385600 10.290000
-12.667700 -0.238878 102.203000 -14.385600 8.650000
-12.177700 0.571373 104.864000 -14.385600 6.380000
-12.227400 0.573705 105.292000 -14.385600 6.080000
-12.277100 0.576037 105.720000 -14.385600 6.650000
-12.326600 0.908859 106.146000 -14.385600 8.990000
14.462800 3.139170 149.654000 -14.474400 6.880000
14.504200 3.148170 150.083000 -14.474400 10.570000
14.545700 3.157160 150.512000 -14.474400 14.570000
-6.488100 1.080670 10.114600 -11.988000 4.200000
-6.534310 1.532350 10.540700 -12.254400 4.790000
-6.638870 1.119260 10.527400 -12.076800 5.610000
-10.287300 1.277260 7.723220 -8.791200 3.730000
-6.035580 1.038350 11.384200 -12.520800 4.570000
-6.759630 1.585190 10.904200 -12.254400 6.690000
-10.630200 1.319840 7.980660 -8.791200 3.660000
-6.128830 1.690870 12.235600 -12.876000 3.260000
-5.519650 1.447260 12.552700 -13.142400 4.180000
-6.417420 1.743710 12.568900 -12.787200 4.240000
-5.592200 1.492480 12.988400 -13.231200 6.950000
-6.266080 1.052560 13.201100 -12.964800 7.630000
-5.449870 1.582940 13.973000 -13.408800 5.170000
-6.554920 1.083510 13.539200 -12.876000 8.750000
-5.525910 1.532710 14.413500 -13.408800 5.620000
-6.022390 1.532710 14.213200 -13.231200 5.480000
-6.191550 1.526210 14.612500 -13.231200 5.180000
8.063850 -1.145430 13.705900 -12.698400 5.780000
8.173050 -1.176390 14.139700 -12.787200 7.970000
9.636950 0.359791 14.285600 -12.432000 10.910000
9.877870 0.368785 14.642800 -12.432000 14.950000
10.118800 0.377780 14.999900 -12.432000 14.150000
-6.558560 6.236560 16.168000 -13.408800 6.410000
-5.497910 1.659590 17.616200 -13.675200 6.160000
-5.625770 1.698190 18.025900 -13.675200 5.400000
9.475700 0.967087 16.393400 -12.876000 6.950000
9.691060 0.989067 16.765900 -12.876000 8.480000
9.439640 1.142920 20.289200 -13.320000 5.660000
-5.474850 1.711190 22.105600 -14.030400 5.020000
9.780260 1.164900 20.604600 -13.320000 8.470000
10.129300 1.043120 20.922200 -13.320000 12.410000
10.316900 1.062440 21.309600 -13.320000 12.190000
-4.842590 1.697910 25.339600 -14.208000 9.660000
-4.774300 1.726210 25.790000 -14.208000 7.910000
-5.709580 1.672050 26.044900 -14.119200 4.320000
-5.801670 1.699020 26.465000 -14.119200 6.150000
-3.910420 1.811110 27.238800 -14.296800 4.490000
10.018600 -0.575665 25.687000 -13.764000 4.500000
-5.776310 1.666500 27.355700 -14.208000 6.290000
10.377500 -0.324827 26.013000 -13.764000 6.710000
-5.867230 1.516510 27.786200 -14.119200 11.050000
10.689700 -0.329825 26.351900 -13.764000 7.570000
-6.173350 1.539480 28.160500 -14.119200 13.490000
18.468200 0.611644 22.740100 -11.632800 12.580000
-18.121000 -0.165582 24.649300 -11.455200 11.350000
-7.756890 1.823100 31.319800 -14.030400 8.650000
-7.857420 2.049610 31.725700 -14.030400 6.520000
-18.350700 -1.299010 28.128500 -11.988000 7.680000
-3.875930 0.805513 33.376200 -14.385600 5.570000
-17.249100 -1.315670 29.317800 -12.165600 5.340000
-17.687800 -1.241110 30.063500 -12.343200 6.210000
-19.068800 0.531710 30.760700 -12.076800 8.050000
-4.647790 2.600430 35.801600 -14.296800 6.450000
-4.014550 0.198231 36.405300 -14.385600 7.240000
-4.274630 0.200564 36.809500 -14.385600 8.340000
-7.649400 1.546760 36.226300 -14.119200 5.120000
-17.794200 -1.796400 32.947100 -12.520800 6.870000
-7.738350 1.564750 36.647500 -14.119200 5.210000
-17.996000 -1.934170 33.320700 -12.609600 11.220000
-7.827290 1.582730 37.068800 -14.119200 6.530000
20.430100 -1.956150 32.396200 -12.609600 8.150000
-18.200500 -1.956150 33.699300 -12.609600 7.660000
-8.204950 1.600720 37.427900 -14.119200 6.050000
-7.493130 1.618700 38.015800 -14.208000 7.030000
-16.039000 -2.000110 35.725700 -13.142400 10.780000
-17.062600 -2.090940 35.243000 -12.876000 9.340000
-15.943200 -1.654680 36.257800 -13.142400 9.210000
-15.831400 -1.796480 36.770100 -13.231200 9.230000
-15.786600 -1.815800 37.257300 -13.231200 7.850000
12.850600 0.509729 42.028100 -14.030400 8.210000
12.649100 0.514726 42.538900 -14.119200 10.300000
-2.483800 12.646000 42.920500 -14.474400 7.480000
12.772300 0.381135 42.953300 -14.119200 5.540000
12.895400 0.244874 43.367200 -14.119200 5.260000
-3.944410 13.565200 43.435800 -14.474400 10.170000
12.163300 -1.765330 43.990700 -14.119200 6.260000
-2.289410 13.693200 43.966400 -14.474400 9.910000
11.928800 -2.351780 44.474300 -14.119200 6.510000
12.385900 -2.373760 44.795800 -14.119200 7.030000
-16.394200 -0.268195 46.762200 -13.586400 6.120000
14.329600 0.594684 49.230600 -14.119200 5.680000
14.450500 0.439771 49.645800 -14.119200 6.970000
14.887600 -0.634663 52.656500 -14.119200 21.720000
15.004800 -0.639660 53.071100 -14.119200 6.610000
15.121400 -0.816555 53.483600 -14.119200 7.660000
14.510900 0.649655 54.101000 -14.119200 6.550000
15.042300 0.654652 54.402800 -14.119200 7.820000
15.157100 0.659649 54.818100 -14.119200 14.730000
15.271300 0.841874 55.231200 -14.119200 16.130000
15.069800 0.314838 56.184700 -14.208000 21.620000
15.181400 0.317170 56.600900 -14.208000 21.800000
15.516500 0.138929 57.850200 -14.208000 18.430000
15.632100 -15.833900 56.536100 -14.208000 19.160000
15.851400 0.000000 59.098900 -14.208000 15.770000
15.615400 1.286250 59.593400 -14.208000 8.910000
15.726300 0.911503 60.016700 -14.208000 14.300000
15.835500 0.917833 60.433500 -14.208000 10.330000
15.944700 0.924163 60.850300 -14.208000 10.920000
15.580500 1.126370 61.385900 -14.208000 13.250000
15.323300 2.070580 61.870300 -14.208000 21.030000
16.263800 2.283020 62.068100 -14.208000 23.090000
16.048300 -13.004000 61.245700 -14.208000 21.100000
15.386800 -11.707900 62.126800 -14.208000 15.790000
13.529500 1.164680 64.073600 -14.296800 13.090000
16.193100 3.719130 63.799800 -14.208000 9.720000
15.607800 0.994471 84.310800 -14.385600 11.700000
15.686300 0.999469 84.734500 -14.385600 6.790000
15.764700 1.004470 85.158200 -14.385600 6.640000
-14.759500 1.284970 86.208900 -14.208000 6.320000
-14.831500 1.563120 86.629200 -14.208000 6.250000
-14.903300 1.843930 87.048700 -14.296800 8.860000
-14.974900 2.127380 87.467300 -14.296800 9.620000
-13.516200 0.000000 98.181000 -14.296800 6.620000
-13.574900 0.000000 98.607900 -14.296800 7.510000
-13.633500 -0.541055 99.033300 -14.296800 13.290000
-13.691500 1.164380 99.454900 -14.296800 13.600000
-13.751000 0.545719 99.887000 -14.296800 8.560000
-12.455700 0.234880 100.492000 -14.385600 10.770000
-12.508700 0.235880 100.920000 -14.385600 14.300000
-12.560900 1.184370 101.341000 -14.385600 13.220000
-12.227600 0.245875 105.294000 -14.385600 9.520000
-12.277100 0.576037 105.720000 -14.385600 8.930000
-12.326800 0.578369 106.148000 -14.385600 8.670000
14.463600 2.674160 149.663000 -14.474400 8.610000
14.505100 2.681830 150.092000 -14.474400 12.820000
14.547300 2.221790 150.528000 -14.474400 13.050000
-5.933910 1.390950 9.910140 -12.254400 3.420000
-6.153690 1.442470 10.277200 -12.343200 5.290000
-5.954090 1.570700 10.873600 -12.609600 4.870000
-6.470130 1.234690 10.619100 -12.254400 6.610000
-6.094270 1.624860 11.283900 -12.609600 5.150000
-6.702280 1.088160 11.000100 -12.254400 6.900000
-5.719510 1.277510 12.481400 -13.053600 6.840000
-6.588090 1.404840 12.031400 -12.609600 3.420000
-5.898240 1.317440 12.871500 -13.053600 6.760000
-6.168000 0.916933 13.257300 -13.053600 6.140000
-6.453120 0.990448 13.595100 -13.053600 8.820000
-5.533370 1.305790 14.433000 -13.497600 7.240000
8.763920 -0.743336 12.777900 -12.343200 7.000000
-5.675810 1.673390 14.804500 -13.497600 3.990000
9.009860 -0.665468 13.136500 -12.343200 7.690000
-5.390790 1.617860 15.376500 -13.586400 6.980000
9.164210 -1.051780 14.047100 -12.520800 7.970000
-5.585760 1.543810 16.232500 -13.586400 4.980000
9.415600 0.359791 14.432500 -12.520800 9.040000
-5.816380 1.745590 16.590400 -13.586400 5.140000
9.650990 0.368785 14.793300 -12.520800 15.190000
-6.543990 1.788170 16.778200 -13.497600 6.660000
9.886380 0.377780 15.154100 -12.520800 16.900000
-10.435800 1.356040 14.723700 -11.721600 6.490000
-10.684200 1.388320 15.074200 -11.721600 11.350000
-5.134560 1.814960 18.160600 -13.941600 9.610000
-5.898330 1.632230 18.399400 -13.764000 6.680000
9.302260 0.929171 16.988100 -13.053600 7.750000
-5.362930 2.080430 18.968400 -13.941600 3.890000
9.507520 1.011050 17.363000 -13.053600 3.120000
0.892567 2.063360 20.127100 0.888000 3.820000
-5.490390 1.704780 19.419200 -13.941600 8.360000
9.373480 -1.215400 19.361000 -13.408800 6.130000
-5.495520 1.748000 21.652000 -14.119200 13.520000
1.186560 0.953237 22.786900 0.888000 8.480000
-4.701530 1.922410 22.265700 -14.119200 5.940000
9.940300 1.094360 20.531800 -13.408800 4.950000
2.102530 0.971223 23.153100 0.888000 6.200000
-5.095780 1.958680 22.619100 -14.119200 5.200000
10.287200 1.186880 20.837300 -13.320000 5.940000
-0.454660 2.195730 23.593200 0.888000 4.930000
-5.058500 1.903640 23.075000 -14.208000 6.650000
10.472800 1.410110 21.213200 -13.320000 4.630000
-0.462927 2.235650 24.022200 0.888000 7.300000
10.659100 1.584720 21.590500 -13.320000 5.560000
0.471193 2.275570 24.451100 0.888000 10.510000
0.479595 2.238520 24.887100 0.888000 5.070000
-5.238850 1.826490 24.810300 -14.208000 11.440000
-5.155280 1.754510 26.154900 -14.296800 7.140000
-4.725400 1.782810 26.672700 -14.296800 5.850000
-5.011950 1.555710 27.073700 -14.296800 4.720000
-4.876380 1.752960 27.525000 -14.296800 4.850000
10.159400 -1.666500 26.047800 -13.852800 4.420000
-4.951400 1.779930 27.948400 -14.296800 5.530000
10.162600 -1.692140 26.507700 -13.852800 5.610000
18.686500 0.611644 22.561100 -11.632800 10.710000
10.993100 1.952600 27.556100 -13.852800 9.870000
18.964100 0.344817 22.896300 -11.632800 9.060000
11.313800 1.980900 27.890500 -13.852800 9.210000
19.239500 0.256533 23.228900 -11.632800 8.610000
9.704130 2.292350 28.923400 -14.030400 5.270000
-16.971700 -5.969730 24.744900 -0.355200 6.180000
-17.435300 -6.802500 24.201700 -0.088800 9.640000
-8.838850 0.911405 29.725100 -13.941600 7.900000
-17.210700 -6.053810 25.093500 -0.355200 8.330000
-9.193630 0.924063 30.068000 -13.941600 7.270000
-8.494060 0.936721 30.720200 -13.941600 6.840000
-9.495600 0.936721 30.425500 -13.941600 6.140000
-7.943540 1.348920 31.297000 -14.030400 6.560000
-9.861300 0.949380 30.761600 -13.852800 6.450000
-8.042200 1.948520 31.685700 -14.030400 6.790000
-17.685600 -1.714380 28.529400 -12.165600 7.820000
-18.525100 -3.049020 28.395800 -11.988000 8.250000
-3.574630 1.944640 34.231000 -14.474400 7.950000
-3.619310 1.968950 34.658900 -14.474400 5.850000
-3.663990 1.993260 35.086700 -14.474400 7.960000
10.772300 1.802300 33.603400 -14.119200 6.570000
10.903700 1.824280 34.013200 -14.119200 7.420000
10.766300 2.041870 34.497000 -14.119200 5.250000
-5.265640 0.429771 36.678900 -14.385600 5.520000
-7.647280 1.775750 36.216300 -14.208000 6.120000
-4.610270 0.782545 37.195500 -14.474400 6.090000
-7.735010 1.912200 36.631800 -14.208000 6.260000
-8.109270 1.934170 36.991400 -14.208000 6.040000
-16.612900 -1.738530 34.999300 -13.053600 7.260000
10.547300 -1.019360 37.305200 -14.119200 5.360000
10.664500 -1.030690 37.719700 -14.208000 6.010000
-15.767800 -1.757850 35.858900 -13.142400 9.180000
-17.352400 -1.030690 35.148300 -12.964800 8.830000
-8.708860 1.164570 38.656800 -14.208000 8.740000
-15.943200 -1.654680 36.257800 -13.142400 7.960000
-8.803520 1.177230 39.077000 -14.208000 7.300000
-18.417700 -0.469750 36.072000 -12.876000 7.580000
12.402500 0.651978 42.609600 -14.208000 11.070000
12.771900 0.519724 42.951900 -14.208000 9.220000
12.894200 0.664638 43.363200 -14.208000 6.090000
-16.974100 -2.831700 41.844100 -13.408800 7.700000
19.993500 -2.692040 40.497900 -13.231200 9.820000
19.547600 -2.858670 41.182000 -13.408800 4.880000
20.068200 -2.209360 41.450900 -13.320000 9.690000
-16.640100 -2.230010 43.403300 -13.497600 6.510000
12.755700 -2.794590 45.116300 -14.119200 7.300000
-15.833400 -1.731420 46.012900 -13.675200 5.950000
-18.162500 -0.270528 46.567100 -13.497600 5.680000
-1.940920 1.948520 50.340200 -14.563200 6.670000
-2.250950 1.965180 50.758300 -14.563200 8.320000
13.949800 0.594684 49.339500 -14.208000 6.840000
14.067000 0.599681 49.754200 -14.208000 6.190000
14.184200 0.604678 50.168800 -14.208000 5.510000
14.698600 -0.298513 53.159800 -14.208000 7.950000
14.813600 0.000000 53.575900 -14.208000 7.420000
14.733500 0.835544 54.931100 -14.296800 14.570000
14.844400 1.019090 55.344400 -14.296800 20.300000
15.181400 0.317170 56.600900 -14.296800 7.970000
-26.092300 1.435460 53.893900 -12.964800 11.510000
15.287800 1.259270 58.343200 -14.296800 14.490000
15.400300 0.000000 58.772700 -14.296800 22.000000
15.509300 -0.331163 59.188700 -14.296800 18.830000
15.158700 -0.333495 59.724100 -14.296800 10.090000
15.264300 0.527725 60.140500 -14.296800 15.560000
15.370300 0.531390 60.558100 -14.296800 11.040000
15.475900 0.729612 60.973800 -14.296800 14.990000
15.581900 0.734609 61.391500 -14.296800 10.950000
15.686300 0.999469 84.734500 -14.474400 9.800000
15.764700 1.004470 85.158200 -14.474400 10.100000
15.183500 0.740281 85.704100 -14.474400 7.760000
-14.093100 1.825940 86.310600 -14.385600 8.170000
-14.163300 1.563120 86.741000 -14.385600 9.250000
-14.232800 1.570780 87.166200 -14.385600 6.630000
-14.302900 1.303960 87.595800 -14.385600 6.320000
-13.863300 1.310290 88.102600 -14.385600 6.150000
-13.516200 0.000000 98.181000 -14.385600 4.860000
-13.574900 0.230882 98.607600 -14.385600 10.570000
-13.633700 0.231882 99.034500 -14.385600 12.410000
-12.925500 0.000000 99.564200 -14.474400 9.980000
-12.980900 -0.233881 99.991300 -14.474400 9.200000
-13.036400 -0.234880 100.419000 -14.474400 13.810000
-13.091900 -0.235880 100.846000 -14.474400 13.670000
-13.258100 0.557380 102.127000 -14.474400 6.220000
-12.720600 0.559712 102.629000 -14.474400 5.310000
-12.177700 0.571373 104.864000 -14.474400 9.770000
-12.227200 0.901530 105.290000 -14.474400 12.480000
-12.276900 0.905195 105.718000 -14.474400 10.200000
-12.326600 0.908859 106.146000 -14.474400 7.620000
13.636400 3.148170 150.164000 -14.652000 6.290000
13.675400 3.157160 150.593000 -14.652000 5.910000
