VERSION .7
FIELDS x y z velocity SNR
SIZE 4 4 4 4 4
TYPE F F F F F
COUNT 1 1 1 1 1
WIDTH 152
HEIGHT 1
VIEWPOINT 0 0 0 1 0 0 0
POINTS 152
DATA ascii
7.26480050573948 4.2916963535347 0.788808310592552 -1.54714707291727 6.7356708452983
-8.4856960721698 11.6274986478365 -1.11991303355733 1.85657648750073 5.05704205579645
-9.11484404479726 11.9952885517026 0.116860490458155 1.85657648750073 6.14357515236632
-9.29493398976207 12.2322899578151 -0.715770504056204 1.701861780209 7.17217462880352
-8.23136079664635 12.9916027624004 -0 1.701861780209 7.17217462880352
-9.30473662906386 12.2451903965297 -0.119295084009367 1.85657648750073 17.019850379802
-9.30389680753158 12.2440851772235 -0.238590168018734 2.01129119479245 7.33337239101584
-9.3686725635209 12.5809783681632 -0.486918710242317 1.701861780209 6.05410589703276
13.3251731042833 7.03744396871634 -4.38226839218084 1.701861780209 6.05410589703276
13.6552345169351 6.00963554486835 -4.86918710242316 1.701861780209 6.05410589703276
-9.60940945442947 12.3926966076875 -0.608648387802895 1.85657648750073 16.1286913143755
-9.37205722370397 12.5855235517266 -0.243459355121157 2.01129119479245 8.82477000315155
5.34877123905265 14.7311475433304 4.55755912786808 0.464144121875182 6.77132670118628
4.70407286610721 15.2504171650547 3.41816934590106 0.618858829166909 8.20519903916509
5.1467736703768 14.547371547847 -5.31715231584609 0.618858829166909 8.20519903916509
-0.627467012631201 16.166688291077 2.15218069927104 0.773573536458636 27.5795654746202
-3.36803312089889 15.7253476878952 2.78517502258605 0.928288243750363 25.7503761866727
-2.70345846335375 15.6101412660771 3.92456480455307 0.928288243750363 25.7503761866727
-0.628695242900769 16.1983336453634 1.89898296994503 0.928288243750363 25.7503761866727
0.487377028950008 15.7008427064489 4.43096026320508 0.928288243750363 25.7503761866727
6.2904132404789 15.3084455675438 1.67743495678478 0.773573536458636 106.721802623693
6.95080759605879 15.0688170048887 1.16130112392792 0.773573536458636 106.721802623693
6.27969825312807 15.282369410963 1.93550187321321 0.928288243750363 100.269626077351
6.95080759605879 15.0688170048887 1.16130112392792 0.928288243750363 100.269626077351
6.27375887308142 15.2679152451279 2.06453533142742 1.08300295104209 8.81661015529043
6.40910028275208 15.5972841631579 1.70908467295053 0.773573536458636 79.2335241832002
7.08559345731248 15.3610223997308 1.0517444141234 0.773573536458636 79.2335241832002
6.3981831258286 15.5707160036226 1.97202077648138 0.928288243750363 98.4099024944947
7.08195490919197 15.3531343068677 1.18321246588883 0.928288243750363 98.4099024944947
6.38568352085445 15.5402967743848 2.23495688001223 1.08300295104209 9.1801624301389
5.45890651254123 15.8423719172355 4.15098200481575 0.309429414583454 9.0123171091696
6.05185089199186 15.8448265263635 3.21366348759928 0.309429414583454 9.0123171091696
7.22007650833541 15.6525713252503 0.937318517216457 0.773573536458636 9.08583999707037
-4.30554308259122 16.2602059412347 3.88317671418247 1.54714707291727 7.4110108122199
5.32792490215719 15.8835590858836 5.31715231584609 0.309429414583454 7.19877362647996
5.5794145070273 16.1920999192195 -3.9537799271676 0.464144121875182 6.31922149676495
6.23954736521896 16.3362494168099 1.77238410528203 0.464144121875182 6.31922149676495
6.75733705910524 16.059665347585 2.31773306075342 0.464144121875182 6.31922149676495
-15.2003497086409 8.3485610647034 -2.86308201622482 2.47543531666763 5.31040878491793
-12.6606594125962 12.1549677372474 0.954360672074938 2.47543531666763 5.31040878491793
-9.59106641325065 13.6827350511852 5.45348955471394 2.47543531666763 5.31040878491793
-8.42208402364609 15.3546642255498 -1.49970962754633 2.47543531666763 5.31040878491793
-7.84642619167056 15.5763105398748 -2.18139582188558 2.47543531666763 5.31040878491793
15.940527408788 6.64374369470651 3.27209373282836 2.47543531666763 5.31040878491793
-14.5441335424604 9.77526147867965 -1.36337238867849 2.63015002395936 7.9934190837285
-12.6549282324017 12.1494654716789 -1.09069791094279 2.63015002395936 7.9934190837285
-11.9962332463411 12.8437680715693 -0.272674477735696 2.63015002395936 7.9934190837285
-8.4274418657247 15.3644323382711 -1.36337238867849 2.63015002395936 7.9934190837285
-7.77028744365275 15.7637122347464 0.272674477735696 2.63015002395936 7.9934190837285
-0.952952859012619 17.5250511640847 -0.954360672074938 2.63015002395936 7.9934190837285
4.89313778873447 16.8261019307757 3.60806764289556 0 5.68273808459065
-6.03928689486866 16.6329091914144 2.63666481596214 0.154714707291727 7.96667258099432
-0.406378183825508 17.4589672448581 3.88561130773368 0.154714707291727 7.96667258099432
4.81892421075137 16.5709026533987 4.71824230224804 0.154714707291727 7.96667258099432
5.51159173096834 16.4311048905097 4.44069863740992 0.154714707291727 7.96667258099432
5.81426231153228 16.4340302371041 4.02438314015274 0.309429414583454 12.6746224912639
5.77752318553498 16.7670339939725 2.35912115112402 0.464144121875182 11.1739531563101
9.29743306813053 15.2845391308428 0.13877183241906 1.54714707291727 7.36639856743156
-12.8867426163926 12.3720207325554 -0.97140282693342 2.47543531666763 20.8757163168637
-1.10451614850149 17.7652515256293 -1.80403382144778 2.47543531666763 20.8757163168637
-1.10612624273693 17.7911485929663 -1.52649015660966 2.63015002395936 39.1442952170478
-1.10682992245693 17.8024667137889 -1.3877183241906 2.78486473125109 7.16916824988361
6.15883006244163 16.962145189854 2.40050924149462 0 11.2987994479286
3.51728739466787 17.7939327119826 -1.55327068567299 0.154714707291727 22.1077686556287
5.21189137007064 17.396238401196 -1.27085783373245 0.154714707291727 22.1077686556287
6.46729654631729 16.9325374500791 1.69447711164326 0.154714707291727 22.1077686556287
5.34547468890401 16.8425733885261 4.37739920507842 0.309429414583454 15.8544611502138
-1.81770348798928 17.9344260374772 -2.54171566746489 2.47543531666763 57.1409078845463
-1.12297100730064 18.0620830467271 -1.9768899635838 2.47543531666763 57.1409078845463
-0.562765983146859 18.1294965849431 -1.55327068567299 2.47543531666763 57.1409078845463
-0.562373612723243 18.1168563784133 -1.69447711164326 2.63015002395936 91.3610059179909
-0.561485503650319 18.0882459597191 -1.9768899635838 2.78486473125109 16.1308533642107
6.40053416526728 17.1837869462702 2.5855383513867 0 7.85733096952081
5.30687778373609 17.7132838228424 -1.00548713665038 0.154714707291727 26.6614535478158
6.58757984550024 17.2474606105447 1.43641019521483 0.154714707291727 26.6614535478158
-1.85289682543452 18.2816621579964 -2.29825631234373 2.47543531666763 40.5979725623456
-0.567608211493678 18.2854888888601 -2.87282039042967 2.63015002395936 61.858792413781
-0.710362692976976 18.3024955890689 -2.72917937090818 2.78486473125109 8.69529608533742
-15.0698263318374 10.7362650764935 -3.50581471374467 0 5.06297734259591
5.54485858101976 17.9762110172759 -0.876453678436169 0.154714707291727 13.1243519557775
5.69077591209923 17.9305518247323 0.876453678436169 0.309429414583454 9.58329975180465
6.57261155948071 17.6457704626583 0.292151226145389 0.309429414583454 9.58329975180465
-2.17625276388728 18.5774229944301 -2.19113419609042 2.47543531666763 6.21655858126545
-0.875503986476804 18.7915702374975 0.876453678436169 2.47543531666763 6.21655858126545
-2.17996608256874 18.6091214685243 -1.89898296994503 2.63015002395936 7.96942011365389
-1.45635516112754 18.7190547689456 -1.46075613072695 2.63015002395936 7.96942011365389
-0.87516078888914 18.7842039414286 1.02252929150886 2.63015002395936 7.96942011365389
-15.1939412914583 10.8246888630127 -4.30679599209328 0 6.01943004114469
4.90068938626519 18.5078205341606 0.148510206623906 0.154714707291727 6.94329325458036
5.63251222018187 18.2603806297172 -1.18808165299125 0.154714707291727 6.94329325458036
-1.62869052186097 19.0189398154491 -1.48510206623906 2.63015002395936 6.43498327035775
-1.03427279695205 19.020545993205 -1.93063268611078 2.63015002395936 6.43498327035775
-0.319728358776747 20.6075295719268 -2.08888126693953 2.63015002395936 5.28570813522865
-10.3991620933737 24.1435068687937 4.55268994076565 3.86786768229318 6.59709648792949
16.7616723419949 20.7552884300239 -0.206940451852984 3.86786768229318 6.59709648792949
15.621642708449 23.2032076107836 3.94404155296276 3.24900885312627 5.18716407911771
17.9338323440163 20.8801507352987 6.35428916866222 3.24900885312627 5.18716407911771
15.3337861590536 27.3770356036264 0.730378065363476 2.16600590208418 5.80298540660896
15.31531380556 27.3440549507054 1.7042154858481 2.32072060937591 5.19463685784706
1.26354890185271 32.5553388872598 2.02558183460804 1.85657648750073 15.526826519058
14.893658781131 28.9364415012983 2.53197729326004 1.85657648750073 15.526826519058
1.25953595881749 32.4519454054127 3.29157048123805 2.01129119479245 6.12744678863276
16.9239119646679 26.7111048662062 -8.10232733843214 2.01129119479245 6.12744678863276
15.0455112011126 29.2314709988986 -2.30069090589494 1.701861780209 11.5489015190759
16.8636106143376 28.2968647309685 1.02252929150887 1.701861780209 11.5489015190759
16.8671647749589 28.3028285547684 0.76689696863165 1.85657648750073 57.5579764709803
16.8636106143376 28.2968647309685 1.02252929150887 2.01129119479245 18.8487933952398
14.4304290079054 29.9236655570832 -1.80646841499899 1.701861780209 10.1394925484069
17.0242164297123 28.5663586807872 1.03226766571371 1.701861780209 10.1394925484069
17.0278044394823 28.572379302909 0.774200749285285 1.85657648750073 52.0956844868136
17.0196021628326 28.5586160159029 1.29033458214214 2.01129119479245 17.4268530644483
14.5665651306215 30.2059642887538 -1.82351056985747 1.85657648750073 5.59750540709633
17.1848222450869 28.835852630606 1.04200603991856 1.85657648750073 5.59750540709633
-7.94577867126605 33.2088368121598 2.1229655766565 1.54714707291727 7.35186626669903
-5.52412304581853 33.4604459644272 4.51130185039506 1.54714707291727 7.35186626669903
-4.16533572044032 33.3032385510998 6.63426742705156 1.54714707291727 7.35186626669903
0.529446560426559 34.1245477645093 -2.38833627373856 1.54714707291727 7.35186626669903
2.65083151461033 34.0720873793038 -1.59222418249237 1.54714707291727 7.35186626669903
17.257571418623 28.9579245622888 5.83815533580537 1.54714707291727 7.35186626669903
16.5859366326995 30.2385356339742 1.60683174379964 1.39243236562554 5.27350228170457
16.5794349450665 30.2266821271434 1.87463703443291 1.54714707291727 22.9502377036297
16.7225837356737 30.4876628544665 2.16191907347589 1.54714707291727 19.3169576377323
16.7139964626403 30.4720070270406 2.43215895766037 1.701861780209 7.35197053102271
-14.3085180970137 34.8214277928225 1.16860490458156 -0.464144121875182 5.20704054015486
-24.5967546082291 46.7785505577115 4.52590941170233 0.309429414583454 7.42629880903694
-23.0236585004356 47.7430197321301 2.05723155077379 0.309429414583454 7.42629880903694
16.7548552204442 57.6151569701651 5.60930354199148 -0.464144121875182 9.76254795380654
16.3742834221789 58.0492411871899 5.63851866460602 -0.464144121875182 9.19127895719444
8.39342804052382 12.4669637518412 1.0517444141234 -0.934395403248721 5.12970301663679
-3.36458857713984 14.5742375870998 3.57885252028102 -1.24586053766496 9.0374119153074
-1.13925267030999 16.2796007683897 -0.253197729326004 -1.14203882619288 13.0981909139806
-0.60636552376109 15.6230084064402 4.68415799253108 -1.14203882619288 13.0981909139806
7.44682939056549 14.4682207506491 -1.26598864663002 -1.14203882619288 13.0981909139806
7.60881772031789 14.1670757271146 4.25810412106905 -1.14203882619288 6.24897726780615
7.53992207046002 14.0387969425934 4.77423795392591 -1.0382171147208 11.7748494927441
-7.75554452258951 14.7496341420246 -5.58982679358179 1.0382171147208 6.96977017767819
-12.5901903679476 12.634872380505 -1.3877183241906 0.934395403248721 16.1379464613617
-0.967860462394811 17.799205871252 -1.52649015660966 0.934395403248721 16.1379464613617
-0.967860462394811 17.799205871252 -1.52649015660966 1.0382171147208 64.6555236076594
-0.829594682052696 17.8061858966312 -1.52649015660966 1.14203882619288 27.8000428786999
-0.984840470507001 18.111472640923 -1.55327068567299 0.934395403248721 41.8714255161898
-0.984840470507001 18.111472640923 -1.55327068567299 1.0382171147208 165.509631405204
-0.985466992362968 18.1229945409597 -1.41206425970272 1.14203882619288 69.9894594678359
-1.45441451566356 18.6941109573692 -1.75290735687234 0.934395403248721 5.20409097104187
-1.45441451566356 18.6941109573692 -1.75290735687234 1.0382171147208 24.4350903102937
-1.45211768185427 18.6645889293511 -2.04505858301773 1.14203882619288 8.28158819601474
-1.47501576219027 18.9589061614068 -2.2276530993586 1.0382171147208 10.7573912050508
-0.888376648287799 19.0678654141058 -1.48510206623906 1.0382171147208 10.7573912050508
-0.324306282280786 20.9025915875342 -2.28364875103646 1.0382171147208 6.13218571405489
16.8758134557322 19.2448517218324 -4.84971035401347 0.20764342294416 8.06529665728088
-31.7147819640197 49.0505451382229 12.0268921429852 -0.934395403248721 10.9951109241376
-31.981520326455 49.4630865866104 -11.1601768387539 -0.934395403248721 5.48124893421194
