VERSION .7
FIELDS x y z velocity intensity
SIZE 4 4 4 4 4
TYPE F F F F F
COUNT 1 1 1 1 1
WIDTH 861
HEIGHT 1
VIEWPOINT 0 0 0 1 0 0 0
POINTS 861
DATA ascii
-8.197560 1.396560 9.897320 -9.856800 2.790000
-8.371890 1.443110 10.308400 -9.856800 2.250000
-8.255220 1.656390 11.459000 -10.389600 3.240000
7.580870 1.537710 12.442100 -11.277600 2.210000
-8.513550 1.582760 11.817500 -10.389600 7.980000
-8.669930 1.629320 12.232300 -10.389600 7.800000
-7.825890 1.722420 13.783200 -11.011200 4.110000
-7.832670 1.466620 14.304300 -11.188800 4.320000
-8.028850 4.241440 14.140700 -11.188800 6.340000
-6.745980 4.492380 14.721500 -11.632800 3.780000
-1.222490 1.596890 17.118300 1.776000 12.270000
-6.802380 4.607570 15.151800 -11.632800 5.180000
-1.354460 1.636810 17.538700 1.776000 14.270000
-1.387880 1.621000 17.971500 1.776000 12.080000
-6.626180 0.830632 17.283400 -11.899200 5.620000
-0.579322 2.499430 18.785200 1.776000 5.180000
-6.643770 0.849949 17.737100 -11.988000 6.290000
-7.387270 0.967087 17.434400 -11.810400 7.520000
-1.221380 2.556230 19.182400 1.776000 7.180000
-7.555160 0.989067 17.830700 -11.810400 5.800000
-1.399610 2.613040 19.598500 1.776000 7.620000
8.256420 0.291175 18.017600 -11.988000 11.660000
8.435900 0.297504 18.409300 -11.988000 16.750000
8.615390 0.303834 18.801000 -11.988000 17.360000
9.381110 -1.485960 18.373400 -11.632800 7.470000
8.793910 0.440743 19.190600 -11.988000 13.700000
7.124270 -0.699521 20.321000 -12.343200 9.080000
7.008860 0.449738 20.368100 -12.076800 7.420000
7.266760 -0.713511 20.727400 -12.343200 6.890000
7.571910 -0.727502 21.076100 -12.343200 5.300000
9.451910 -0.051973 20.315600 -11.899200 7.460000
7.720760 -0.335484 21.490400 -12.343200 5.460000
9.792980 -0.052973 20.631400 -11.899200 8.130000
7.992870 -0.341814 21.850100 -12.343200 7.220000
8.885640 1.702660 21.904600 -12.165600 5.090000
9.216730 1.808050 22.227400 -12.254400 8.270000
-7.653960 1.808050 22.812800 -12.076800 9.810000
8.492280 -3.091010 24.223000 -12.343200 10.440000
8.109950 -3.142530 24.804200 -12.432000 7.910000
6.177900 -3.194040 25.794700 -12.520800 4.950000
8.410650 2.117770 25.723900 -12.432000 5.780000
8.745310 2.151380 26.065600 -12.432000 6.860000
9.238200 2.185000 26.350700 -12.343200 8.490000
8.415900 2.252230 27.524400 -12.520800 8.500000
18.446000 1.562460 22.712700 -10.389600 6.780000
8.543540 2.195490 27.941900 -12.520800 9.630000
18.717200 1.585440 23.046700 -10.389600 6.960000
-15.047400 1.860830 25.575600 -13.053600 9.530000
18.988500 1.608420 23.380700 -10.389600 9.940000
-15.271100 1.701560 25.955800 -13.053600 6.410000
19.259800 1.631390 23.714700 -10.389600 12.640000
-15.477200 2.103600 26.306200 -13.053600 5.400000
-15.489200 2.133230 26.796900 -13.053600 6.310000
19.057300 1.700330 25.508500 -10.656000 13.470000
19.314800 1.723300 25.853200 -10.656000 12.580000
9.194790 1.922880 30.922100 -12.520800 9.320000
18.700700 1.847410 26.820300 -10.922400 6.410000
18.946700 1.871720 27.173200 -10.922400 6.790000
19.196000 1.792240 27.530800 -10.922400 5.580000
-5.451040 9.284860 31.839000 -12.698400 8.420000
-7.911590 2.235580 33.033400 -12.609600 6.090000
18.816400 1.545360 28.842200 -11.100000 10.710000
-6.459290 2.051080 33.799300 -12.609600 11.600000
19.051600 1.564680 29.202800 -11.100000 8.970000
-6.342100 2.076710 34.259000 -12.609600 14.500000
19.286800 1.584000 29.563300 -11.100000 6.740000
-10.442700 1.907120 34.153000 -12.432000 7.690000
-11.360100 1.907120 33.858900 -12.254400 5.160000
19.051700 1.622630 30.733000 -11.277600 6.890000
-10.575600 1.398940 34.587900 -12.432000 7.050000
19.278500 1.641950 31.098900 -11.277600 10.880000
-10.700200 1.528780 34.995300 -12.432000 10.610000
19.505300 1.661260 31.464800 -11.277600 13.730000
-5.748960 2.319300 36.535200 -12.698400 9.920000
19.729300 1.796400 31.826100 -11.277600 12.170000
-5.527320 2.693300 36.980600 -12.698400 6.280000
-5.590850 2.724260 37.405700 -12.698400 5.940000
19.209200 1.699900 32.649400 -11.455200 8.630000
-5.436800 2.636910 37.871100 -12.787200 8.670000
19.427500 1.719210 33.020400 -11.455200 7.210000
-4.980860 2.666540 38.367300 -12.787200 6.800000
-21.890000 -2.333100 32.449300 -10.567200 6.050000
-10.054600 2.309260 39.614200 -12.432000 6.160000
-9.933230 1.982230 40.107100 -12.432000 8.850000
-10.036700 2.002880 40.524900 -12.432000 10.020000
-22.153700 -3.912390 35.736900 -10.833600 6.790000
-10.138600 2.153970 40.936400 -12.432000 12.140000
-9.122930 2.175950 41.615300 -12.520800 7.980000
19.381800 1.780580 37.960200 -11.721600 12.460000
19.577500 1.798560 38.343600 -11.721600 9.690000
9.553950 -2.085470 42.408000 -12.698400 6.070000
19.770700 1.951020 38.721900 -11.721600 7.270000
10.225300 -2.106120 42.693900 -12.609600 9.960000
19.966400 1.970340 39.105300 -11.721600 8.700000
7.731350 -2.366670 43.640000 -12.698400 6.900000
19.627700 1.989650 39.757000 -11.810400 5.710000
-19.394500 -1.189260 40.859500 -11.544000 14.380000
11.235900 -0.529718 44.268700 -12.609600 9.510000
-20.938900 -2.351780 41.010000 -11.366400 9.030000
-21.988800 -1.524960 41.474900 -11.277600 11.100000
-18.308200 -1.960430 43.208500 -11.721600 6.540000
-22.190500 -1.538950 41.855400 -11.277600 7.960000
-18.727900 -1.978420 43.497300 -11.721600 6.740000
22.952000 -1.996400 41.915600 -11.544000 8.100000
22.933500 0.261199 42.462800 -11.632800 6.210000
-19.255100 0.263531 44.721900 -11.721600 8.130000
19.762300 1.043390 45.899900 -12.076800 4.890000
19.932700 1.052390 46.295600 -12.076800 8.390000
20.101600 1.218600 46.688100 -12.076800 5.890000
20.270800 1.347820 47.081000 -12.076800 6.190000
-13.811500 -5.070130 52.709400 -12.343200 7.310000
-14.892600 -6.763480 52.674100 -12.254400 7.120000
-14.716700 -6.346890 53.225500 -12.254400 10.090000
-14.417000 -6.396090 53.750800 -12.343200 14.020000
-18.933200 1.472410 52.699800 -12.076800 13.210000
11.645600 3.010040 55.151500 -12.787200 7.780000
-19.080000 1.352850 53.108300 -12.076800 5.630000
11.734500 3.033020 55.572500 -12.787200 7.370000
-19.536000 1.187310 53.405400 -12.076800 8.650000
-16.755500 0.841874 54.799200 -12.254400 9.070000
-19.686100 0.841874 53.815900 -11.988000 7.410000
-16.880600 1.026760 55.208400 -12.254400 10.070000
12.202100 1.972650 59.486300 -12.787200 6.310000
-16.765500 -0.340492 60.635300 -12.432000 14.370000
-28.791600 1.860780 56.389900 -11.366400 10.250000
-16.409000 0.538719 61.177600 -12.432000 9.950000
-28.991700 1.528410 56.781700 -11.366400 6.340000
21.098200 0.542384 60.179700 -12.343200 9.740000
-29.187600 1.538740 57.165400 -11.366400 6.000000
21.241500 0.148924 60.588300 -12.343200 7.220000
-29.385500 1.349210 57.553100 -11.366400 7.070000
21.384000 0.149924 60.994900 -12.343200 4.960000
21.523200 1.157020 61.392000 -12.343200 7.440000
-14.225300 -3.516680 67.368800 -12.609600 12.340000
-14.840700 -3.110040 67.697600 -12.520800 12.860000
20.218600 -2.574150 69.462700 -12.520800 5.570000
-17.438000 7.496220 94.197400 -12.609600 5.880000
-17.520400 7.232190 94.642200 -12.609600 6.210000
-17.602600 6.965440 95.086400 -12.609600 10.660000
17.883500 0.227884 96.603600 -12.787200 5.550000
17.434100 2.395880 98.407700 -12.787200 6.830000
-16.560100 6.763350 101.420000 -12.698400 6.680000
-16.626000 7.110760 101.823000 -12.698400 5.420000
-16.687800 7.781070 102.202000 -12.698400 8.860000
28.382700 1.004140 114.600000 -12.698400 7.460000
28.485400 1.374270 115.015000 -12.698400 8.760000
-62.167200 -12.952200 119.475000 -11.277600 5.380000
-63.287100 -12.993400 119.371000 -11.188800 9.500000
-63.506600 -12.615400 119.785000 -11.188800 10.490000
-8.953460 0.326833 140.619000 -12.876000 7.340000
-8.980840 0.327833 141.049000 -12.876000 6.350000
-8.314440 1.224030 143.675000 -12.876000 4.370000
-8.339080 1.674110 144.101000 -12.876000 7.280000
-8.363970 1.679110 144.531000 -12.876000 7.580000
-8.388860 1.684100 144.961000 -12.876000 7.800000
19.642800 3.948700 188.101000 -12.964800 8.030000
19.687500 3.957700 188.530000 -12.964800 7.810000
5.949750 -0.390616 4.255330 -7.459200 1.290000
5.849780 -0.390616 4.391760 -7.459200 1.640000
6.891800 -0.046643 5.174060 -7.725600 4.370000
7.119620 -0.048975 5.584910 -7.903200 5.710000
7.299410 0.907479 5.980110 -8.169600 4.150000
7.129250 0.918213 6.822960 -8.791200 5.030000
6.960910 1.117240 7.566120 -9.412800 3.800000
7.370280 0.958135 7.190950 -8.880000 4.220000
7.097750 1.163800 8.019620 -9.501600 3.700000
6.678390 -1.003470 8.939150 -10.212000 7.300000
6.773230 -1.042070 9.401830 -10.300800 8.690000
7.554440 1.405420 9.301840 -10.034400 6.390000
7.504530 1.455610 9.885130 -10.212000 6.750000
7.277590 1.229830 12.154200 -10.922400 5.050000
7.498120 1.267100 12.522500 -10.922400 5.200000
-7.379180 0.972321 15.546100 -11.277600 7.410000
7.745290 1.132680 16.317400 -11.455200 9.100000
17.897800 1.614330 11.884800 -7.192800 9.290000
18.255800 1.646620 12.122500 -7.192800 9.520000
8.616010 0.175908 18.802300 -11.544000 10.090000
18.613700 1.678900 12.360200 -7.192800 6.670000
8.647310 0.179573 19.261300 -11.632800 9.380000
17.883800 1.402370 13.426400 -7.814400 14.790000
8.672040 0.183238 19.721800 -11.632800 6.260000
18.095000 1.429340 13.859500 -7.903200 17.590000
8.845490 0.186903 20.116200 -11.632800 11.270000
18.436500 1.456310 14.121000 -7.903200 15.770000
8.113020 -1.886140 20.801100 -11.721600 5.520000
8.278860 -1.570290 21.226300 -11.810400 6.860000
8.435060 -1.599920 21.626800 -11.810400 6.370000
8.310680 -0.567990 22.187300 -11.899200 9.270000
7.070320 -2.511950 24.290600 -12.076800 6.280000
18.512100 1.300840 19.812900 -9.412800 5.210000
18.806000 1.321490 20.127400 -9.412800 7.110000
18.628100 1.538550 23.673500 -10.123200 8.380000
18.664900 1.466020 24.196300 -10.123200 7.870000
7.692420 1.516570 28.679700 -12.165600 8.730000
18.930500 1.390830 24.540600 -10.123200 8.130000
7.727240 -2.575300 29.489700 -12.165600 9.940000
19.193400 1.410140 24.881400 -10.123200 5.920000
7.832380 -2.778850 29.891000 -12.254400 15.680000
18.870500 1.330940 25.668800 -10.389600 8.420000
8.005040 -2.778850 29.845200 -12.165600 9.490000
19.123000 1.448780 26.012200 -10.389600 12.870000
19.377900 1.468090 26.359000 -10.389600 7.200000
19.377300 1.384890 26.897400 -10.389600 5.640000
19.237300 1.420860 28.048300 -10.656000 9.480000
19.480800 1.438850 28.403300 -10.656000 7.510000
19.724300 1.456830 28.758300 -10.656000 4.740000
18.828800 1.584000 29.857100 -10.744800 11.270000
19.058400 1.603310 30.221200 -10.744800 9.400000
-5.689760 1.365630 34.845900 -12.254400 9.330000
19.288000 1.622630 30.585300 -10.744800 8.150000
19.027100 1.203180 31.776900 -11.011200 11.870000
19.495600 1.217170 31.997100 -11.011200 7.030000
19.719600 1.231160 32.364900 -11.011200 11.680000
19.135900 1.379010 33.702800 -11.100000 8.610000
19.346300 1.515520 34.073400 -11.100000 6.190000
19.558900 1.532170 34.447800 -11.100000 12.700000
-9.585570 2.153970 41.069400 -12.165600 6.760000
-9.683380 2.175950 41.488500 -12.165600 5.810000
-9.459360 2.064820 41.988200 -12.165600 9.190000
-9.308650 2.085470 42.462600 -12.165600 8.450000
19.480900 1.413030 38.891700 -11.366400 8.450000
-9.316140 1.143950 42.496700 -12.165600 6.990000
19.671800 1.562870 39.272600 -11.366400 12.500000
9.067540 -2.343690 42.942400 -12.343200 6.320000
19.864600 1.578200 39.657700 -11.366400 13.700000
9.147780 -3.051700 43.322400 -12.343200 12.890000
-10.998600 -3.081330 43.333500 -12.165600 9.670000
20.057500 1.593520 40.042700 -11.366400 9.070000
11.594400 -2.285840 43.227400 -12.343200 5.500000
19.708900 1.189260 40.708800 -11.455200 15.190000
19.896600 1.200580 41.096500 -11.455200 10.710000
19.992300 0.696287 42.970800 -11.544000 14.370000
20.174100 0.702617 43.361400 -11.544000 9.630000
10.508300 1.257210 46.644300 -12.343200 7.480000
20.353600 1.007410 43.747200 -11.544000 10.490000
10.603000 1.268540 47.064600 -12.343200 7.120000
-20.877200 -0.715277 43.983100 -11.188800 9.050000
19.767300 1.177290 44.954400 -11.632800 9.430000
19.940700 1.187610 45.348700 -11.632800 8.620000
20.114100 1.197940 45.743100 -11.632800 7.820000
20.286300 1.325170 46.134700 -11.632800 8.310000
19.999500 1.228920 47.200100 -11.721600 11.580000
20.167600 1.239250 47.596800 -11.721600 7.320000
20.612700 1.249580 47.875000 -11.721600 7.660000
20.290200 1.720820 48.932800 -11.721600 8.370000
20.455200 1.734810 49.330600 -11.721600 10.390000
20.615600 2.081750 49.717500 -11.721600 8.680000
20.361200 -0.131933 53.109300 -11.810400 8.810000
-19.370100 1.506390 53.916000 -11.721600 10.030000
-19.515800 1.517720 54.321300 -11.721600 6.930000
-19.662600 1.394160 54.729900 -11.721600 6.640000
-19.067000 0.679639 55.409700 -11.810400 4.620000
20.704900 0.867194 55.276500 -11.899200 6.550000
-18.776400 0.684636 55.963500 -11.810400 8.450000
-29.032800 1.313240 55.796200 -11.011200 17.720000
-29.231600 1.322230 56.178400 -11.011200 15.270000
-28.412300 1.687610 57.550500 -11.100000 9.400000
-28.602900 1.698940 57.936800 -11.100000 5.170000
-29.130300 1.710270 58.155600 -11.100000 6.150000
15.138300 0.000000 81.774300 -12.432000 7.020000
15.691600 0.000000 82.108700 -12.343200 6.420000
15.772500 0.000000 82.531900 -12.343200 5.430000
16.682600 2.292610 94.166000 -12.432000 6.770000
16.757800 2.302940 94.590100 -12.432000 6.900000
-17.528200 6.636710 94.684400 -12.254400 5.960000
-17.606500 6.666340 95.107100 -12.254400 5.560000
-17.684700 6.695970 95.529800 -12.254400 6.460000
-17.763000 6.725590 95.952500 -12.254400 10.010000
18.926700 0.545719 99.036800 -12.432000 6.060000
19.007600 0.548051 99.460100 -12.432000 7.040000
19.085700 1.808320 99.869000 -12.432000 6.820000
29.257300 0.643669 115.272000 -12.254400 6.930000
29.363300 0.646001 115.689000 -12.254400 8.460000
29.469300 0.648333 116.107000 -12.254400 5.940000
18.533800 1.842000 124.001000 -12.432000 7.580000
19.556000 1.848330 124.280000 -12.432000 8.840000
-63.118300 -14.004500 121.303000 -10.922400 8.970000
-63.295800 -14.472600 121.644000 -10.922400 7.070000
-8.926100 0.000000 140.190000 -12.432000 5.910000
-8.953480 0.000000 140.620000 -12.432000 7.160000
-8.980260 1.639130 141.040000 -12.432000 6.630000
-9.007640 1.644130 141.470000 -12.432000 6.040000
-9.035020 1.649120 141.900000 -12.432000 7.350000
-8.364410 0.783597 144.538000 -12.432000 8.380000
-8.389300 0.785929 144.969000 -12.432000 4.660000
-8.414200 0.788261 145.399000 -12.432000 7.430000
-8.438910 1.242350 145.826000 -12.520800 7.470000
26.109000 0.375808 159.900000 -12.432000 6.610000
25.251300 0.376808 160.474000 -12.432000 8.180000
25.318000 0.881547 160.898000 -12.432000 7.020000
19.734400 2.791480 188.979000 -12.520800 7.690000
19.778200 3.386760 189.398000 -12.520800 7.680000
5.563940 -0.481075 4.740380 -8.258400 1.990000
5.891230 -0.509373 5.019220 -8.169600 1.320000
5.793430 -0.509373 5.131800 -8.436000 3.650000
6.170690 -0.461853 5.360770 -8.436000 3.050000
7.159690 1.354050 7.934240 -9.501600 5.220000
6.796300 -1.305030 8.810410 -10.123200 7.370000
7.097730 -1.305030 8.569440 -9.945600 6.720000
6.986970 -1.355220 9.203400 -10.212000 9.810000
7.410170 -1.405420 9.417180 -10.123200 10.640000
7.773160 -1.553550 9.095800 -9.856800 10.630000
7.555940 0.028985 9.952860 -10.123200 10.060000
8.044870 0.028985 9.561990 -9.856800 10.520000
7.895620 0.029985 10.235500 -10.123200 6.860000
8.245700 0.069964 9.955450 -9.856800 6.470000
-7.940400 1.556000 10.628400 -10.034400 5.230000
-8.017990 1.404840 11.129700 -10.034400 8.380000
-8.280660 1.229830 11.494300 -10.034400 7.930000
-8.282380 0.899397 13.593500 -10.567200 8.390000
-6.731340 1.660440 15.308300 -11.366400 5.410000
-6.932700 0.666161 15.766200 -11.366400 6.490000
-7.713530 0.666161 15.399300 -11.100000 7.940000
7.689670 0.846578 15.883100 -11.455200 5.970000
-7.904330 0.791998 15.780200 -11.100000 7.330000
-7.936150 0.887874 16.719500 -11.277600 4.190000
-6.479520 1.931660 17.713000 -11.632800 6.960000
-6.651970 1.033980 18.184400 -11.632800 6.170000
-7.440280 1.056960 18.341600 -11.632800 6.490000
-7.348570 1.079940 18.841100 -11.632800 7.160000
8.615740 0.239872 18.801800 -11.632800 9.850000
8.498340 0.244870 19.326800 -11.721600 16.810000
8.672040 0.183238 19.721800 -11.721600 18.300000
8.845490 0.186903 20.116200 -11.721600 14.900000
6.952260 -1.264020 21.263400 -12.076800 8.230000
8.860580 0.190567 20.579600 -11.632800 9.640000
7.252780 -1.288330 21.617100 -12.076800 8.610000
6.018410 -1.312630 22.438400 -12.165600 7.630000
18.399200 1.538550 23.851800 -10.212000 8.170000
18.662000 1.560530 24.192600 -10.212000 9.100000
18.924900 1.582510 24.533300 -10.212000 15.160000
9.309220 -2.457430 29.039400 -12.076800 10.020000
19.187700 1.604490 24.874100 -10.212000 15.980000
9.440330 -2.492040 29.448400 -12.165600 12.360000
5.218540 -2.492040 30.481100 -12.254400 12.290000
18.614300 1.626470 25.838300 -10.389600 9.390000
18.865900 1.648440 26.187400 -10.389600 8.970000
18.912300 1.670420 26.683200 -10.478400 14.320000
19.164100 1.589910 27.038400 -10.478400 8.020000
-6.158460 1.474820 34.761700 -12.343200 14.320000
19.528200 1.398940 30.443600 -10.833600 6.450000
-6.031510 1.271750 35.229500 -12.343200 15.240000
19.760700 1.415590 30.806000 -10.833600 5.490000
-6.104820 1.175190 35.657700 -12.343200 9.320000
19.241700 1.564750 32.135300 -11.011200 11.750000
19.241700 1.564750 32.135300 -11.011200 7.740000
19.462900 1.582730 32.504700 -11.011200 11.750000
19.177400 1.482210 33.177700 -11.100000 13.580000
19.392900 1.498860 33.550500 -11.100000 10.800000
19.608400 1.515520 33.923300 -11.100000 6.870000
19.558900 1.532170 34.447800 -11.100000 11.590000
-21.738500 -1.227860 35.678300 -10.656000 5.600000
-9.825730 1.893070 41.025500 -12.165600 9.030000
-14.417100 1.253180 40.129500 -12.432000 5.600000
-9.686260 1.912380 41.500800 -12.165600 8.620000
-14.562800 1.265840 40.534800 -12.432000 5.320000
19.478900 1.547550 38.887600 -11.455200 8.600000
19.671800 1.562870 39.272600 -11.455200 7.750000
19.864600 1.578200 39.657700 -11.455200 12.320000
20.057500 1.593520 40.042700 -11.455200 8.800000
-19.263200 -0.953445 41.403600 -11.277600 7.550000
-19.444900 -0.962440 41.794200 -11.277600 4.730000
-19.628800 -0.683627 42.189500 -11.277600 5.220000
19.745000 0.403123 43.088700 -11.632800 7.720000
19.923100 0.702617 43.477300 -11.632800 5.010000
23.499400 1.007410 42.141100 -11.100000 8.120000
20.102600 0.708947 43.869000 -11.632800 9.740000
-19.750300 -2.353900 44.915700 -11.366400 7.910000
19.943300 0.881171 45.354600 -11.632800 7.470000
20.115500 1.043390 45.746200 -11.721600 7.240000
-14.356300 -4.336380 53.524800 -12.076800 7.630000
20.913800 0.829214 52.424100 -11.810400 9.470000
21.073500 0.835544 52.824300 -11.810400 8.060000
-19.370100 1.506390 53.916000 -11.810400 8.440000
-19.516900 1.383830 54.324500 -11.810400 7.710000
-19.662600 1.394160 54.729900 -11.810400 7.410000
-16.701000 -0.860864 56.165600 -11.899200 8.660000
-16.825600 -0.136930 56.584600 -11.988000 7.650000
-17.715600 0.137930 56.763800 -11.899200 8.690000
-28.413900 1.538740 57.553900 -11.100000 15.680000
-28.937400 1.698940 57.770500 -11.100000 15.370000
-28.795300 1.559390 58.326400 -11.100000 8.850000
-16.219000 0.000000 63.901500 -12.076800 5.120000
-16.325000 0.000000 64.319200 -12.076800 8.990000
15.690500 0.969484 82.103100 -12.432000 6.350000
15.771900 0.714627 82.528900 -12.432000 4.770000
16.759000 2.005830 94.596700 -12.432000 5.270000
-17.606500 6.666340 95.107100 -12.254400 8.390000
-17.684700 6.695970 95.529800 -12.254400 6.410000
-17.763000 6.725590 95.952500 -12.254400 5.680000
-17.101400 6.452060 96.529900 -12.254400 9.630000
16.906600 6.904840 103.541000 -12.432000 6.060000
29.257300 0.643669 115.272000 -12.254400 12.560000
29.362700 1.015140 115.687000 -12.254400 8.550000
29.468700 1.018800 116.104000 -12.254400 7.640000
19.490400 1.066440 123.863000 -12.432000 8.090000
19.557800 0.680983 124.292000 -12.432000 6.320000
19.625100 0.000000 124.719000 -12.432000 6.890000
-61.771800 -14.336900 120.983000 -11.011200 9.480000
-62.900200 -14.382100 120.884000 -11.011200 7.540000
-8.165080 1.202040 141.094000 -12.520800 9.360000
-8.189970 1.205700 141.524000 -12.520800 8.360000
-8.215040 0.769604 141.957000 -12.520800 6.570000
-8.264830 0.774269 142.818000 -12.520800 5.840000
-9.062870 0.771936 142.338000 -12.520800 5.660000
-7.528600 1.231360 144.581000 -12.520800 5.590000
-8.389120 1.235020 144.966000 -12.520800 9.510000
-8.414010 1.238690 145.396000 -12.520800 8.380000
-8.438910 1.242350 145.826000 -12.520800 6.630000
26.175700 2.386370 160.309000 -12.432000 4.420000
25.315600 2.392700 160.883000 -12.432000 6.860000
26.314600 2.399020 161.159000 -12.432000 8.330000
26.384000 2.405350 161.584000 -12.432000 8.590000
19.732300 3.966690 188.958000 -12.520800 9.900000
19.777000 3.975690 189.386000 -12.520800 8.860000
19.821700 3.984680 189.815000 -12.520800 5.130000
6.905640 -0.899904 8.776010 -10.123200 8.160000
7.090730 -0.764060 9.192100 -10.123200 9.130000
7.356210 -0.717877 9.536240 -10.123200 9.990000
7.836160 -0.289158 9.169520 -9.856800 9.740000
7.546130 -0.637398 9.939930 -10.300800 9.800000
8.118330 -0.028985 9.499700 -9.856800 6.950000
-7.988850 0.516275 10.693200 -10.034400 5.400000
-8.154330 0.777857 11.092000 -10.034400 5.920000
-8.290320 1.021600 11.507700 -10.034400 4.480000
7.575460 3.598930 12.012500 -11.011200 9.570000
-7.817780 1.304370 12.830900 -10.656000 4.930000
-7.939180 1.341640 13.259100 -10.656000 14.910000
-8.161340 1.342060 13.630100 -10.656000 16.310000
-7.558240 4.523390 13.803100 -11.011200 14.240000
-8.384590 1.315240 14.003000 -10.656000 4.130000
-7.757140 4.642430 14.166400 -11.011200 9.600000
-8.073530 0.000000 15.228200 -11.011200 7.400000
-8.033790 0.000000 15.734600 -11.100000 6.540000
-8.229740 0.000000 16.118400 -11.100000 5.630000
-6.687070 1.356040 16.762300 -11.544000 7.880000
-8.423260 0.444065 16.497400 -11.100000 5.920000
-7.033410 1.153730 18.033100 -11.721600 4.020000
-7.081690 1.240560 18.471600 -11.721600 6.200000
8.324150 0.367793 18.930600 -11.721600 4.480000
8.497570 0.375456 19.325000 -11.721600 7.410000
8.671420 0.316494 19.720400 -11.721600 17.480000
8.845210 0.254864 20.115600 -11.721600 8.130000
7.991440 0.557663 21.846100 -11.988000 4.480000
8.173510 6.118260 23.752700 -11.988000 5.640000
7.940370 1.836950 25.442300 -12.165600 8.810000
8.402110 1.725990 26.209700 -12.165600 7.970000
9.097350 1.666500 26.437400 -12.165600 8.850000
18.622700 1.701560 23.666600 -10.212000 7.500000
8.840460 -1.860830 28.326300 -12.254400 9.030000
18.888700 1.725870 24.004700 -10.212000 8.330000
7.630560 -1.887800 29.120700 -12.254400 11.520000
19.154800 1.750180 24.342800 -10.212000 13.650000
19.420800 1.774490 24.680900 -10.212000 14.180000
8.135990 1.774490 30.333400 -12.254400 8.350000
8.661420 1.798790 30.634900 -12.254400 11.470000
9.017510 1.823100 30.980300 -12.254400 5.690000
9.319060 1.847410 31.340100 -12.254400 6.520000
9.441680 1.871720 31.752400 -12.254400 7.990000
-7.187760 1.714380 32.787800 -12.343200 10.560000
19.035400 1.651860 28.692200 -10.744800 6.190000
-6.193220 1.105240 33.454700 -12.343200 8.200000
19.273300 1.672510 29.050900 -10.744800 10.530000
-6.272220 1.012670 33.881500 -12.343200 9.860000
19.520400 1.734450 30.431400 -10.922400 8.230000
-5.550460 2.017570 35.273700 -12.432000 6.270000
19.514900 1.755100 30.945000 -10.922400 7.860000
-5.617340 2.041870 35.698700 -12.432000 6.390000
19.264800 1.546760 31.618400 -11.011200 10.440000
19.488800 1.564750 31.986100 -11.011200 8.770000
19.712900 1.582730 32.353700 -11.011200 5.530000
19.936900 1.600720 32.721400 -11.011200 11.030000
-5.446820 1.245150 37.940900 -12.432000 6.000000
19.131300 1.618700 33.694800 -11.277600 7.480000
-5.726150 1.858340 38.310900 -12.432000 6.110000
19.341300 1.757850 34.064600 -11.277600 5.720000
-5.789770 1.878990 38.736600 -12.432000 6.600000
19.553900 1.777170 34.438900 -11.277600 12.400000
19.766400 1.796480 34.813300 -11.277600 5.890000
-22.382600 -1.189890 33.737600 -10.389600 9.620000
-22.620700 -1.202550 34.096500 -10.389600 10.740000
-21.785900 -1.215210 35.143700 -10.567200 8.140000
-20.341400 -1.615440 36.477900 -10.922400 13.030000
-20.834500 -1.632100 36.694400 -10.833600 13.090000
-14.268600 1.501590 39.716100 -12.520800 10.400000
-22.420200 0.233213 36.797100 -10.656000 6.460000
-14.414200 1.516910 40.121400 -12.520800 7.680000
-9.363330 2.175950 41.561900 -12.254400 7.580000
-14.559800 1.532230 40.526700 -12.520800 6.550000
-9.457910 2.197930 41.981700 -12.254400 7.970000
-9.556610 1.816550 42.419800 -12.254400 5.150000
19.667100 1.834530 39.263200 -11.455200 7.760000
19.859900 1.852520 39.648200 -11.455200 5.990000
20.052700 1.870500 40.033100 -11.455200 7.110000
-23.539000 0.664638 38.633400 -10.656000 5.300000
-23.763200 0.670967 39.001300 -10.656000 9.260000
-20.404600 -1.105000 41.330600 -11.188800 8.500000
-23.987400 0.677297 39.369300 -10.656000 11.540000
-20.275800 -0.827535 41.879800 -11.277600 13.880000
-21.324100 -2.649580 41.764400 -11.100000 5.900000
23.070200 -1.685450 41.371400 -11.188800 7.080000
-21.944500 -0.559702 42.979400 -11.100000 8.980000
24.998100 -1.731420 41.749000 -11.100000 8.330000
23.126400 1.580920 42.820000 -11.366400 11.620000
24.894000 -1.746740 42.311600 -11.100000 6.760000
-22.501700 -2.642400 44.070800 -11.100000 5.900000
19.772300 0.417782 44.965700 -11.810400 6.670000
-18.605800 -2.374550 45.866500 -11.544000 9.140000
19.945100 0.574694 45.358700 -11.810400 9.650000
20.117700 0.734266 45.751300 -11.810400 9.890000
-17.454700 -1.965180 47.715900 -11.810400 5.230000
-17.613000 -0.911821 48.148600 -11.810400 5.410000
-17.230000 -2.498440 49.146200 -11.810400 8.000000
-17.372400 -2.519080 49.552400 -11.810400 7.320000
11.984400 -10.999800 51.347300 -12.343200 7.150000
-17.794700 -2.872170 50.756900 -11.810400 6.920000
12.080300 -11.087800 51.758100 -12.432000 5.840000
12.176200 -11.175800 52.168900 -12.432000 10.520000
-16.019500 -5.229820 53.873800 -11.988000 9.350000
-18.950600 1.860720 54.053800 -11.899200 7.010000
-19.512200 1.874720 54.311500 -11.810400 9.920000
-18.503500 -0.134931 55.150000 -12.076800 5.470000
-19.975700 1.708880 54.607500 -11.810400 10.630000
-29.414900 2.464800 56.530600 -11.100000 6.270000
-16.164600 -0.345156 61.689600 -12.165600 7.490000
-16.273900 -0.347488 62.106400 -12.165600 8.600000
-15.898400 -1.149350 62.638700 -12.165600 8.440000
-15.251900 -1.367200 63.681600 -12.165600 10.420000
-15.845800 -1.376200 63.980300 -12.165600 10.520000
11.576000 0.000000 65.341100 -12.520800 11.370000
-16.321400 -1.385190 64.305200 -12.165600 12.800000
11.270800 0.000000 65.831700 -12.520800 13.050000
-15.768200 -0.160918 67.559000 -12.254400 6.710000
-15.032200 -2.280440 68.571300 -12.254400 10.470000
-14.192500 -2.294430 69.189700 -12.343200 10.420000
16.139200 1.996840 94.267400 -12.520800 7.810000
16.211900 2.005830 94.692000 -12.520800 9.540000
-17.602600 6.965440 95.086400 -12.343200 9.160000
-17.680900 6.996400 95.509000 -12.343200 8.210000
-17.759100 7.027360 95.931600 -12.343200 8.520000
17.882900 0.835564 96.600300 -12.520800 7.120000
17.958100 2.059800 97.006400 -12.520800 7.860000
18.601400 1.455870 97.334800 -12.520800 9.350000
17.659600 2.426860 99.680200 -12.520800 8.720000
17.722000 4.558820 100.032000 -12.520800 8.540000
-17.547500 7.813350 102.493000 -12.343200 10.060000
28.589000 1.379270 115.433000 -12.343200 5.650000
28.692600 1.384260 115.851000 -12.343200 5.860000
28.797600 0.648333 116.275000 -12.343200 6.290000
-61.791700 -13.916700 121.022000 -11.011200 7.270000
-61.986600 -13.960600 121.404000 -11.011200 8.360000
-63.077100 -14.850000 121.224000 -11.011200 7.350000
-63.274900 -14.896600 121.604000 -10.922400 5.270000
-8.115470 0.760276 140.237000 -12.609600 5.210000
-8.953350 0.762608 140.617000 -12.609600 5.380000
-8.165260 0.764940 141.097000 -12.609600 5.280000
-8.189970 1.205700 141.524000 -12.609600 6.290000
-9.062680 1.213030 142.335000 -12.609600 7.170000
-7.550770 1.684100 145.007000 -12.609600 8.530000
-7.573180 1.689100 145.437000 -12.609600 10.720000
-7.595590 1.694100 145.868000 -12.609600 8.320000
26.108200 1.377950 159.895000 -12.520800 5.110000
25.250400 1.381610 160.469000 -12.520800 6.600000
26.246200 1.889000 160.741000 -12.520800 6.380000
26.315700 1.893990 161.166000 -12.520800 5.870000
19.728000 5.582350 188.918000 -12.609600 9.450000
19.772800 5.595010 189.346000 -12.609600 8.690000
6.202470 -0.998057 8.751000 -10.478400 3.010000
6.380240 -1.037980 9.150480 -10.567200 8.080000
6.552200 -1.077900 9.553210 -10.567200 9.480000
6.794870 -1.117820 9.907030 -10.656000 8.320000
7.758560 0.578151 9.221690 -10.123200 5.480000
7.102910 1.388420 10.186900 -10.656000 5.560000
7.872890 -0.444347 9.693950 -10.212000 6.080000
-8.089590 1.722020 12.611300 -10.656000 3.860000
-8.367080 0.695413 13.043900 -10.656000 4.660000
-7.149380 1.596890 15.601800 -11.366400 4.910000
-6.862920 1.636810 16.196900 -11.544000 5.730000
-6.871510 1.362130 17.618000 -11.721600 4.280000
-7.270070 1.393090 17.922000 -11.632800 3.660000
-6.435630 1.301730 18.702300 -11.899200 5.110000
-7.720800 1.118170 18.221600 -11.544000 5.460000
-6.575530 1.330030 19.108900 -11.988000 5.120000
-7.888650 1.142480 18.617700 -11.544000 7.020000
8.470230 0.303834 18.866800 -11.810400 5.990000
8.497990 0.310164 19.326000 -11.810400 14.230000
8.670990 0.383118 19.719400 -11.810400 17.280000
8.844410 0.390780 20.113800 -11.810400 16.070000
8.741660 0.121271 20.630900 -11.899200 10.040000
8.298380 0.123603 21.276300 -11.988000 8.410000
8.323400 -0.899318 21.710400 -12.165600 8.620000
7.531900 -0.989209 22.449000 -12.254400 10.890000
9.081350 -0.057970 23.283800 -12.076800 10.580000
6.443870 0.216221 24.591900 -12.254400 8.570000
9.420200 0.058970 23.613400 -12.076800 9.670000
8.553330 0.219885 24.397200 -12.165600 8.720000
8.798170 -2.557440 25.095500 -12.165600 5.790000
8.792520 -2.598690 25.551600 -12.254400 5.300000
9.107710 1.640860 25.978500 -12.254400 5.870000
18.734600 1.383430 21.922400 -10.034400 4.880000
18.842200 1.404080 22.395500 -10.034400 4.550000
8.834940 2.136070 28.308600 -12.343200 7.780000
8.962980 2.167030 28.718900 -12.343200 7.990000
7.510190 2.009200 29.589600 -12.343200 4.430000
7.615970 2.037490 30.006400 -12.343200 8.430000
7.721750 2.065790 30.423200 -12.343200 7.030000
18.612100 1.700330 25.835200 -10.656000 9.770000
18.863600 1.723300 26.184300 -10.656000 8.790000
19.111800 1.847410 26.528900 -10.656000 9.150000
9.145480 1.265710 31.420000 -12.343200 13.260000
19.363300 1.871720 26.878000 -10.656000 8.000000
9.020190 1.282360 31.903900 -12.343200 6.900000
9.572400 1.299010 32.192000 -12.343200 7.240000
-24.965100 1.736360 23.076500 -8.436000 5.620000
-25.281100 1.758340 23.368600 -8.436000 5.310000
-6.666370 0.000000 33.821300 -12.432000 8.870000
19.280000 1.930100 30.572500 -11.011200 8.760000
-5.335510 2.712070 35.697300 -12.520800 11.200000
19.747400 1.953080 30.785200 -11.011200 7.180000
19.259500 1.775750 31.609600 -11.100000 9.490000
-10.821400 1.890220 35.391700 -12.165600 8.290000
19.480500 1.912200 31.972300 -11.100000 13.900000
-10.463400 1.912200 35.947700 -12.254400 5.600000
19.707400 1.817040 32.344800 -11.100000 8.650000
19.678600 1.837690 32.865000 -11.188800 10.730000
19.385100 1.858340 33.537000 -11.277600 8.090000
-5.554150 3.149660 38.688600 -12.609600 9.030000
19.603300 1.757850 33.914500 -11.277600 12.450000
-5.631440 1.042020 39.226900 -12.520800 7.610000
19.818700 1.777170 34.287200 -11.277600 12.540000
10.155400 0.836513 38.756500 -12.432000 5.460000
-20.548500 -1.762590 36.849300 -10.922400 8.590000
-10.375100 2.153970 40.877100 -12.254400 4.980000
-10.481000 2.175950 41.294200 -12.254400 9.230000
-22.135900 -0.233213 36.968800 -10.744800 7.960000
-9.219050 1.798560 42.053800 -12.343200 7.360000
-9.309990 1.951020 42.468700 -12.343200 7.890000
-20.886100 -0.101948 38.672000 -11.011200 7.300000
19.664400 1.970340 39.258000 -11.632800 10.220000
-21.090900 -0.102947 39.051100 -11.011200 7.260000
9.488770 -2.503730 43.284200 -12.432000 6.140000
19.857200 1.989650 39.642900 -11.632800 10.110000
9.580890 -2.528040 43.704400 -12.432000 9.660000
20.050000 2.008970 40.027700 -11.632800 7.540000
11.114800 -2.412630 43.791600 -12.432000 7.770000
19.701000 1.748670 40.692500 -11.721600 14.820000
10.956900 2.999640 44.240200 -12.432000 8.280000
19.888600 1.765330 41.080000 -11.721600 8.790000
11.062400 2.885640 44.666400 -12.432000 16.220000
-21.549400 -0.989424 42.205600 -11.188800 7.760000
-21.745300 -0.998419 42.589300 -11.188800 12.250000
10.964500 1.417740 46.977400 -12.520800 5.800000
11.065400 0.865847 47.409800 -12.520800 5.930000
11.163300 0.873509 47.829300 -12.520800 8.670000
20.112900 1.313850 45.740400 -11.899200 8.890000
-17.324200 -1.981830 48.221200 -11.899200 8.920000
-14.904700 -3.160040 53.905200 -12.076800 9.010000
-14.568700 -4.882070 54.316500 -12.165600 9.830000
-14.682800 -4.787890 54.742000 -12.165600 8.200000
-18.954000 1.506390 54.063600 -11.899200 5.490000
-19.096500 1.517720 54.470100 -11.899200 5.340000
-19.240200 1.394160 54.879800 -11.899200 6.060000
-19.382700 1.404480 55.286400 -11.810400 7.630000
21.240100 0.744604 60.584400 -12.165600 7.270000
21.525200 0.754599 61.397600 -12.165600 6.460000
21.667800 0.759596 61.804200 -12.165600 7.840000
-16.317900 -1.949390 64.291400 -12.254400 11.240000
-16.416600 -2.787770 64.680400 -12.254400 5.830000
21.964900 -1.057090 68.517900 -12.254400 6.520000
22.096500 -1.063420 68.928200 -12.254400 6.690000
16.206800 3.119860 94.662700 -12.609600 7.620000
-16.944200 6.996400 95.642400 -12.432000 7.950000
18.522300 0.534059 96.920700 -12.609600 8.980000
18.603100 0.536391 97.343900 -12.609600 9.150000
18.682300 1.462200 97.758000 -12.609600 6.450000
19.578200 2.113770 99.328300 -12.609600 5.690000
-16.760800 7.491720 102.649000 -12.432000 5.440000
-16.830100 7.522680 103.073000 -12.432000 5.700000
28.691400 1.753380 115.846000 -12.432000 5.120000
28.796100 1.389260 116.269000 -12.432000 6.250000
29.573700 1.394260 116.519000 -12.432000 6.430000
19.486900 2.617480 123.841000 -12.609600 7.710000
19.553800 2.626470 124.266000 -12.609600 8.460000
20.344900 1.073770 124.599000 -12.609600 8.240000
-62.959100 -13.117200 120.997000 -11.100000 9.010000
-63.138000 -13.581500 121.341000 -11.100000 6.850000
-62.395900 -13.624100 122.206000 -11.011200 5.940000
-8.164830 1.639130 141.090000 -12.698400 5.630000
-9.007640 1.644130 141.470000 -12.698400 6.890000
-9.035020 1.649120 141.900000 -12.698400 4.980000
-8.389120 1.235020 144.966000 -12.698400 9.520000
-8.413750 1.689100 145.391000 -12.698400 4.950000
-8.438650 1.694100 145.821000 -12.698400 4.590000
26.176800 1.884000 160.315000 -12.609600 6.760000
26.246200 1.889000 160.741000 -12.609600 5.280000
26.315700 1.893990 161.166000 -12.609600 7.250000
19.732300 3.966690 188.958000 -12.698400 6.290000
19.777000 3.975690 189.386000 -12.698400 4.880000
19.821700 3.984680 189.815000 -12.698400 5.410000
7.362840 -0.503597 9.544840 -10.478400 7.680000
7.625800 -0.521583 9.885730 -10.478400 5.670000
7.177430 1.545510 10.639700 -10.922400 3.210000
7.501200 1.597020 10.936900 -10.922400 3.830000
7.215650 1.606190 11.639800 -11.188800 5.150000
-7.994960 1.675680 12.677700 -10.744800 6.400000
-8.364150 1.477130 13.492500 -10.744800 9.080000
-8.699210 1.466620 13.794500 -10.744800 4.750000
-7.721400 1.608710 14.839300 -11.277600 7.370000
-7.919390 1.649960 15.219700 -11.277600 8.470000
-6.954760 4.285690 15.177100 -11.632800 6.920000
-8.237370 1.691210 15.537200 -11.277600 6.290000
-0.780309 1.378230 17.595800 1.776000 14.190000
-8.597720 0.433738 15.919200 -11.188800 4.640000
-1.525020 1.788170 17.944600 1.776000 10.660000
-0.463416 0.988028 18.496500 1.776000 7.110000
-1.201360 1.420610 18.868100 1.776000 6.350000
-1.228670 1.452900 19.296900 1.776000 7.220000
-7.551600 1.153730 17.822300 -11.721600 8.450000
-0.228338 1.668510 19.749700 1.864800 5.300000
-7.719420 1.179370 18.218300 -11.721600 10.780000
-0.233800 1.079940 20.222100 1.864800 4.480000
-7.238310 1.142480 18.880100 -11.899200 8.920000
-7.887230 1.205010 18.614400 -11.721600 9.480000
8.324900 0.239872 18.932300 -11.988000 10.310000
-1.333350 2.345950 20.941000 1.776000 4.740000
8.498340 0.244870 19.326800 -11.988000 16.410000
8.671770 0.249867 19.721200 -11.988000 18.140000
8.844850 0.322824 20.114800 -11.988000 15.630000
8.284650 1.471520 20.766900 -12.165600 8.570000
8.280580 1.499820 21.230700 -12.165600 8.110000
8.547790 -2.115880 21.071800 -0.444000 8.240000
5.891220 -1.115000 22.482800 -12.343200 6.520000
10.376200 -2.155800 20.715100 -0.621600 5.320000
18.157600 1.669610 17.715800 -9.412800 9.220000
18.465300 1.697910 18.016000 -9.412800 11.020000
8.408020 0.839425 24.434200 -12.254400 4.020000
18.773100 1.726210 18.316300 -9.412800 9.030000
8.440070 -3.112000 25.155800 -12.343200 7.050000
6.615460 1.811110 26.711000 -12.520800 6.990000
6.074140 2.043200 27.707900 -12.520800 5.500000
6.166170 2.074150 28.127800 -12.609600 4.840000
7.034960 1.494590 28.404900 -12.520800 6.480000
9.307030 1.562460 27.739800 -12.343200 8.620000
6.916060 1.516570 28.876700 -12.520800 8.220000
18.393800 1.701560 23.844900 -10.478400 8.570000
7.016290 1.538550 29.295200 -12.520800 8.400000
-14.864900 2.103600 26.657000 -13.053600 6.060000
-15.074300 2.133230 27.032500 -13.053600 10.900000
-14.696100 2.259900 27.719600 -13.231200 10.920000
-15.494400 2.162860 27.289300 -13.053600 9.940000
18.612100 1.700330 25.835200 -10.744800 6.390000
-15.113600 2.290860 27.983700 -13.231200 6.500000
-15.706700 2.192480 27.663100 -13.053600 4.640000
18.863600 1.723300 26.184300 -10.744800 10.580000
7.756890 1.823100 31.319800 -12.520800 7.510000
19.115100 1.746280 26.533400 -10.744800 8.640000
-5.598950 -0.179574 32.703000 -12.609600 6.820000
-6.499620 -0.181906 32.975300 -12.609600 8.530000
-25.278000 1.838190 23.365800 -8.524800 11.990000
-6.267720 1.651860 33.857100 -12.609600 9.010000
-25.594000 1.861170 23.657900 -8.524800 6.630000
-6.346060 1.672510 34.280400 -12.609600 8.700000
19.295800 1.382280 30.081200 -11.100000 8.580000
17.892800 0.857148 30.955300 -10.478400 10.800000
18.108400 0.867475 31.328200 -10.478400 10.060000
-10.768100 1.930100 34.502800 -12.254400 8.340000
19.018000 1.661260 31.761700 -11.277600 6.510000
-9.867130 1.546760 35.686100 -12.343200 8.140000
19.236400 1.796400 32.126400 -11.277600 6.250000
-10.467900 1.564750 35.963100 -12.432000 6.040000
19.457500 1.817040 32.495700 -11.277600 7.910000
-5.381450 1.934170 37.485500 -12.698400 7.320000
-10.588200 1.582730 36.376500 -12.432000 8.040000
19.678600 1.837690 32.865000 -11.277600 9.470000
-5.444940 1.600720 37.927800 -12.698400 6.350000
-5.282860 1.858340 38.374500 -12.698400 13.470000
19.137900 1.259140 33.706400 -11.455200 7.780000
-5.342320 1.757850 38.806500 -12.698400 12.770000
19.350600 1.273130 34.080900 -11.455200 5.450000
19.297100 1.287120 34.605200 -11.455200 7.050000
-10.242100 2.175950 41.354100 -12.432000 6.750000
-21.563400 -0.233213 37.305700 -11.011200 6.350000
-10.586800 2.197930 41.711300 -12.432000 6.360000
-20.902100 -0.235546 38.172200 -11.188800 5.230000
-5.015900 -1.816550 43.192700 -12.698400 5.820000
-9.552490 2.219910 42.401500 -12.520800 6.630000
19.471600 1.951020 38.873100 -11.721600 10.810000
-21.109100 -0.237878 38.550100 -11.100000 7.970000
10.228100 -1.834530 42.705700 -12.609600 9.740000
19.664400 1.970340 39.258000 -11.721600 6.270000
-21.090600 -0.240210 39.050600 -11.188800 6.500000
10.310700 -3.188630 43.050500 -12.609600 6.710000
19.859900 1.852520 39.648200 -11.721600 7.480000
20.052700 1.870500 40.033100 -11.721600 9.120000
10.971000 -1.906470 44.297200 -12.609600 15.660000
19.886100 1.906470 41.074900 -11.810400 9.410000
10.723600 -2.458580 44.774400 -12.609600 10.170000
20.073700 1.924460 41.462400 -11.810400 16.010000
-20.592300 -1.367110 41.710900 -11.366400 10.080000
10.213300 -2.481560 45.334800 -12.609600 11.740000
-21.348900 -1.379770 41.813000 -11.277600 9.120000
11.275300 -2.504540 45.525800 -12.520800 7.110000
-21.554000 -0.109944 42.214700 -11.277600 11.840000
-19.979500 -1.831940 42.943300 -11.544000 11.870000
-21.750000 -0.110943 42.598400 -11.277600 11.280000
10.863200 1.848600 46.543200 -12.698400 10.700000
10.601100 1.566930 47.056000 -12.698400 5.190000
10.053400 1.731420 47.611100 -12.698400 6.470000
19.831400 1.218600 46.803500 -12.076800 7.090000
12.623500 -2.519080 50.969500 -12.609600 7.630000
10.026400 6.935480 52.464600 -12.698400 14.410000
10.498800 -0.629665 53.264900 -12.698400 10.150000
10.582200 -0.634663 53.687700 -12.698400 7.000000
-14.016300 -5.663270 53.491000 -12.343200 6.290000
-14.125000 -5.707170 53.905600 -12.343200 6.560000
-19.245600 -0.134931 54.895500 -11.988000 5.030000
-19.068200 -0.135931 55.413200 -11.988000 8.670000
20.535300 1.597000 57.159000 -12.254400 12.650000
20.679100 1.797490 57.559400 -12.254400 5.380000
20.381700 1.286250 58.136000 -12.343200 12.730000
20.524300 1.295250 58.542500 -12.343200 6.140000
20.666800 1.304240 58.949100 -12.343200 10.740000
21.852800 -0.549713 60.826300 -12.343200 6.730000
21.525900 -0.553378 61.399500 -12.343200 7.020000
21.669200 -0.151922 61.808200 -12.343200 10.890000
21.811500 -0.356817 62.214100 -12.343200 9.340000
-16.815400 -1.590370 64.173000 -12.343200 5.550000
16.137100 2.514430 94.255300 -12.787200 6.970000
16.209800 2.525760 94.679900 -12.787200 6.180000
16.282500 2.537080 95.104500 -12.787200 5.360000
-17.602600 6.965440 95.086400 -12.609600 6.420000
-17.680900 6.996400 95.509000 -12.609600 6.960000
18.360800 0.000000 96.075600 -12.787200 6.160000
-17.759100 7.027360 95.931600 -12.609600 6.300000
18.441000 0.835564 96.495300 -12.787200 8.740000
18.521900 0.839229 96.918600 -12.787200 6.680000
18.602700 0.842894 97.341800 -12.787200 5.780000
-16.698700 6.819950 102.268000 -12.609600 8.220000
-16.764500 7.170020 102.671000 -12.609600 7.700000
-16.833800 7.199640 103.096000 -12.609600 5.370000
-16.304400 7.229270 103.616000 -12.698400 6.770000
28.589000 1.379270 115.433000 -12.609600 5.830000
28.693400 1.015140 115.855000 -12.609600 4.780000
28.796100 1.389260 116.269000 -12.609600 5.700000
19.480800 4.071210 123.802000 -12.787200 7.940000
19.547800 4.085200 124.228000 -12.787200 6.140000
18.653400 4.099190 124.801000 -12.787200 6.290000
-61.847700 -12.655400 121.132000 -11.277600 8.130000
-62.042800 -12.695300 121.514000 -11.277600 9.390000
-63.335900 -13.624100 121.721000 -11.100000 7.200000
-10.097700 1.644130 141.396000 -12.787200 8.540000
-8.239760 1.213030 142.385000 -12.876000 7.430000
-8.364230 1.231360 144.535000 -12.876000 5.510000
-8.388860 1.684100 144.961000 -12.876000 8.750000
-8.413750 1.689100 145.391000 -12.876000 11.990000
-8.438650 1.694100 145.821000 -12.876000 10.670000
26.178200 0.879215 160.324000 -12.787200 4.560000
26.247000 1.385280 160.746000 -12.787200 6.260000
19.732300 3.966690 188.958000 -12.876000 5.460000
19.777000 3.975690 189.386000 -12.876000 9.110000
19.821700 3.984680 189.815000 -12.876000 11.820000
