VERSION .7
FIELDS x y z velocity intensity
SIZE 4 4 4 4 4
TYPE F F F F F
COUNT 1 1 1 1 1
WIDTH 790
HEIGHT 1
VIEWPOINT 0 0 0 1 0 0 0
POINTS 790
DATA ascii
-6.656990 0.637398 10.556100 -11.721600 4.900000
-6.544750 0.729241 11.123900 -11.988000 3.940000
-6.233540 1.155300 11.757600 -12.165600 2.830000
-6.939290 0.753549 11.389100 -11.988000 5.180000
-7.545550 0.681357 11.001500 -11.544000 6.220000
-6.860010 1.489660 11.868100 -12.165600 4.030000
-7.435200 0.703336 11.591100 -11.721600 5.030000
-7.788960 0.703336 11.356400 -11.544000 4.400000
-6.257980 1.536210 12.675900 -12.609600 2.790000
-6.523000 1.579920 12.536100 -12.432000 3.430000
-6.459510 1.312240 13.084100 -12.609600 5.810000
-6.649490 1.350830 13.468900 -12.609600 6.110000
-6.112700 1.305790 14.197300 -12.876000 4.070000
-6.734340 1.341640 13.909800 -12.609600 6.280000
-6.295900 0.850163 14.622800 -12.876000 8.420000
-6.824520 0.948623 14.377600 -12.698400 7.420000
-6.466060 0.873141 15.018100 -12.876000 9.490000
-6.548810 0.805281 15.455600 -12.876000 7.150000
8.267410 0.879170 15.098200 -12.698400 6.050000
-5.819840 1.636810 16.600300 -13.231200 5.150000
8.539380 2.166430 15.313600 -12.698400 6.140000
9.639360 0.942073 14.775500 -12.254400 4.640000
-6.092680 1.676740 16.958700 -13.231200 6.220000
9.757520 0.965050 15.211500 -12.254400 3.570000
-6.237740 1.716660 17.362500 -13.231200 3.120000
0.000000 1.522910 18.898300 0.976800 5.210000
0.111667 1.677050 19.317500 0.976800 15.050000
-6.278470 1.915890 18.245600 -13.320000 5.090000
0.114117 1.775380 19.741400 0.976800 18.410000
0.116630 1.751580 20.176100 0.976800 17.180000
-6.673420 1.813970 19.035000 -13.320000 6.380000
0.794628 1.549760 20.609700 0.976800 11.770000
-6.288580 1.852570 19.616700 -13.408800 6.920000
0.406013 1.321460 21.068800 0.976800 6.230000
-6.417780 1.956190 20.019800 -13.408800 4.720000
0.248589 1.348430 21.501300 0.976800 7.430000
8.543240 -1.849860 20.162600 -13.231200 7.920000
0.991688 1.004480 22.362300 0.976800 5.330000
7.335800 -3.228410 20.924300 -13.497600 6.550000
8.715140 -1.748000 20.568300 -13.231200 8.640000
0.878991 1.023800 22.797800 0.976800 4.880000
8.566180 -1.499820 21.117100 -13.231200 8.280000
-0.267687 2.299070 23.153200 0.976800 4.450000
9.687230 -0.827404 21.140000 -13.231200 6.290000
-0.454390 2.341650 23.579200 0.976800 4.320000
-6.313690 0.622944 22.834500 -13.586400 6.170000
-6.428490 0.634270 23.249700 -13.586400 6.580000
8.913180 1.252820 22.852600 -13.408800 9.160000
9.069550 1.274800 23.253600 -13.408800 8.280000
9.413190 0.982588 23.595800 -13.408800 5.130000
-5.859850 1.937200 25.106500 -13.764000 8.140000
10.079100 0.999242 23.787400 -13.320000 9.340000
-9.559210 1.697910 23.961800 -13.142400 4.880000
-5.266870 1.969480 25.676400 -13.852800 8.940000
-9.859190 1.726210 24.304600 -13.053600 8.850000
-5.354430 1.919370 26.103300 -13.852800 8.800000
-9.348910 1.836950 24.959100 -13.231200 9.360000
-10.210900 1.754510 24.625000 -13.053600 10.290000
-5.802770 1.615220 26.470000 -13.764000 8.670000
-6.042480 2.151380 26.821300 -13.764000 6.020000
-5.237790 2.422400 27.407500 -13.941600 10.800000
-5.979330 2.185000 27.275400 -13.764000 10.870000
-10.721400 0.995949 25.856100 -13.053600 7.180000
-5.157410 2.459670 27.859500 -13.941600 6.630000
-10.683600 1.011270 26.337000 -13.053600 7.390000
-5.026420 1.806900 28.371900 -13.941600 8.250000
-9.166960 1.717780 27.322300 -13.408800 9.160000
-10.845500 1.026590 26.736000 -13.053600 4.730000
-5.101450 1.833870 28.795400 -13.941600 4.800000
9.055620 -3.075420 27.696500 -13.675200 7.830000
-5.575420 1.332870 29.174200 -13.852800 7.100000
9.026180 -3.120650 28.156500 -13.675200 7.680000
-5.828720 1.165780 29.571500 -13.941600 4.160000
10.308300 -3.073090 28.179800 -13.586400 5.090000
-4.752010 1.182440 30.199500 -13.941600 8.600000
8.830080 -1.654370 29.695600 -13.675200 8.670000
10.232200 0.753877 29.735400 -13.586400 7.780000
10.372400 0.764204 30.142700 -13.586400 10.300000
10.512600 0.774531 30.550100 -13.586400 11.170000
-5.271310 1.569270 32.283300 -13.941600 8.880000
10.652700 0.784858 30.957400 -13.586400 14.590000
-5.150720 1.692400 32.733300 -13.941600 19.010000
-5.212050 2.311000 33.123100 -14.030400 9.260000
-15.180800 -3.512100 30.749400 -0.799200 9.850000
-15.365600 -3.663370 31.123800 -0.799200 7.560000
-15.312000 -3.708600 31.627000 -0.888000 8.560000
-16.214200 -3.817250 31.161000 -0.621600 8.520000
-15.923800 -3.863810 31.790200 -0.621600 9.150000
-20.224500 0.746565 29.487700 -11.632800 6.560000
-20.236200 0.867475 29.997800 -11.544000 6.160000
-17.566100 -1.953080 32.079900 -12.254400 5.050000
-17.584900 -1.976060 32.559500 -12.254400 6.470000
-20.718000 0.888129 30.712000 -11.544000 6.350000
-21.194700 1.101280 30.902200 -11.544000 6.460000
11.073100 1.934170 36.214800 -13.764000 7.210000
11.198900 1.956150 36.626300 -13.764000 5.520000
24.287100 -4.585000 29.323100 -0.266400 17.050000
-9.121180 2.000110 38.083800 -13.764000 8.550000
24.547900 -5.104510 30.706600 -0.355200 15.130000
-18.687300 -1.109970 37.852000 -12.609600 10.180000
19.393100 1.022380 37.982400 -12.876000 7.390000
12.042300 -0.233213 41.372400 -13.852800 8.160000
19.590300 0.899476 38.368700 -12.876000 5.440000
11.839200 -0.639318 41.874700 -13.852800 10.200000
20.085500 0.773898 38.601100 -12.876000 11.020000
11.956500 -0.645648 42.289300 -13.852800 8.680000
20.286900 0.373805 38.988000 -12.876000 12.690000
10.087600 -0.240210 43.220400 -13.941600 5.690000
10.185600 -0.242542 43.640100 -13.941600 16.670000
-4.123470 2.717680 45.407600 -14.119200 16.160000
-4.161580 2.885640 45.827300 -14.119200 10.860000
-3.576220 2.912610 46.308100 -14.208000 8.790000
-3.614520 1.524960 46.804000 -14.119200 9.510000
-10.317100 1.524960 45.795600 -13.941600 10.020000
-8.626140 0.989424 46.597000 -13.941600 8.460000
-18.134500 -2.271310 43.733800 -13.053600 7.270000
-8.976220 0.998419 46.969500 -13.941600 9.500000
-17.936700 -3.288730 44.217200 -13.053600 8.830000
-4.449240 1.706830 52.353400 -14.119200 9.290000
-6.568230 1.899960 52.992300 -14.119200 5.370000
-6.209280 1.915290 53.469100 -14.119200 7.210000
-31.155600 -7.760590 43.246600 -0.621600 6.370000
-2.691420 0.892513 60.690700 -14.208000 7.860000
14.150700 0.516731 59.083800 -13.941600 5.820000
-2.710500 0.898843 61.121100 -14.208000 7.810000
13.447300 0.520395 59.689600 -13.941600 8.050000
-3.559660 0.714620 61.511600 -14.208000 6.900000
15.718900 1.050760 69.773000 -13.941600 11.080000
15.814200 0.834556 70.196100 -13.941600 7.010000
15.908900 0.839554 70.616500 -13.941600 7.430000
16.004100 0.619344 71.039000 -14.030400 7.730000
16.649500 0.396463 71.334700 -13.941600 5.800000
16.190600 1.538100 71.866700 -14.030400 5.860000
16.287100 1.088740 72.294900 -14.030400 6.660000
16.380900 1.325590 72.711500 -14.030400 5.710000
16.475600 1.333250 73.131900 -14.030400 7.520000
16.571800 0.874535 73.558800 -14.030400 10.620000
16.666500 0.879532 73.979200 -14.030400 8.130000
16.331400 0.648662 74.497500 -14.030400 9.570000
16.516200 0.417452 75.340900 -14.030400 18.480000
16.023800 0.659656 75.885900 -14.030400 17.920000
16.112300 0.904519 76.305100 -14.030400 11.940000
16.201300 0.909516 76.726700 -14.030400 6.740000
16.728400 -13.542300 76.308400 -13.941600 18.610000
17.069000 0.924508 77.862200 -14.030400 19.390000
17.162300 -0.185905 78.288100 -14.030400 18.690000
16.191300 -0.436109 78.933600 -14.030400 17.650000
17.346700 -0.438441 79.129000 -13.941600 12.190000
17.806400 1.221670 81.225900 -14.030400 14.010000
17.056200 0.984476 83.150300 -14.030400 9.460000
26.733400 0.813576 91.844800 -13.764000 6.040000
26.853900 0.817241 92.258500 -13.764000 8.620000
26.974300 0.820905 92.672200 -13.852800 8.680000
27.091400 1.724030 93.074500 -13.852800 8.340000
17.158800 1.493850 100.223000 -14.119200 8.910000
17.231500 1.500180 100.648000 -14.119200 8.880000
17.304200 1.506510 101.073000 -14.119200 8.340000
-12.666400 1.512840 102.192000 -14.119200 9.730000
-12.719400 1.519170 102.620000 -14.119200 8.680000
-12.772400 1.525500 103.047000 -14.030400 6.090000
-12.826600 0.564376 103.484000 -14.030400 6.640000
15.995000 3.986250 165.509000 -14.208000 11.210000
16.036400 3.996580 165.937000 -14.208000 12.770000
16.076900 4.394590 166.356000 -14.208000 9.450000
7.526280 0.510469 4.997720 -7.281600 4.600000
7.526280 0.510469 4.997720 -7.725600 4.130000
7.884670 0.534777 5.235710 -7.459200 4.790000
8.059030 1.426710 6.321810 -8.880000 3.430000
8.347880 1.072470 7.394520 -9.501600 3.380000
8.776680 1.356800 9.393420 -10.389600 7.870000
8.899560 1.402030 9.862340 -10.567200 5.560000
-7.881530 0.490313 11.303600 -11.277600 5.770000
-6.389940 1.477130 14.531900 -12.520800 7.840000
-6.562640 1.517050 14.924600 -12.520800 7.130000
-6.749840 1.103640 15.350300 -12.520800 7.710000
-11.260600 1.523420 14.085700 -11.366400 10.500000
-11.276900 1.559690 14.618900 -11.455200 8.350000
8.472130 1.592140 17.848700 -12.698400 5.250000
-10.597900 1.485960 17.699400 -11.899200 4.800000
-6.288540 0.506027 20.149500 -13.142400 6.340000
-10.957700 1.516920 17.984300 -11.899200 4.500000
-6.297910 0.516354 20.597500 -13.142400 8.320000
-11.183700 1.481410 18.355300 -11.899200 9.180000
-6.402910 1.849860 20.940900 -13.142400 10.920000
-11.407400 1.511040 18.722400 -11.899200 9.530000
9.120250 -2.489580 20.314700 -12.698400 5.850000
8.981420 -2.397020 20.860200 -12.787200 4.930000
8.684920 -6.773010 20.497000 -12.964800 7.060000
8.901940 -6.406010 21.009200 -12.964800 6.830000
7.219840 -6.522480 22.081800 -13.320000 10.420000
8.933440 -1.007190 22.393200 -12.876000 10.850000
8.784710 -1.025180 22.913600 -13.053600 8.700000
8.997910 2.212580 24.597500 -13.142400 6.060000
10.191200 1.384690 25.123000 -12.964800 10.190000
-5.778330 1.493530 27.365200 -13.497600 5.930000
-5.777350 1.580020 27.360600 -13.497600 7.170000
-5.574190 1.628640 28.280200 -13.497600 6.380000
-4.781910 1.860830 29.286000 -13.586400 7.860000
18.749700 1.007310 24.697600 -11.277600 5.070000
19.010200 1.021300 25.040600 -11.277600 7.750000
19.270600 1.035290 25.383600 -11.277600 8.850000
10.174300 0.784858 31.117900 -13.320000 8.510000
10.550800 0.795185 31.447000 -13.320000 8.150000
10.687900 0.805513 31.855400 -13.320000 8.160000
10.824900 0.815840 32.263800 -13.320000 12.450000
18.819300 1.824280 30.358200 -11.988000 16.980000
10.902400 1.907120 34.009000 -13.320000 16.760000
19.046100 1.846260 30.723900 -11.988000 6.580000
19.275800 1.755100 31.094400 -11.988000 8.680000
11.166400 1.868240 34.832800 -13.320000 8.100000
19.499600 1.890220 31.455400 -11.988000 6.960000
-20.239200 1.088620 31.023200 -11.544000 6.890000
10.835100 -0.315169 35.436600 -13.320000 9.160000
-20.474600 1.101280 31.384000 -11.544000 7.310000
-8.797200 1.920290 39.049000 -13.497600 17.270000
-8.663500 1.940930 39.519600 -13.497600 16.850000
-8.216180 1.961580 40.054500 -13.497600 7.520000
19.655500 0.607669 36.393300 -12.432000 12.590000
19.790600 0.000000 38.760800 -12.520800 8.100000
19.986500 0.000000 39.144600 -12.520800 9.550000
20.182400 0.102947 39.528300 -12.520800 4.980000
11.249800 -0.102947 42.933100 -13.586400 6.330000
20.378300 0.103947 39.912000 -12.520800 7.740000
-3.312090 1.942450 46.378500 -13.764000 15.190000
-2.981890 1.960430 46.832300 -13.764000 10.310000
-3.009620 1.831940 47.267900 -13.764000 13.710000
-17.102300 -2.291950 44.608900 -12.876000 17.570000
-3.404510 1.848600 47.672800 -13.764000 10.110000
-15.948400 -2.312600 45.490700 -12.964800 10.020000
-17.060000 -2.333250 45.545500 -12.876000 15.260000
-17.210900 -2.353900 45.948600 -12.876000 7.850000
12.303100 3.209270 49.675700 -13.586400 7.780000
12.020000 3.236230 50.187300 -13.586400 6.060000
15.857400 0.157919 66.209500 -13.586400 9.030000
15.957700 0.158919 66.628600 -13.586400 7.290000
15.670300 0.159918 67.139400 -13.586400 7.270000
-14.458200 1.057090 70.484900 -13.497600 5.570000
-14.544800 1.063420 70.907000 -13.497600 5.590000
16.550700 0.844551 70.911400 -13.586400 8.800000
16.647900 1.076080 71.328100 -13.586400 6.370000
15.774900 1.538100 71.959000 -13.586400 7.980000
16.841900 1.547100 72.159300 -13.586400 5.240000
15.961800 0.864540 72.811600 -13.586400 5.580000
16.054600 0.637667 73.234800 -13.586400 5.370000
16.331400 0.648662 74.497500 -13.586400 6.360000
16.424200 0.177909 74.920900 -13.586400 7.240000
16.516400 0.178909 75.341800 -13.586400 7.360000
16.608500 0.419784 75.761800 -13.586400 5.360000
16.700400 0.663321 76.181000 -13.586400 6.310000
16.201300 0.909516 76.726700 -13.675200 9.970000
16.290800 0.670650 77.150700 -13.675200 10.330000
16.379800 0.674315 77.572200 -13.586400 5.530000
17.069500 0.677980 77.864600 -13.586400 7.910000
16.515700 5.758100 78.215600 -13.586400 9.000000
16.604500 5.789060 78.636100 -13.586400 11.420000
16.709900 4.569910 79.135200 -13.586400 13.060000
15.216500 0.452434 82.196800 -13.675200 9.840000
15.771400 0.974482 82.526300 -13.675200 7.740000
18.084800 0.457098 82.496100 -13.586400 7.310000
17.496200 5.836750 82.859300 -13.586400 14.040000
17.588700 5.603110 83.297300 -13.586400 18.020000
18.322300 5.631410 83.579200 -13.675200 16.790000
25.833600 1.724030 93.431500 -13.497600 11.260000
26.063200 1.739360 94.262000 -13.408800 8.900000
17.305900 -0.555048 101.082000 -13.675200 9.630000
17.378600 -0.557380 101.507000 -13.675200 11.030000
17.451500 -0.239878 101.933000 -13.675200 11.920000
18.115000 0.883206 102.251000 -13.675200 8.250000
-11.428000 1.854290 103.633000 -13.675200 8.310000
-12.076600 1.861950 103.993000 -13.675200 8.040000
-12.930700 1.869620 104.325000 -13.675200 9.050000
16.120400 3.498960 166.806000 -13.764000 7.180000
16.162800 2.988320 167.245000 -13.764000 9.800000
7.838510 0.857157 6.003750 -8.791200 3.410000
7.504250 1.390950 8.781140 -10.833600 3.580000
8.056840 0.969127 8.928450 -10.567200 8.320000
-6.759570 1.762210 10.361200 -11.544000 5.190000
-6.997310 1.762210 10.202200 -11.366400 5.350000
8.255110 1.003740 9.327290 -10.656000 7.760000
-7.226790 -0.339788 10.712900 -11.366400 7.480000
-7.959500 1.197670 10.115300 -10.833600 6.760000
-7.467680 -0.351114 11.070000 -11.366400 7.380000
-6.982260 0.735276 11.867500 -11.810400 4.420000
-6.523000 1.579920 12.536100 -12.165600 4.830000
-7.200450 0.758254 12.238400 -11.810400 8.400000
-6.156920 1.211410 13.714100 -12.520800 4.950000
-7.334700 0.804209 13.153200 -11.988000 7.090000
-6.441360 1.246020 14.056700 -12.520800 3.270000
-6.365550 1.378330 15.023100 -12.698400 6.860000
-6.418790 1.259180 15.479800 -12.698400 7.440000
-6.422990 1.103640 15.490000 -12.787200 8.370000
9.095550 0.908522 16.610600 -12.343200 7.350000
-5.897150 1.677050 18.395700 -13.142400 7.100000
8.437560 1.033980 17.427800 -12.698400 4.400000
8.798230 1.579920 18.172800 -12.609600 5.560000
8.267860 1.626750 18.416100 -12.876000 4.480000
-10.731600 1.549760 17.613200 -11.988000 3.730000
-10.816300 1.582040 18.064100 -12.076800 4.900000
-6.002370 1.516920 20.186000 -13.231200 12.000000
-11.037000 1.614330 18.432700 -12.076800 6.400000
-6.117730 1.863390 20.574000 -13.231200 13.710000
-11.260300 1.578830 18.805700 -12.076800 7.090000
7.842890 -1.714380 20.457000 -13.053600 11.080000
8.833890 -1.748000 20.517600 -12.964800 5.550000
7.686130 -2.186200 21.394000 -13.053600 7.140000
9.596490 -3.281350 20.942000 -12.698400 8.100000
7.536440 -2.227450 21.901300 -13.142400 6.080000
9.199700 -0.485717 21.367200 -12.964800 8.690000
9.370060 -0.494712 21.762900 -12.964800 8.700000
9.709690 -0.634270 22.081600 -12.964800 11.160000
8.921710 -0.645597 22.874500 -13.053600 8.770000
8.936350 1.197600 23.309200 -13.142400 5.220000
10.222600 1.274800 22.770200 -12.698400 5.910000
9.090430 1.218250 23.711100 -13.142400 5.050000
-5.356710 1.754510 26.114400 -13.586400 3.970000
-5.443110 1.782810 26.535600 -13.586400 4.810000
10.196800 1.049200 25.137000 -13.142400 7.370000
-5.321580 1.811110 26.998600 -13.586400 5.270000
-5.615910 1.839400 27.378000 -13.586400 5.980000
-5.861690 1.955460 27.760000 -13.586400 9.820000
-6.167520 1.985090 28.133900 -13.586400 9.870000
-4.933930 1.924300 28.818600 -13.675200 6.700000
-8.927240 1.833870 27.847800 -13.142400 5.040000
-10.482500 1.041920 27.342100 -12.876000 8.450000
-5.006490 1.952600 29.242400 -13.675200 6.730000
-10.636700 1.057240 27.744200 -12.876000 6.880000
11.147700 -2.167030 27.943500 -13.053600 5.680000
-5.732620 1.820330 29.996800 -13.586400 6.000000
9.952580 -0.638628 28.922700 -13.320000 6.050000
11.333700 -0.638628 28.410000 -13.053600 5.320000
-5.813360 1.845970 30.419300 -13.586400 6.680000
9.866400 -0.647623 29.407000 -13.320000 6.960000
11.466200 -2.228940 28.741900 -13.053600 7.690000
10.514900 0.374801 30.556800 -13.320000 6.480000
10.415200 0.582339 31.042600 -13.320000 7.790000
10.551600 0.692597 31.449200 -13.320000 7.910000
10.688600 0.701592 31.857600 -13.320000 9.240000
19.051600 1.564680 29.202800 -11.899200 7.760000
10.318100 1.802300 33.745600 -13.408800 7.420000
18.822200 1.713800 30.362800 -12.076800 8.180000
11.100100 1.824280 33.949600 -13.320000 7.850000
19.049000 1.734450 30.728600 -12.076800 6.640000
19.275800 1.755100 31.094400 -12.076800 5.620000
-20.005600 0.962732 30.665100 -11.544000 5.170000
19.505300 1.661260 31.464800 -12.076800 8.280000
19.715300 1.465550 32.357800 -12.076800 6.210000
10.312900 -0.996711 36.476200 -13.586400 5.710000
20.191000 1.482210 32.570800 -12.076800 7.880000
-17.647000 -0.499734 39.307500 -12.520800 16.590000
-17.821900 -0.773898 39.697000 -12.520800 5.890000
19.683900 0.237878 39.296900 -12.609600 7.000000
19.877100 0.102947 39.682700 -12.609600 7.080000
20.263100 0.104946 40.453200 -12.609600 6.330000
23.155000 1.094670 39.355900 -12.254400 10.210000
23.373500 1.105000 39.727200 -12.254400 9.860000
-16.428000 -0.998419 44.909100 -12.964800 16.510000
-16.576000 -1.007410 45.313600 -12.964800 16.080000
-15.128600 -1.016410 46.270700 -13.053600 15.690000
-6.619620 2.248200 53.406900 -13.764000 7.900000
-6.672580 2.266190 53.834100 -13.764000 8.130000
-6.725530 2.284170 54.261400 -13.764000 7.880000
15.474200 0.368477 66.299300 -13.675200 8.380000
15.572100 0.370809 66.718900 -13.675200 8.460000
16.058100 0.159918 67.047600 -13.586400 9.750000
-14.867000 0.166915 70.407600 -13.586400 5.970000
-14.956000 0.167914 70.829200 -13.586400 7.980000
16.004100 0.619344 71.039000 -13.675200 8.100000
15.683600 1.302600 71.542500 -13.675200 7.480000
15.776600 1.082410 71.967000 -13.675200 6.830000
14.891100 1.088740 72.595300 -13.675200 8.390000
16.942400 0.864540 72.589700 -13.675200 9.140000
16.477100 0.869538 73.138500 -13.675200 10.110000
16.146300 0.874535 73.653400 -13.675200 6.750000
16.239100 0.644997 74.076600 -13.675200 5.430000
16.330800 0.884530 74.495100 -13.675200 6.720000
16.423100 0.889527 74.916000 -13.675200 7.910000
16.515400 0.894524 75.336900 -13.675200 6.030000
16.792200 0.909516 76.599500 -13.675200 6.620000
16.885300 0.426781 77.024500 -13.675200 7.790000
16.977600 0.429113 77.445400 -13.675200 10.110000
16.469400 0.184906 77.996400 -13.675200 12.700000
16.511900 6.005300 78.197800 -13.675200 12.050000
16.600700 6.037590 78.618200 -13.675200 8.320000
17.298200 6.069880 78.907700 -13.675200 8.980000
16.808600 3.650920 79.603000 -13.675200 16.100000
16.905700 2.658180 80.062400 -13.675200 19.080000
26.376500 0.824570 93.292000 -13.497600 21.350000
26.493700 0.828235 93.706600 -13.497600 17.400000
26.610900 0.831900 94.121200 -13.497600 11.960000
16.525900 -0.872212 101.210000 -13.764000 13.970000
16.595400 -0.875877 101.635000 -13.764000 12.760000
16.664800 -0.879541 102.061000 -13.764000 10.140000
-12.028800 -0.241877 103.581000 -13.764000 10.190000
-12.879600 0.566709 103.912000 -13.764000 10.680000
-10.964700 0.244875 104.999000 -13.852800 9.380000
16.122800 1.943970 166.832000 -13.852800 6.930000
16.164300 1.948960 167.260000 -13.852800 6.320000
16.205700 1.953960 167.689000 -13.852800 5.510000
-6.471680 1.377620 10.089000 -11.632800 6.650000
-6.777770 1.405420 9.882090 -11.366400 5.930000
-7.303160 -0.222208 10.137400 -11.188800 4.980000
-6.601930 1.723940 10.468800 -11.632800 7.600000
-7.549600 0.539568 10.479500 -11.188800 7.300000
-7.468610 0.539568 10.537400 -11.277600 9.590000
-6.220370 1.443110 11.732800 -12.165600 3.820000
-7.633410 0.557554 10.947800 -11.277600 8.670000
-6.802250 0.575540 11.980400 -11.988000 8.600000
-7.879650 0.575540 11.300900 -11.277600 5.200000
-7.012880 0.681392 12.351300 -11.988000 9.420000
-7.281350 1.142190 12.160500 -11.810400 7.020000
-7.119890 0.962150 12.768000 -12.076800 7.170000
-7.430380 0.990448 13.086600 -12.076800 4.680000
-6.068980 1.771430 14.636200 -12.787200 4.520000
-6.241150 1.617860 15.051400 -12.787200 5.780000
-6.405390 1.660440 15.447500 -12.876000 9.500000
8.931030 0.587597 15.729600 -12.432000 7.530000
8.894360 0.601588 16.243200 -12.520800 10.250000
9.099200 0.732777 16.617300 -12.520800 10.270000
9.199820 1.093860 17.034000 -12.520800 7.430000
-6.537030 1.826120 19.993400 -13.231200 5.430000
-6.397980 1.730580 20.500200 -13.142400 7.620000
-11.181300 1.547880 18.351300 -12.076800 4.510000
-6.525940 1.765200 20.910200 -13.142400 5.570000
8.646640 -3.296970 20.406600 -12.964800 7.200000
8.720900 -1.781610 21.031700 -12.964800 8.250000
8.703890 -2.299070 21.456600 -13.053600 10.800000
8.838010 -2.978910 21.787200 -13.053600 11.870000
8.998700 -3.033070 22.183300 -13.053600 8.610000
-5.888040 1.840340 23.774000 -13.497600 5.370000
10.047900 1.176950 22.381100 -12.876000 7.860000
-6.006510 0.598971 24.252300 -13.497600 8.970000
10.222600 1.274800 22.770200 -12.876000 6.780000
-6.110070 0.609298 24.670400 -13.497600 9.630000
9.403440 0.934660 24.527500 -13.231200 4.760000
-6.210330 1.672050 25.930100 -13.586400 4.550000
9.701540 0.949982 24.873900 -13.231200 8.130000
-6.310500 1.699020 26.348300 -13.586400 4.170000
9.856880 1.049200 25.272200 -13.231200 9.160000
-5.893760 1.725990 26.885100 -13.586400 7.190000
10.012100 1.151080 25.670200 -13.231200 7.120000
-5.774070 1.839400 27.345100 -13.586400 9.320000
-6.075470 1.955460 27.714000 -13.586400 5.590000
-6.167520 1.985090 28.133900 -13.586400 8.890000
-5.010790 1.516570 29.267600 -13.675200 6.740000
-4.854410 1.538550 29.730000 -13.764000 6.870000
11.693100 -2.009200 28.199700 -13.142400 5.000000
9.634350 -1.199090 29.466600 -13.320000 4.140000
9.994120 -1.507320 29.787700 -13.320000 5.110000
11.634900 -1.871610 29.164800 -13.053600 6.100000
10.537400 -1.527970 30.056400 -13.320000 8.300000
9.207130 0.949380 30.963700 -13.497600 9.110000
10.500600 -1.723300 30.515400 -13.231200 6.930000
10.651200 0.962038 30.952900 -13.408800 6.250000
10.549300 0.974697 31.442500 -13.408800 13.830000
10.686300 0.987355 31.850800 -13.408800 17.500000
-20.453500 -0.525380 29.334200 -11.277600 7.660000
18.824900 1.603310 30.367200 -12.165600 5.300000
19.051700 1.622630 30.733000 -12.165600 8.270000
19.275800 1.755100 31.094400 -12.165600 15.490000
-20.002400 0.888129 31.182800 -11.632800 10.450000
11.161500 -1.333040 35.763300 -13.497600 7.200000
-20.235000 0.898456 31.545400 -11.632800 7.010000
11.289800 -1.348360 36.174400 -13.586400 6.660000
20.198100 -2.022010 32.028400 -12.076800 17.910000
-20.467600 0.908783 31.908000 -11.632800 7.580000
9.931610 -1.008040 37.028100 -13.586400 7.210000
20.676600 -2.044990 32.233900 -12.076800 14.720000
10.547300 -1.019360 37.305200 -13.586400 6.660000
-18.615000 1.757850 34.466900 -12.076800 7.350000
-19.018000 1.899640 34.731300 -12.076800 5.470000
-17.947800 -0.766236 39.166800 -12.520800 8.570000
-16.970300 -1.413030 40.051000 -12.787200 7.220000
-18.961600 -0.773898 39.165400 -12.520800 7.130000
19.986400 0.101948 39.144500 -12.698400 7.450000
19.877100 0.102947 39.682700 -12.698400 8.320000
20.070100 0.103947 40.067900 -12.698400 15.460000
20.574000 0.244874 40.295300 -12.698400 17.160000
10.369700 2.188710 44.428800 -13.675200 6.390000
11.288100 -1.125650 45.577600 -13.675200 7.690000
-16.424500 -1.405080 44.899500 -12.964800 9.380000
-16.310300 -1.417740 45.399000 -13.053600 6.460000
-15.531200 -0.888834 47.501900 -13.142400 7.900000
24.605900 -2.031790 46.411300 -12.520800 5.410000
-6.624340 0.957795 53.445000 -13.764000 7.370000
-6.674870 1.762790 53.852700 -13.852800 6.900000
-6.728490 1.607620 54.285300 -13.852800 7.830000
-6.781470 1.620270 54.712700 -13.764000 12.600000
-17.200300 -0.848204 55.112700 -13.320000 5.140000
22.059500 1.823530 65.749000 -13.408800 5.860000
21.684100 2.050660 66.320800 -13.408800 5.510000
16.550700 0.844551 70.911400 -13.764000 7.980000
16.649100 0.623008 71.333200 -13.764000 7.340000
16.054600 0.637667 73.234800 -13.764000 15.240000
16.571800 0.874535 73.558800 -13.764000 8.190000
16.667000 0.644997 73.981500 -13.764000 6.280000
16.762300 0.176910 74.404300 -13.764000 10.280000
16.994500 6.050760 75.435000 -13.764000 16.710000
16.793100 0.424448 76.603600 -13.764000 16.340000
16.885000 0.670650 77.022800 -13.764000 5.630000
16.977200 0.674315 77.443700 -13.764000 12.580000
17.069500 0.677980 77.864600 -13.764000 6.420000
17.162100 0.433777 78.287200 -13.764000 5.640000
17.206200 6.037590 78.488000 -13.764000 13.220000
17.302100 5.820010 78.925600 -13.764000 19.830000
16.535200 -1.463510 80.610500 -13.764000 13.810000
27.093900 1.124400 93.083000 -13.586400 10.400000
27.214300 1.129400 93.496700 -13.586400 8.090000
27.334700 1.134400 93.910400 -13.586400 6.450000
27.454000 1.443210 94.320300 -13.586400 8.340000
16.594800 1.194360 101.632000 -13.852800 8.720000
16.664800 0.879541 102.061000 -13.852800 7.270000
16.734600 -0.562044 102.488000 -13.852800 8.550000
16.804000 -0.564376 102.913000 -13.852800 7.160000
-18.264000 1.538160 103.092000 -13.852800 10.640000
-18.339900 1.219350 103.521000 -13.852800 14.620000
-6.626420 1.377620 9.988080 -11.544000 4.350000
-7.062760 -0.149920 10.826000 -11.544000 7.410000
-7.384190 -0.154918 11.130300 -11.544000 7.770000
-6.446160 0.862996 12.158700 -12.254400 3.160000
-7.018280 1.052560 12.817000 -12.165600 8.680000
-6.327820 1.389430 14.094800 -12.609600 3.550000
7.946640 1.162320 13.271600 -12.165600 4.040000
8.652720 1.114470 12.826600 -11.810400 4.570000
-6.076910 1.575290 14.655300 -12.787200 5.750000
8.142470 1.722420 13.598600 -12.165600 4.880000
-6.241150 1.617860 15.051400 -12.787200 4.540000
7.928060 1.768970 14.217300 -12.432000 8.900000
-6.417270 1.311000 15.476200 -12.787200 5.150000
8.248910 1.815520 14.528300 -12.343200 9.070000
-6.709930 1.131940 15.835900 -12.787200 6.280000
-6.032810 1.131940 16.106000 -12.964800 5.380000
-6.308000 1.269260 16.453500 -12.964800 8.960000
9.126850 1.274010 16.074500 -12.432000 15.560000
9.339100 1.303640 16.448300 -12.432000 16.870000
9.290920 1.333270 16.967400 -12.520800 14.230000
-5.775180 1.668510 18.887900 -13.320000 7.600000
-6.012180 1.704780 19.264000 -13.320000 8.840000
-6.291550 1.741050 19.626000 -13.320000 8.250000
-6.425860 1.647150 20.045000 -13.231200 8.070000
-6.120900 1.730580 20.584600 -13.320000 7.560000
9.369450 -2.953870 20.138300 -12.964800 8.910000
-6.201160 1.429340 21.933200 -13.408800 6.870000
7.539400 -1.499820 21.505100 -13.231200 7.360000
9.549630 -3.010670 20.525600 -12.964800 7.390000
8.436820 -1.528120 21.631300 -13.231200 8.210000
9.687490 -1.483270 21.578200 -13.053600 7.950000
10.463600 -2.384220 21.612600 -12.698400 10.950000
-5.613900 1.156300 23.439800 -13.586400 7.090000
10.786600 -3.087240 21.848900 -12.787200 9.350000
18.514700 1.487030 16.721400 -9.856800 5.330000
-5.897860 1.176950 23.813600 -13.586400 5.050000
18.833900 1.512670 17.009700 -9.856800 7.430000
-6.141300 1.197600 24.196300 -13.497600 6.820000
18.951900 1.538310 17.518200 -9.945600 10.390000
-6.247180 1.218250 24.613500 -13.497600 4.410000
18.420400 1.645090 18.678300 -10.300800 9.140000
18.722300 1.672050 18.984500 -10.300800 6.110000
-6.304050 1.807320 25.453700 -13.586400 7.040000
9.405320 0.772162 24.532400 -13.320000 4.140000
9.556490 1.032550 24.926700 -13.320000 6.340000
-5.242300 1.447580 26.596400 -13.675200 8.530000
9.710630 1.049200 25.328800 -13.320000 8.160000
-5.326150 1.406670 27.021800 -13.675200 8.340000
-5.619100 1.580020 27.393500 -13.675200 5.300000
-5.326850 1.867700 27.873600 -13.675200 8.780000
-5.025430 1.896000 28.366300 -13.764000 7.820000
-5.095890 2.285840 28.764000 -13.764000 4.550000
-5.627390 2.611570 30.398200 -13.675200 3.940000
9.050130 -2.133230 29.598700 -13.497600 5.040000
11.473300 -1.941740 28.759900 -13.231200 8.500000
9.575480 -2.356920 29.870000 -13.408800 7.890000
8.886420 2.389210 30.530000 -13.586400 4.950000
10.923600 -2.389210 29.861700 -13.320000 7.940000
10.548300 1.077260 31.439400 -13.497600 8.440000
10.685300 1.091250 31.847800 -13.497600 17.280000
-8.619870 1.526040 32.896300 -13.497600 8.320000
-8.728980 1.545360 33.312700 -13.497600 8.750000
19.048800 1.672510 29.198600 -11.988000 13.110000
19.047200 2.017570 30.203400 -12.165600 6.730000
19.040500 2.041870 30.715000 -12.165600 7.900000
11.747000 -2.600430 34.137500 -13.408800 8.380000
19.267200 2.066180 31.080600 -12.165600 7.230000
12.086300 -2.631390 34.474600 -13.408800 6.050000
19.493900 2.090490 31.446300 -12.165600 7.820000
-20.095600 1.042020 34.156000 -11.988000 8.880000
18.963900 -0.370140 39.170200 -12.876000 8.230000
-18.539700 -0.373805 39.848500 -12.609600 8.960000
19.456000 -0.373805 39.409200 -12.787200 7.240000
-17.864400 -0.377470 40.626900 -12.698400 5.610000
19.340200 0.000000 39.947200 -12.876000 8.350000
-18.038500 0.000000 41.022800 -12.698400 6.300000
11.941000 1.105000 44.519500 -13.675200 10.080000
-3.578150 2.481560 46.333000 -13.941600 8.250000
11.792600 1.115330 45.004500 -13.675200 10.040000
-3.612270 2.250660 46.774900 -13.941600 8.010000
-3.646420 1.978420 47.217100 -13.941600 8.660000
-16.260400 -2.527510 44.450800 -13.053600 9.460000
-3.404090 1.996400 47.666800 -13.941600 8.110000
-17.097600 -2.550490 44.596700 -12.964800 7.670000
-4.641030 1.156630 48.023200 -13.852800 6.330000
-16.901500 -2.722500 45.122400 -12.964800 7.890000
-7.566090 1.279870 48.083200 -13.852800 9.630000
-17.042700 -3.197730 45.499500 -12.964800 7.870000
-16.875400 0.265863 46.132200 -12.964800 8.850000
-17.023400 0.268195 46.536900 -13.053600 10.590000
-2.619030 2.260090 50.296500 -13.941600 12.220000
-3.393410 1.734810 53.295500 -13.941600 6.110000
-3.109090 2.248200 53.725700 -13.941600 10.790000
-3.134360 2.098410 54.162200 -13.941600 6.180000
-5.993820 2.115060 54.353900 -13.852800 11.170000
15.408700 0.612014 70.288600 -13.764000 4.570000
15.909400 0.615679 70.618700 -13.764000 6.350000
16.003000 1.069750 71.033900 -13.764000 7.730000
16.097700 1.076080 71.454200 -13.764000 7.590000
16.193000 0.854546 71.877500 -13.764000 6.630000
16.288200 0.630338 72.300100 -13.764000 8.270000
15.962300 0.634003 72.813900 -13.852800 7.010000
16.054100 0.869538 73.232500 -13.764000 6.650000
16.146300 0.874535 73.653400 -13.764000 6.060000
16.238600 0.879532 74.074300 -13.764000 6.550000
16.330200 1.120390 74.492100 -13.764000 7.140000
16.423100 0.889527 74.916000 -13.764000 7.860000
16.515400 0.894524 75.336900 -13.764000 6.380000
16.625600 -18.983600 73.797700 -13.764000 6.000000
16.201300 0.909516 76.726700 -13.764000 7.800000
16.290300 0.914514 77.148300 -13.764000 9.510000
16.379300 0.919511 77.569800 -13.764000 15.460000
16.468400 0.924508 77.991400 -13.764000 16.930000
16.499700 6.746570 78.139900 -13.764000 14.900000
16.588400 6.782840 78.560000 -13.764000 10.520000
17.346300 0.688974 79.127300 -13.852800 8.150000
16.823700 1.196350 79.674500 -13.764000 17.150000
26.972300 1.417890 92.665500 -13.586400 10.820000
26.374600 1.424220 93.285300 -13.586400 10.570000
26.491800 1.430550 93.699900 -13.586400 10.740000
26.609000 1.436880 94.114500 -13.586400 9.450000
17.303400 1.823640 101.067000 -13.852800 8.200000
16.594200 1.512840 101.628000 -13.852800 8.370000
16.664300 1.199360 102.057000 -13.941600 7.810000
16.734800 0.240877 102.489000 -13.941600 8.160000
16.118300 4.405910 166.785000 -14.030400 6.960000
17.446600 4.936770 167.070000 -14.030400 5.520000
7.916370 1.701440 8.944560 -11.011200 4.000000
-6.582310 1.950410 9.921600 -11.544000 6.270000
8.199100 1.762210 9.264010 -11.011200 5.870000
8.645780 1.234690 8.937480 -10.656000 3.050000
-6.658190 2.020060 10.379800 -11.544000 6.460000
8.941130 1.317040 9.242780 -10.567200 2.430000
-7.303270 0.619447 10.648300 -11.544000 8.740000
-6.220370 1.443110 11.732800 -12.254400 3.350000
-6.722580 1.638030 11.426200 -11.988000 2.890000
-7.546710 0.640095 11.003200 -11.544000 8.380000
-6.514180 1.489660 12.061400 -12.254400 7.510000
-7.702380 0.660744 11.417900 -11.544000 4.190000
-6.717750 1.536210 12.438300 -12.254400 9.440000
-7.292020 0.846069 12.178300 -11.988000 6.240000
-7.560560 1.142190 11.988900 -11.721600 4.810000
-6.364670 1.142920 13.146300 -12.520800 5.380000
-6.939570 1.176800 12.849000 -12.254400 8.670000
-7.884640 1.176800 12.291800 -11.721600 6.820000
-6.545480 1.350830 13.519700 -12.520800 5.420000
-7.220010 1.211410 13.185400 -12.254400 4.950000
-8.020250 1.176540 12.717800 -11.810400 5.410000
-6.335500 1.162320 14.111900 -12.698400 4.780000
-6.919440 1.389430 13.814000 -12.432000 4.450000
-6.887770 1.226890 14.804300 -12.698400 5.070000
-6.296640 1.349860 15.522300 -12.964800 6.730000
-7.069030 1.259180 15.193900 -12.698400 5.080000
-6.458090 1.384470 15.920300 -12.964800 7.640000
-6.708540 1.185130 15.832600 -12.787200 5.730000
-6.620760 1.378230 16.321300 -12.964800 7.560000
-6.785400 1.300220 16.727200 -12.964800 4.630000
8.921520 1.020940 15.712900 -12.520800 6.180000
-5.987890 2.158320 17.401100 -13.231200 6.200000
8.792430 0.988028 16.279700 -12.698400 5.500000
9.257650 1.045250 16.016100 -12.520800 6.370000
0.000000 2.979950 20.031900 1.065600 17.510000
-6.400060 1.916270 19.574500 -13.408800 4.920000
-0.646403 2.459480 20.960400 0.976800 6.140000
-6.531480 2.021200 19.976500 -13.408800 6.480000
-6.851660 0.449738 20.421500 -13.320000 7.240000
-6.543640 0.713511 20.966900 -13.408800 5.990000
-6.074480 1.886140 21.485100 -13.497600 5.400000
8.806030 -2.489580 20.452900 -13.142400 5.260000
-0.267687 2.299070 23.153200 1.065600 5.760000
-6.498850 0.827404 22.327300 -13.497600 8.070000
9.960380 -6.841830 19.884900 -13.053600 6.870000
-0.272645 2.341650 23.582000 0.976800 4.880000
-6.619200 0.842726 22.740800 -13.497600 6.270000
9.366180 -0.842726 21.753900 -13.142400 9.900000
9.536470 -0.858049 22.149400 -13.142400 10.830000
-6.022830 1.972870 23.729500 -13.586400 6.590000
9.701750 -1.176950 22.533300 -13.142400 8.500000
10.342400 -1.461390 22.229600 -12.964800 8.910000
18.283900 2.161530 16.900800 -10.034400 5.830000
-6.128490 2.007480 24.145800 -13.586400 8.980000
10.523900 -1.487030 22.619600 -12.964800 4.830000
18.599200 2.198790 17.192200 -10.034400 6.670000
18.914400 2.236060 17.483600 -10.034400 9.770000
-6.214990 0.299841 25.094100 -13.675200 4.410000
9.216760 0.690902 24.606300 -13.408800 3.880000
9.557590 0.949982 24.929600 -13.408800 4.310000
-5.235010 2.034050 26.559400 -13.764000 6.190000
9.705240 1.384690 25.314700 -13.408800 5.390000
-9.700670 1.615220 25.302800 -13.142400 4.160000
-5.318100 2.066340 26.981000 -13.764000 7.970000
-9.457270 1.640860 25.853300 -13.231200 8.820000
-5.610910 2.185000 27.353600 -13.764000 7.330000
-6.074140 2.043200 27.707900 -13.764000 7.920000
9.958010 1.692140 26.585200 -13.408800 10.590000
-5.951740 1.896000 28.186500 -13.764000 6.850000
-9.303780 1.743410 27.730100 -13.320000 7.610000
-10.639200 1.132470 27.277900 -13.053600 6.060000
-10.798000 0.965339 27.685200 -13.053600 6.890000
-5.149410 2.197980 30.077200 -13.852800 6.290000
8.940890 -0.993319 29.241400 -13.586400 7.140000
10.926000 -2.103600 28.498800 -13.320000 4.250000
-5.398160 2.228940 30.470100 -13.852800 6.370000
9.066820 -1.007310 29.653300 -13.586400 6.500000
11.079900 -2.133230 28.900200 -13.320000 5.090000
-5.475460 2.065790 30.906500 -13.852800 5.480000
9.325470 -3.108000 29.880400 -13.586400 5.170000
9.453220 -3.150580 30.289700 -13.586400 8.270000
10.414500 0.683602 31.040700 -13.586400 7.810000
-5.343430 1.179820 32.724900 -13.941600 7.700000
10.550800 0.795185 31.447000 -13.586400 4.660000
10.687900 0.805513 31.855400 -13.586400 9.130000
10.824900 0.815840 32.263800 -13.586400 4.980000
10.196700 1.456830 33.348400 -13.675200 15.850000
19.037100 2.153630 30.709500 -12.254400 6.930000
19.263700 2.179270 31.075100 -12.254400 6.010000
-17.025100 -1.912200 33.344600 -12.254400 11.740000
-17.480200 -1.934170 33.594100 -12.254400 8.510000
-17.678900 -1.956150 33.975900 -12.165600 6.890000
-19.882700 -0.454758 33.794100 -12.076800 6.940000
-20.102500 0.091953 34.167700 -12.076800 8.630000
-17.340900 -0.899476 39.436400 -12.787200 6.430000
-17.823500 -0.504732 39.700600 -12.787200 6.530000
19.150300 0.645648 39.555100 -12.964800 7.060000
20.181700 0.377470 39.527000 -12.876000 6.710000
11.604500 -1.316470 43.265000 -13.764000 5.890000
20.377700 0.381135 39.910700 -12.876000 4.120000
9.779660 0.670967 44.611100 -13.852800 8.420000
10.132100 0.677297 44.974100 -13.941600 5.360000
-17.659900 -0.249538 42.589400 -12.964800 11.050000
-3.247190 -9.362850 45.469800 -14.119200 7.670000
10.715900 -9.449550 44.742300 -13.852800 11.120000
-4.553530 2.417720 47.117800 -14.030400 10.560000
-4.320670 2.291950 47.579200 -14.030400 9.390000
-8.416470 1.156630 47.507200 -13.852800 9.810000
-8.861400 1.016410 47.867800 -13.852800 6.010000
-17.963600 -3.407240 46.057000 -12.964800 9.070000
21.771800 1.468370 44.969700 -12.964800 8.760000
21.955000 1.792710 45.348300 -12.964800 7.070000
22.142700 1.808030 45.735900 -12.964800 6.500000
-6.930610 1.748800 53.386100 -14.030400 7.670000
-7.400610 1.762790 53.757800 -13.941600 8.400000
15.904500 1.902810 70.596800 -13.852800 5.300000
15.588400 1.914140 71.108300 -13.941600 5.750000
16.095900 1.529110 71.446400 -13.941600 4.940000
16.188500 1.936790 71.857500 -13.941600 6.690000
16.288800 -0.171912 72.302500 -13.941600 9.480000
15.401100 0.172912 72.937200 -13.941600 5.950000
16.054100 0.869538 73.232500 -13.941600 8.410000
16.146300 0.874535 73.653400 -13.941600 6.630000
16.330200 1.120390 74.492100 -13.941600 5.910000
16.423100 0.889527 74.916000 -13.941600 6.060000
16.515900 0.655991 75.339200 -13.941600 6.960000
16.608200 0.659656 75.760100 -13.941600 5.530000
16.201800 0.666986 76.729100 -13.941600 7.170000
16.290800 0.670650 77.150700 -13.941600 6.130000
16.976700 0.919511 77.441300 -13.941600 5.700000
16.468400 0.924508 77.991400 -13.941600 7.520000
17.346700 0.438441 79.129000 -13.941600 8.220000
17.606600 -14.654200 78.152100 -13.941600 7.490000
17.478000 6.386910 79.728200 -13.941600 7.020000
17.624900 1.253320 83.468500 -13.941600 20.830000
17.715800 0.000000 83.899100 -13.941600 18.490000
17.804800 0.000000 84.320700 -13.941600 17.230000
16.749000 0.468759 84.974700 -13.941600 9.210000
16.384700 21.749900 83.126200 -14.030400 9.920000
27.091400 1.724030 93.074500 -13.764000 5.370000
27.213200 1.430550 93.492900 -13.764000 14.670000
27.333600 1.436880 93.906600 -13.764000 19.850000
17.304900 1.189370 101.077000 -14.030400 20.420000
17.377700 1.194360 101.501000 -14.030400 16.240000
17.450400 1.199360 101.926000 -14.030400 10.500000
17.522400 1.525500 102.347000 -14.030400 10.440000
16.120400 3.498960 166.806000 -14.119200 9.230000
16.161800 3.507960 167.235000 -14.119200 7.420000
