VERSION .7
FIELDS x y z velocity SNR
SIZE 4 4 4 4 4
TYPE F F F F F
COUNT 1 1 1 1 1
WIDTH 245
HEIGHT 1
VIEWPOINT 0 0 0 1 0 0 0
POINTS 245
DATA ascii
-1.30601805117773 2.70822491511142 -0.900799613948285 0 5.45341855980259
-0.85399201638173 2.93663439210528 0.706032129851358 0 5.45341855980259
-0.0242571544459852 3.12718678720807 0.267805290633274 0 5.45341855980259
0.0728177580563772 3.12842298959674 -0.243459355121158 0 5.45341855980259
0.454486825880812 3.05018649506379 -0.584302452290779 0 5.45341855980259
1.41592116054161 7.80934585453636 -1.89898296994503 3.71315297500145 5.6044517546532
3.03288908472702 7.38088511692225 -1.70908467295053 3.71315297500145 5.6044517546532
3.79002714963965 7.52376156931325 0.920276362357978 -4.02258238958491 5.58778872750996
4.2622876768285 7.30076080659356 0.591606232944414 -3.403723560418 13.18195800066
-5.94544821759193 5.70797530469905 -1.97202077648138 3.71315297500145 44.5197777649129
-2.56659905574005 7.86404078604699 -1.84055272471595 3.71315297500145 44.5197777649129
-5.9673428045956 5.72899537877081 -1.84055272471595 3.86786768229318 52.0287684289383
-2.56659905574005 7.86404078604699 -1.84055272471595 3.86786768229318 52.0287684289383
3.37866852955262 8.02983267379252 1.15886653037671 -3.55843826770973 8.18915090190766
2.8513981228583 7.85308710642121 2.72674477735697 -3.403723560418 6.71949861604086
4.4176106554202 7.56680946413266 0.681686194339243 -3.403723560418 6.71949861604086
-2.72819973702738 8.13328312935145 -1.90872134414988 3.71315297500145 296.115643069542
-2.66627611844133 8.16945057912052 -1.84055272471595 3.86786768229318 312.520718669991
-2.66627611844133 8.16945057912052 -1.84055272471595 4.02258238958491 15.6588845552632
5.5734574835691 7.18776403245877 -0.353016064925679 -4.17729709687663 5.33368404573649
6.06122972122285 6.35224764139588 2.40050924149462 -3.403723560418 5.13563250690768
-3.39908305040333 8.27206033489443 -1.69447711164326 3.55843826770973 41.0133911631661
-3.22263932872184 8.43744534225094 1.12965140776217 3.55843826770973 41.0133911631661
-2.82563544192122 8.42375752682829 -1.9768899635838 3.71315297500145 374.365836753496
-2.83053777216674 8.43837230716832 -1.90628675059867 3.86786768229318 339.608173006896
-2.83525381618191 8.45243173276877 -1.83568353761353 4.02258238958491 16.9972548481017
-2.56665454826374 8.5669733393743 -1.69447711164326 4.02258238958491 16.9972548481017
-1.75269641586152 9.25046835338554 -0.146075613072694 -4.48672651146009 6.2718834082459
-3.80333712184469 8.43364631127704 -1.75290735687234 3.55843826770973 75.9193732206345
-3.57685510872403 8.50084812115528 -1.89898296994503 3.55843826770973 75.9193732206345
-3.81930405131779 8.46905191207951 -1.5337939372633 3.71315297500145 115.882770103798
-3.27954323789006 8.58642993977886 -2.04505858301773 3.71315297500145 115.882770103798
-2.92307114681505 8.71423192430512 -2.04505858301773 3.86786768229318 59.6168928980894
-2.53061149647119 8.70204944664551 -2.55632322877216 3.86786768229318 59.6168928980894
4.77103869312932 8.17218708321866 2.26417200262677 -4.79615592604354 6.11043200097752
4.26904068196245 8.11893839471392 3.24531320376504 -4.64144121875182 15.0595206037244
4.52779907430893 8.61104976190065 -0.150944800175117 -4.48672651146009 16.8270748721955
-4.33784566998318 8.24979295914796 -2.79247880323968 3.55843826770973 48.4985195505091
-4.01012866820796 8.69365095094092 -1.73586520201386 3.55843826770973 48.4985195505091
-3.7504482719431 8.70733361031181 -2.18869960253921 3.55843826770973 48.4985195505091
-3.75721583993056 8.72304572468442 -2.11322720245165 3.71315297500145 34.5766298383691
-2.74053910544463 8.88471879683339 -2.86795120332724 3.71315297500145 34.5766298383691
-2.8090235453846 9.10674262769805 -1.96228240227653 3.86786768229318 8.41389737295286
4.7487512038092 8.84183593121754 -0.389534968193853 -4.48672651146009 21.7370255111491
-4.47777617546651 8.51591531266886 -2.88255876463451 3.55843826770973 9.80955353490344
-4.07908274022575 9.04509382245173 -1.55813987277541 3.55843826770973 9.80955353490344
-3.70290790126198 9.23051424934326 -1.40232588549787 3.55843826770973 9.80955353490344
-3.4014064279163 9.36787492024843 -1.24651189822033 3.55843826770973 9.80955353490344
-3.69426361378936 9.20896599029414 -1.55813987277541 3.71315297500145 14.3778622455018
-2.99380721857679 9.43291676128342 -1.71395386005295 3.71315297500145 14.3778622455018
-2.98526083525922 9.40598873400618 -1.86976784733049 3.86786768229318 7.81134503785238
-3.80489158319961 9.48473656716136 -1.68717333098963 3.71315297500145 8.49082011785204
-4.53389073967159 13.1578702007392 2.41024761569946 4.17729709687663 7.8142811706198
-1.17204176332457 13.6864502240689 3.28670129413563 4.17729709687663 7.8142811706198
4.13096945435857 13.3924386947689 1.75290735687234 4.17729709687663 7.8142811706198
-4.52094789955123 13.1203085963444 2.62936103530851 4.33201180416836 34.4500300678585
4.14797341026348 13.4475648436163 1.20512380784973 4.33201180416836 34.4500300678585
-4.53389073967159 13.1578702007392 2.41024761569946 4.48672651146009 13.159898398505
4.77840263465299 13.1602850610936 1.86246406667686 4.48672651146009 13.159898398505
5.22300663332947 13.0197775475138 1.64335064706782 4.48672651146009 13.159898398505
4.67581893557076 13.5697620805161 1.56787824698026 4.17729709687663 26.8475538332291
5.12923519190682 13.4292538397179 1.34389564026879 4.17729709687663 26.8475538332291
5.12113502467273 13.4080461551683 1.56787824698026 4.33201180416836 88.9788252721096
4.25451717555962 13.7929754937805 0.335973910067199 4.48672651146009 31.6935402543459
4.8845893598675 13.452735840229 1.90385215704746 4.48672651146009 31.6935402543459
5.32293010806409 13.2688642334309 2.01584346040319 4.48672651146009 31.6935402543459
5.69440399581399 12.9186135108204 3.02376519060478 4.48672651146009 31.6935402543459
4.77839624603583 13.5061516293238 1.79186085369172 4.64144121875182 8.9407240403431
5.21762954349483 13.3271023387818 1.90385215704746 4.64144121875182 8.9407240403431
4.77746717330055 13.8647569083534 1.60196255669722 4.17729709687663 33.5472052819925
5.23676296723734 13.7107807605369 1.48753665979027 4.17729709687663 33.5472052819925
4.78139227443409 13.8761480013914 1.48753665979027 4.33201180416836 87.3760221862983
5.23676296723734 13.7107807605369 1.48753665979027 4.33201180416836 87.3760221862983
4.34176991376668 14.0758454012682 0.800981278348609 4.48672651146009 20.1645801162507
4.77746717330055 13.8647569083534 1.60196255669722 4.48672651146009 20.1645801162507
5.22784275058255 13.6874260401389 1.71638845360416 4.48672651146009 20.1645801162507
5.82788925714768 13.2214449400321 2.97507331958055 4.48672651146009 20.1645801162507
4.8721203570641 13.7710631162943 2.059666144325 4.64144121875182 5.43484139020243
5.30619034551006 13.5533082933868 2.40294383504583 4.64144121875182 5.43484139020243
5.7249482350318 13.2914869289374 2.86064742267361 4.64144121875182 5.43484139020243
-10.8519937822253 10.4185437747835 0.81802343320709 2.16600590208418 8.22816923838058
-10.392758782107 10.8917464768051 -0.584302452290779 2.16600590208418 8.22816923838058
5.19505820689128 13.9473942479868 2.33720980916312 4.17729709687663 23.0005186622742
5.35938699294935 14.0318323611211 1.16860490458156 4.33201180416836 42.7219668886916
-4.54644018861707 14.3249677511854 1.0517444141234 4.48672651146009 8.31579078535687
4.32266733626653 14.4281885732658 -0.350581471374468 4.48672651146009 8.31579078535687
5.23954536033282 14.0668308054438 1.28546539503971 4.48672651146009 8.31579078535687
3.97904203569586 14.5536831836734 2.98237710023419 4.02258238958491 9.81002740250426
4.58426730344571 14.4441537907152 2.62449184820608 4.17729709687663 24.492095012621
5.19757124682345 14.3147249119387 2.14731151216861 4.17729709687663 24.492095012621
4.26686870613558 14.2419440406586 3.93673777230912 4.33201180416836 33.3522629634148
5.22984249855442 14.4036037496025 1.31224592410304 4.33201180416836 33.3522629634148
4.39782210105713 14.6790399652942 -1.31224592410304 4.48672651146009 13.6476162075797
4.88388340243968 14.5597867867486 -0.835065588065571 4.48672651146009 13.6476162075797
4.82666932793231 14.7888796151206 2.06940451852984 4.17729709687663 13.3159106273066
5.32880597961246 14.6761608614535 1.58248580828753 4.17729709687663 13.3159106273066
4.85143088919706 14.8647488582253 1.33902645316637 4.33201180416836 25.019841317571
5.35030213958047 14.7353638241436 0.730378065363474 4.33201180416836 25.019841317571
4.98355449228538 14.8569252926006 -0.852107742924052 4.48672651146009 8.78324288497106
5.35465548411394 14.7473534490057 0.365189032681738 4.48672651146009 8.78324288497106
5.84021146816887 14.5583299972809 0.486918710242317 4.48672651146009 8.78324288497106
4.21535779981603 15.4180281017364 -0.869149897782533 4.33201180416836 7.65257349151011
5.20223469979204 14.704132317409 3.60076386224193 4.33201180416836 7.65257349151011
4.86373255401572 16.2341547475823 0.26293610353085 4.17729709687663 8.20605477980509
5.25476567634625 16.1005637041316 0.657340258827127 4.17729709687663 8.20605477980509
5.78442025919826 15.9309763836472 -0.131468051765425 4.17729709687663 8.20605477980509
4.86197604725058 16.2282918835527 0.525872207061702 4.33201180416836 5.9017987256894
5.24589252532739 16.0733764341305 1.18321246588883 4.33201180416836 5.9017987256894
5.77832631074691 15.9141929300751 0.788808310592552 4.33201180416836 5.9017987256894
5.18673575393134 16.3424172157837 2.00853967974955 4.17729709687663 14.4052074330604
5.41209996840272 15.2973171421158 -5.89171639393202 4.17729709687663 14.4052074330604
5.34578381553068 16.3794426187076 1.0712211625331 4.33201180416836 8.94562624277716
5.7534818632217 16.262234113737 0.669513226583185 4.33201180416836 8.94562624277716
5.31315196163898 16.7407306266085 0.681686194339243 4.17729709687663 12.8425574143193
4.90444796458983 16.8649943920171 -0.681686194339243 4.33201180416836 8.17045089119743
5.30930878592745 16.7286215113786 0.954360672074938 4.33201180416836 8.17045089119743
5.85385327679181 16.5459342217078 0.954360672074938 4.33201180416836 8.17045089119743
-9.24259360094288 14.8874096851065 -3.60806764289556 -4.33201180416836 7.66528194062911
5.87710883262475 21.49602321832 -0 3.86786768229318 9.82268890634872
-11.285098210482 20.1484833748232 -4.56486290852171 3.55843826770973 7.32236389610865
-7.24000399189847 22.1833194226809 -3.10410677779476 3.55843826770973 7.32236389610865
-11.0698070988859 20.1818422337962 4.93005194120345 3.71315297500145 20.564355445998
3.77588369888562 21.8024721825252 -8.03415871899821 3.71315297500145 20.564355445998
5.08241188648995 22.8426596145338 -2.55632322877216 3.86786768229318 7.42569589317869
-11.4858565405014 20.5069185252587 4.07064041762576 3.55843826770973 8.35313779538525
-6.19871622820708 22.6723295007976 -4.07064041762576 3.55843826770973 8.35313779538525
4.02619126324577 23.2477825109785 3.51555308794952 3.71315297500145 29.6822401311155
4.2428480360849 23.4009270045468 1.8502910989208 3.86786768229318 12.4695091389739
5.17832083510973 23.2737178436264 -0.740116439568321 3.86786768229318 12.4695091389739
4.49425379724759 23.7199963138433 1.12478222065975 3.55843826770973 13.5750293746709
4.27833152261347 23.5966319817367 2.99941925509267 3.71315297500145 32.0953538290382
5.22984249855442 23.5052795208628 2.06210073787621 3.71315297500145 32.0953538290382
5.1147452121942 23.8807469848411 1.70908467295053 3.71315297500145 12.2173860266759
4.12196588179958 23.8007983407371 3.98786423688457 3.86786768229318 5.16123112110055
4.41053893481155 29.6003437917983 3.50581471374468 3.403723560418 14.3555643107702
-13.1916093982458 26.7620388531429 4.20697765649361 3.55843826770973 16.0147341951175
-8.32207954890993 28.6172523259759 4.44069863740992 3.55843826770973 16.0147341951175
4.40636741798248 29.5723475913116 3.73953569466099 3.55843826770973 16.0147341951175
4.45226707858647 29.8803928787211 3.77848919148037 3.403723560418 38.0058426795114
4.22913420018335 29.9937814764704 3.0700224680778 3.55843826770973 53.6927485997098
4.22566245419593 29.9691592286156 3.30617804254533 3.71315297500145 6.01560942942013
5.88948582125876 29.7948682187654 2.12540017020771 3.71315297500145 6.01560942942013
4.48371299770552 30.0914351188034 4.53321319235596 3.403723560418 21.6091563038469
4.49362914430498 30.1579851147954 4.05603285631849 3.55843826770973 24.5885103006382
14.3387729025615 35.7433268999437 2.69509506119122 4.79615592604354 6.19159426026292
16.1584044547647 35.0301797963576 1.49727503399512 4.79615592604354 6.19159426026292
14.3193540899317 37.4906265163889 1.86976784733049 4.64144121875182 25.5492786242992
15.5809299911064 37.0300488598764 0.311627974555081 4.64144121875182 25.5492786242992
-9.25726975315495 38.690123810066 5.60930354199148 4.79615592604354 27.8513859305509
14.3072614117476 37.4589657250893 2.49302379644066 4.79615592604354 27.8513859305509
15.5771795901497 37.0211355581189 0.934883923665249 4.79615592604354 27.8513859305509
14.4429662012419 37.8142651015461 0.942187704318884 4.64144121875182 53.5264964770401
15.7031284053147 37.3204688316826 -0 4.64144121875182 53.5264964770401
14.436009038629 37.7960500072412 1.57031284053147 4.79615592604354 61.2079018810816
15.3848987795837 37.4409242327454 0.942187704318884 4.79615592604354 61.2079018810816
14.557117453961 38.1131334691548 0.632994323315009 4.64144121875182 16.6080315739387
15.5064946792193 37.7368418679858 0.632994323315009 4.64144121875182 16.6080315739387
13.6847178905067 35.8290355970642 -13.9258751129302 4.79615592604354 18.7027995100238
15.5041615608208 37.7311639554799 0.949491484972519 4.79615592604354 18.7027995100238
16.44001930162 37.2966610068729 1.89898296994503 4.79615592604354 18.7027995100238
14.1328155647832 39.9464464935457 -0 4.48672651146009 7.12228349280855
14.1328155647832 39.9464464935457 -0 4.64144121875182 8.08716316650842
15.4470313739953 39.4554972206247 -0.328670129413562 4.64144121875182 8.08716316650842
13.957524829096 43.9775043260795 -0 4.33201180416836 10.2937586407357
16.444883212656 43.0556413899153 2.14731151216861 4.33201180416836 10.2937586407357
12.5165599096303 44.3730443827481 -1.78942626014051 4.48672651146009 5.31020238325666
13.9558452112974 43.9722121700627 0.715770504056202 4.48672651146009 5.31020238325666
16.4582638107175 43.0906741854828 1.07365575608431 4.48672651146009 5.31020238325666
14.041901612903 44.2433595131797 -1.80159922789657 4.33201180416836 8.43804780185115
16.5502629187702 43.33154428187 2.52223891905519 4.33201180416836 8.43804780185115
13.3935516336673 52.2714650266189 1.67500036323357 3.86786768229318 5.0686454995991
16.3135576146844 51.4009152308992 -2.51250054485035 3.86786768229318 5.0686454995991
13.7771198242665 52.0303249375034 4.18750090808392 4.02258238958491 24.2180216620259
16.3292882744432 51.4504795459237 -0.837500181616781 4.02258238958491 24.2180216620259
13.7587613181773 51.9609926641853 5.0250010897007 4.17729709687663 8.50837269766811
16.3312535415273 51.456671728474 -0 4.17729709687663 8.50837269766811
16.424225996969 51.7496102409581 -0.842369368719204 4.02258238958491 18.4298467587615
16.4257085390617 51.7542814489333 -0.421184684359602 4.17729709687663 6.92399719728716
13.3025037754971 53.6989681744308 7.8004377380819 4.02258238958491 7.30372882512294
16.0033328223114 53.4158855630257 3.46686121692529 4.02258238958491 7.30372882512294
13.3772369427752 54.0006477709164 7.84426042200371 4.02258238958491 6.22753677390826
16.0849750903904 53.6883909278291 3.92213021100186 4.02258238958491 6.22753677390826
3.75282698839229 60.3611956886377 7.0846672340257 3.24900885312627 8.72297930938529
13.1397305766261 63.8151461653064 7.63245078304831 3.71315297500145 10.0887612949029
16.2585426558071 63.452761975437 3.56181036542254 3.71315297500145 10.0887612949029
13.1513458053269 63.8715573308901 7.12362073084509 3.86786768229318 7.91486013550156
3.64896201191683 6.51487909641575 -0.993314168894325 1.0382171147208 5.18396636053415
4.17362237280787 6.58725152345139 -2.40537842859704 0.934395403248721 6.90051264500377
-7.69685986317335 3.20792172514984 -1.51188259530239 1.5573256720812 23.9173958787908
-5.97431693792498 5.86492581297654 -1.31468051765425 1.5573256720812 23.9173958787908
-7.72764908275079 3.22075415397648 -1.31468051765425 1.66114738355328 15.1223228553152
-5.86825106945061 5.88907722539525 -1.64335064706782 1.66114738355328 15.1223228553152
3.54579114523106 7.68700286501063 0.394404155296276 1.66114738355328 15.1223228553152
-2.60395051915109 8.20455249931883 -1.77238410528203 1.45350396060912 20.7064228415809
-2.6081115864225 8.21766323035245 -1.70421548584811 1.5573256720812 176.569386509503
-2.6081115864225 8.21766323035245 -1.70421548584811 1.66114738355328 91.0929908806646
-1.6000556208259 8.82491771275224 1.55327068567299 0.726751980304561 25.3181079731589
-2.70125842879473 8.51115120286504 -1.7650803246284 1.45350396060912 81.3457106444852
-2.70125842879473 8.51115120286504 -1.7650803246284 1.5573256720812 781.901264272919
-2.70539263195367 8.5241772901931 -1.69447711164326 1.66114738355328 336.156458901957
-3.40295470911661 8.48279859233483 -2.26417200262677 1.45350396060912 95.9947814363909
-2.78530630230032 8.77597005620391 -1.97202077648138 1.45350396060912 95.9947814363909
-2.79440527116696 8.80463917537763 -1.82594516340869 1.5573256720812 593.383473445381
-2.79868203305552 8.81811443813079 -1.75290735687234 1.66114738355328 311.559405183461
-3.9045576375749 8.65809605153557 -2.11322720245165 1.45350396060912 65.6696579468691
8.9470446896461 3.51367113478578 -1.50944800175118 1.45350396060912 65.6696579468691
-2.87814984571033 9.0685023914107 -2.03775480236409 1.5573256720812 129.113803014741
8.99517809073408 3.53257401812755 -1.13208600131339 1.5573256720812 129.113803014741
-2.88755211353919 9.09812714789022 -1.88681000218897 1.66114738355328 43.2748127342285
-2.65675370373261 9.13581643396402 -2.03775480236409 1.66114738355328 43.2748127342285
-4.03051110975474 8.93738947255285 -2.18139582188558 1.45350396060912 26.0194588482655
-2.75562538639313 9.47580788369253 -1.86976784733049 1.5573256720812 33.1402413749426
-2.3692735290578 9.56418024610871 -1.94767484096926 1.5573256720812 33.1402413749426
-2.38286139553915 9.61903115403211 -1.63604686641418 1.66114738355328 20.4466279846466
5.24493430061113 8.62242330425396 2.32990602850948 0.62293026883248 8.1002939594148
-3.49223357241025 9.61802360051182 -1.60683174379964 1.5573256720812 14.3327043434065
-3.07855023636108 9.69992588194387 -1.92819809255957 1.5573256720812 14.3327043434065
-3.08736369415732 9.72769541007353 -1.76751491817961 1.66114738355328 11.5836015140512
-2.79974794265235 9.92551792319827 -0.964099046279786 1.66114738355328 11.5836015140512
-2.38106834482517 9.95151178673588 -1.60683174379964 1.66114738355328 11.5836015140512
-3.94253926872117 9.82786120230631 -1.3244188918591 1.5573256720812 5.93345892854216
-3.65422227767987 9.8106463386627 -2.06940451852984 1.5573256720812 5.93345892854216
-3.12413174549151 10.1283108815369 -1.24164271111791 1.5573256720812 5.93345892854216
4.93850663101059 9.80366233094898 0.426053871462027 0.62293026883248 6.32998226640676
-3.53552572413435 10.2605005812081 -1.70421548584811 1.5573256720812 9.34150009208149
-3.56331556337572 10.3411498775041 -1.02252929150886 1.66114738355328 9.24519316022318
-3.64090980264809 10.5663372468726 -1.66526198902872 1.5573256720812 12.2497091742654
-3.65610464333063 10.6104344148242 -1.31468051765425 1.66114738355328 8.09679834712903
-2.40560111960678 11.2317523748431 -1.71151926650174 1.66114738355328 5.50255253900387
4.98615835884952 10.8096083553662 0.740116439568321 0.5191085573604 13.2860459123037
6.63667032590693 14.0699077487011 -2.06940451852984 0.20764342294416 5.0832333214764
6.18950943479204 22.6386548742674 -1.82594516340869 -0.10382171147208 13.9019838026766
6.71011268865244 22.3969978923613 -2.73891774511303 0 5.50668074603981
11.886970115041 21.2230691548138 -4.80832226364287 0.830573691776641 5.40153948142907
16.1276970596889 19.1687010294738 -4.33844570825904 1.45350396060912 5.15510887316332
7.00851834022278 28.2916817505262 4.57703587627777 -0.31146513441624 12.8752742050402
15.5234270038163 34.4221636670524 10.6513467865507 0.31146513441624 5.14276991677639
16.4666341270581 49.0901731735855 -11.5204966843332 0 23.1476588018127
16.4952028791786 49.1753420659119 -11.1090503741784 0.10382171147208 28.9454827722968
16.5342343171685 49.2917022179233 -12.0025462074731 0 38.4375942871006
16.564069831952 49.3806475710624 -11.5886653037671 0.10382171147208 49.8465471076568
16.6003733387244 49.4888752404523 -12.4894649177154 0 9.13022646416292
16.6314945190342 49.5816534074405 -12.0731494204582 0.10382171147208 10.3431394316427
7.26252473550146 58.0662904463558 13.0202063118795 -0.31146513441624 8.10151669165932
7.31321449629623 58.4715718712268 12.6209329694808 -0.31146513441624 7.07284282863015
