VERSION .7
FIELDS x y z velocity intensity
SIZE 4 4 4 4 4
TYPE F F F F F
COUNT 1 1 1 1 1
WIDTH 948
HEIGHT 1
VIEWPOINT 0 0 0 1 0 0 0
POINTS 948
DATA ascii
-6.540070 1.516540 10.024800 -11.988000 5.270000
-6.499140 0.367094 10.666700 -12.165600 5.320000
-6.745460 -0.260848 10.515900 -11.988000 5.820000
-6.894010 -0.269843 10.931900 -11.988000 6.520000
-6.859270 0.392410 11.455600 -12.254400 6.520000
-7.124240 0.237533 11.297000 -11.988000 5.580000
-6.806230 0.330467 11.987400 -12.432000 7.190000
-6.825900 0.461684 12.465700 -12.520800 11.230000
-7.034030 0.385093 12.845800 -12.520800 11.060000
8.492390 -1.886450 11.788200 -12.076800 5.250000
8.757100 0.747295 11.721600 -11.899200 7.000000
-7.240910 0.396419 13.223600 -12.520800 6.820000
8.804070 0.769274 12.220800 -12.076800 7.850000
9.014670 0.769274 12.066300 -11.899200 8.800000
9.055620 0.791253 12.570000 -12.076800 8.430000
9.272230 0.791253 12.411100 -11.899200 7.180000
-6.469630 0.683453 15.026400 -13.142400 7.550000
-6.640710 0.649507 15.423700 -13.142400 5.890000
8.848900 0.612892 14.778400 -12.698400 5.300000
8.953100 0.628214 15.217300 -12.787200 7.950000
-5.736220 1.523420 17.096900 -13.586400 9.360000
9.051050 0.643536 15.658700 -12.787200 6.880000
9.619460 1.523420 15.253700 -12.609600 5.170000
-5.878490 1.331170 17.521000 -13.586400 10.600000
-10.100000 1.274010 15.481600 -12.076800 5.910000
-5.879340 1.245140 17.981900 -13.675200 8.630000
-6.871510 1.362130 17.618000 -13.408800 7.060000
0.483841 1.677050 19.311800 0.888000 7.030000
-5.906560 1.273430 18.425000 -13.675200 6.380000
0.494593 1.714310 19.740900 0.888000 17.300000
0.505064 1.876350 20.158900 0.888000 20.770000
0.633820 2.234490 20.552400 0.888000 19.920000
0.813382 0.310164 21.096100 0.888000 15.100000
-9.425580 1.695970 18.817200 -13.053600 10.280000
1.119390 0.899280 21.497100 0.888000 8.530000
-6.290760 1.148870 20.574100 -13.764000 5.730000
9.384380 -0.632920 19.383500 -13.320000 7.800000
-9.617940 1.730580 19.201200 -13.053600 8.990000
0.845935 0.917266 21.940400 0.976800 6.450000
-5.970370 1.171850 21.116900 -13.852800 8.610000
9.724160 -0.645578 19.696800 -13.231200 9.340000
-6.086400 1.264020 21.527300 -13.852800 8.640000
8.740400 -0.398443 20.627900 -13.408800 9.030000
-6.066540 1.834420 21.940700 -13.852800 4.870000
9.191250 -0.406105 20.902500 -13.497600 8.770000
9.792870 0.123603 20.631200 -13.320000 8.330000
10.469800 -2.660260 20.121300 -13.053600 7.300000
1.651280 2.012460 23.122500 0.888000 4.870000
-5.878930 1.869030 22.436000 -13.941600 5.320000
9.527300 0.557663 21.221400 -13.408800 8.520000
10.509100 -2.710450 20.582500 -13.142400 9.520000
0.136482 2.049720 23.610300 0.888000 9.290000
9.870030 0.567990 21.538900 -13.408800 14.710000
-9.519000 1.556420 21.647900 -13.142400 9.170000
0.138963 2.086990 24.039600 0.888000 12.280000
10.049500 0.578317 21.930600 -13.408800 16.930000
-9.861670 1.584720 21.966200 -13.142400 10.130000
10.229700 0.512702 22.323700 -13.408800 14.710000
-10.033500 1.764580 22.348900 -13.053600 9.560000
10.541800 0.289846 22.658200 -13.408800 6.390000
-10.213900 1.641310 22.750700 -13.053600 6.580000
-4.916440 2.212580 25.726000 -14.119200 5.830000
-5.148100 2.248860 26.118500 -14.119200 6.990000
9.980310 2.968340 24.603200 -13.586400 7.740000
-5.437260 2.180540 26.507100 -14.119200 7.120000
-5.680180 2.151380 26.900400 -14.119200 6.950000
18.360900 1.839400 21.070600 -11.277600 5.310000
-4.712050 2.185000 27.522700 -14.208000 11.440000
10.016300 -1.255610 26.126100 -13.764000 5.460000
12.194300 -1.169060 25.187500 -13.586400 7.250000
18.647100 1.779930 21.399000 -11.277600 5.790000
10.171800 -1.187050 26.531600 -13.764000 13.070000
10.883700 -1.187050 26.247600 -13.586400 8.860000
18.925800 1.896000 21.718900 -11.277600 7.920000
10.325900 -1.205040 26.933600 -13.764000 10.190000
9.625550 6.934030 26.792300 -13.852800 6.480000
10.703900 7.036000 26.831300 -13.764000 5.380000
-20.968400 0.536365 21.675900 -10.212000 12.350000
-21.268000 0.544028 21.985500 -10.212000 3.620000
-21.567500 0.551690 22.295200 -10.212000 7.520000
18.782200 2.130520 28.310600 -12.432000 9.890000
19.019900 2.157490 28.668900 -12.432000 13.580000
19.033400 2.184460 29.174800 -12.432000 11.900000
19.077500 0.081958 29.740900 -12.520800 4.820000
19.310100 0.082958 30.103600 -12.520800 5.710000
9.632340 1.930100 34.837000 -14.119200 9.440000
19.542800 0.000000 30.466400 -12.520800 6.770000
-18.692700 -7.172530 30.153900 -0.621600 6.600000
-17.813200 -1.757850 34.888000 -12.787200 6.510000
-16.201300 -2.603460 36.087300 -13.053600 7.870000
-18.285000 -1.532170 35.140600 -12.698400 6.280000
-16.377400 -2.631760 36.479500 -13.053600 5.800000
-15.626100 -1.301110 36.878600 -12.787200 11.200000
-18.756900 -1.548830 35.379100 -12.609600 5.900000
-16.278100 -2.284960 37.019300 -13.053600 7.120000
19.984100 -1.565480 35.196700 -12.876000 11.350000
-16.162400 -2.309260 37.538800 -13.142400 6.210000
20.470300 -1.582130 35.414400 -12.876000 8.080000
20.685700 -1.598790 35.787200 -12.787200 5.420000
11.671100 1.744600 40.096800 -14.030400 6.710000
19.003800 -0.743249 37.219900 -13.142400 8.130000
11.796600 1.240520 40.528000 -14.030400 6.260000
19.199700 -0.750911 37.603600 -13.142400 9.580000
11.918000 1.121300 40.945100 -14.030400 7.110000
-17.896000 -3.361530 39.053600 -13.053600 6.970000
22.699900 -0.766236 36.618000 -12.609600 8.990000
-17.770400 -3.395150 39.582300 -13.053600 8.410000
23.212400 -0.639318 36.808200 -12.520800 9.700000
-18.253900 -3.428760 39.834700 -13.053600 9.400000
23.728000 -0.645648 36.990900 -12.520800 9.040000
-7.145040 1.989650 43.758600 -14.208000 6.480000
-7.554730 2.008970 44.126500 -14.208000 8.460000
-7.628400 1.888490 44.556800 -14.208000 8.820000
-16.756000 -1.468990 42.001700 -13.320000 7.560000
-9.680000 1.888490 44.156500 -14.208000 7.500000
-6.746840 1.765330 45.139800 -14.208000 9.520000
-16.915500 -1.482980 42.401700 -13.320000 5.440000
-6.812640 1.354450 45.580100 -14.296800 4.590000
-16.744700 -1.496970 42.932100 -13.320000 7.950000
-8.115880 1.115330 45.810500 -14.208000 6.820000
-8.191030 1.125650 46.234600 -14.208000 6.910000
-8.266170 1.135980 46.658800 -14.208000 5.950000
-8.069020 1.146310 47.130400 -14.208000 5.890000
-17.258900 -2.163510 45.017300 -13.408800 7.330000
12.323700 1.228920 49.759000 -14.208000 10.970000
13.391700 1.239250 49.928400 -14.119200 11.540000
13.213000 1.088370 50.425200 -14.208000 11.370000
-14.855500 -1.370480 49.959000 -13.764000 11.140000
-2.733660 0.284520 52.497900 -14.474400 6.140000
-15.656300 -1.381800 50.165300 -13.675200 5.590000
-2.756070 0.286852 52.928200 -14.474400 9.250000
-15.776300 -2.212230 50.549900 -13.675200 10.310000
-2.367140 0.289185 53.378400 -14.474400 8.280000
13.524300 -2.849200 51.613100 -14.119200 6.300000
-15.215800 -2.230220 51.170700 -13.764000 7.990000
13.931500 -3.038500 51.940800 -14.119200 9.510000
-14.339800 -2.414630 51.862400 -13.852800 5.490000
-14.454600 -2.433940 52.277300 -13.852800 8.040000
35.004000 0.000000 45.377500 -11.810400 5.210000
14.853200 0.679639 56.684800 -14.208000 7.250000
14.962900 0.502072 57.103300 -14.208000 7.150000
15.071600 0.689633 57.518400 -14.208000 8.220000
15.200800 3.768850 61.375700 -14.208000 9.860000
15.328900 1.134030 61.893100 -14.208000 7.730000
15.536900 0.949482 62.732700 -14.208000 7.260000
15.254700 0.557043 63.693100 -14.208000 8.450000
15.355100 0.560708 64.112200 -14.208000 6.130000
16.367200 0.000000 66.085500 -14.208000 6.690000
15.668600 1.012780 67.132300 -14.208000 5.870000
15.767200 0.804572 67.554600 -14.208000 6.590000
16.257800 0.809569 67.881400 -14.208000 6.490000
16.061500 0.601020 68.815500 -14.208000 6.950000
16.747400 -0.398795 71.754300 -14.296800 12.370000
17.335300 0.000000 74.273100 -14.296800 8.850000
25.576000 0.743945 83.646800 -14.030400 16.970000
25.701900 0.747610 84.058900 -14.030400 20.980000
25.827900 0.751275 84.470900 -14.030400 15.540000
26.444700 0.480420 84.733400 -14.030400 15.890000
16.310500 1.084420 92.065400 -14.385600 18.970000
15.850700 1.089420 92.582800 -14.385600 11.260000
15.923500 1.094420 93.007500 -14.296800 10.180000
15.996200 1.099420 93.432200 -14.296800 18.190000
-13.531500 1.104410 94.256200 -14.296800 24.740000
-13.592700 1.109410 94.682700 -14.296800 26.110000
-13.091700 0.246874 105.624000 -14.385600 14.810000
-13.144700 0.247874 106.051000 -14.385600 10.770000
-13.197300 0.912524 106.475000 -14.385600 11.250000
-13.250600 0.583034 106.905000 -14.385600 9.940000
-13.303800 0.250872 107.334000 -14.385600 8.060000
-11.902100 0.251871 107.932000 -14.385600 12.930000
-11.949200 0.590030 108.359000 -14.385600 8.490000
-11.996200 0.930848 108.785000 -14.385600 9.250000
-12.674500 0.934513 109.142000 -14.385600 8.560000
-12.723800 1.279320 109.567000 -14.385600 7.150000
-11.725400 0.611019 112.284000 -14.385600 11.080000
-11.770200 0.613351 112.712000 -14.385600 6.530000
-11.814900 0.615683 113.141000 -14.385600 10.070000
-11.859700 0.618016 113.569000 -14.385600 12.140000
15.208700 3.301080 157.373000 -14.474400 11.960000
15.250100 3.310070 157.801000 -14.474400 9.060000
-6.805620 0.537672 4.519180 -7.015200 5.690000
-6.377070 0.321780 7.579670 -10.744800 5.160000
-6.593180 0.335770 7.960270 -10.833600 6.980000
-6.923070 0.399697 7.672030 -10.478400 7.310000
-7.134200 0.416351 8.060800 -10.567200 6.430000
8.509550 0.735762 7.249990 -9.412800 3.150000
-6.450570 1.037980 9.101040 -11.455200 4.490000
8.836840 0.764060 7.528830 -9.412800 6.220000
9.164130 0.792359 7.807680 -9.501600 6.020000
9.428470 0.405722 8.190960 -9.590400 2.920000
-6.360020 1.088160 11.201500 -12.254400 6.740000
-6.322250 1.196450 11.706000 -12.432000 5.460000
-6.364510 0.117272 12.231500 -12.609600 7.150000
-6.875910 1.160700 11.895600 -12.254400 7.310000
-6.563400 0.120937 12.613800 -12.609600 7.100000
-6.915580 0.758254 12.401600 -12.343200 7.000000
8.014620 1.304370 12.708900 -12.165600 6.610000
6.842710 1.305790 13.860300 -12.876000 5.710000
7.449870 0.179904 13.605200 -12.432000 7.160000
8.344120 1.341640 13.008100 -12.076800 7.690000
8.488240 1.238300 14.949800 -12.520800 5.410000
8.990280 1.245140 16.646100 -12.787200 8.100000
9.194600 1.273430 17.024400 -12.787200 3.530000
-5.893880 1.796500 18.385500 -13.497600 8.450000
9.408440 0.949819 17.420300 -12.787200 5.550000
-6.148970 1.179370 18.806600 -13.497600 8.400000
-9.459730 1.517470 17.842800 -12.609600 6.340000
-6.282640 1.205010 19.215400 -13.497600 9.600000
-9.661000 1.549760 18.222500 -12.609600 5.310000
-6.153950 1.055000 19.718300 -13.497600 5.420000
-9.250160 1.443220 19.881900 -12.964800 6.780000
-10.844800 0.713511 19.100300 -12.343200 4.960000
-5.102940 1.714380 21.306400 -13.764000 6.120000
-4.909520 1.748000 21.792300 -13.764000 4.680000
9.505560 -0.953237 20.743600 -13.053600 4.590000
10.942600 -1.570290 19.983800 -12.698400 6.180000
9.684910 -0.971223 21.135000 -13.053600 6.480000
11.149100 -1.599920 20.360900 -12.698400 8.580000
-5.582900 1.456310 22.541900 -13.764000 10.400000
9.699270 -0.915972 21.604400 -13.142400 7.800000
8.628200 -1.156300 22.505400 -13.497600 4.700000
-9.220590 1.252820 22.730300 -13.142400 3.810000
8.605460 -1.176950 22.974300 -13.497600 8.850000
10.408000 0.746845 23.183000 -13.231200 8.710000
-5.439910 0.982588 24.814800 -13.852800 15.580000
10.402300 0.759504 23.656800 -13.231200 18.570000
-5.532750 0.919338 25.238300 -13.764000 8.600000
10.760800 0.772162 23.968800 -13.231200 17.330000
-4.780460 1.097120 25.823200 -13.941600 8.740000
-9.175350 0.640279 25.082600 -13.320000 11.780000
-4.653030 1.507100 26.264300 -14.030400 6.420000
10.733000 0.566670 24.928400 -13.320000 6.800000
-4.572050 1.699020 26.704900 -14.030400 7.970000
10.903300 0.575665 25.324100 -13.320000 6.490000
-4.644620 1.725990 27.128800 -14.030400 6.770000
11.074400 0.498053 25.721300 -13.320000 9.050000
-4.717190 1.752960 27.552700 -14.030400 6.640000
11.406900 -2.393940 25.941300 -13.231200 8.230000
10.645400 -0.521040 27.294000 -13.497600 5.000000
-21.585800 0.567015 23.462500 -10.389600 14.520000
-18.621900 -1.021300 25.330700 -11.277600 7.080000
-8.899870 1.626470 30.576200 -13.586400 9.750000
10.501900 1.648440 30.519100 -13.586400 6.400000
10.641900 1.670420 30.926000 -13.586400 5.900000
18.784300 1.195140 27.845400 -11.988000 7.240000
19.022900 1.315670 28.199200 -11.988000 5.940000
19.043000 1.332320 28.703800 -12.165600 10.250000
19.045900 1.780320 29.194100 -12.254400 9.660000
-3.865320 2.211430 35.052100 -14.119200 4.850000
-3.912460 2.238400 35.479500 -14.119200 7.090000
11.114500 -0.082958 33.993700 -13.675200 12.360000
-17.869600 0.531710 31.472500 -12.254400 10.200000
11.018400 2.712070 34.370900 -13.675200 7.290000
19.535200 0.538040 30.977200 -12.343200 11.230000
11.149500 2.744360 34.780100 -13.675200 10.950000
12.996600 -0.658963 34.697300 -13.586400 11.160000
-3.316630 1.878990 39.026200 -14.119200 7.970000
-8.702610 1.899640 38.629100 -13.852800 6.220000
-8.804280 1.053340 39.080400 -13.852800 5.570000
-8.898950 1.064670 39.500600 -13.852800 5.020000
-16.471800 -1.075990 37.459800 -12.876000 6.690000
-3.534340 2.228810 41.587900 -14.119200 5.710000
-17.787900 -2.251780 38.232700 -12.787200 6.810000
-3.245090 2.642920 42.020300 -14.119200 4.930000
19.956000 2.175950 37.640700 -12.787200 7.580000
-3.032770 2.669890 42.467300 -14.208000 5.880000
20.157600 2.197930 38.020900 -12.787200 6.690000
-7.774660 1.781980 45.411100 -13.941600 7.300000
-16.906500 -0.971435 43.346700 -13.231200 6.150000
-7.847330 1.798640 45.835500 -14.030400 6.340000
-15.876800 -0.980429 44.192400 -13.320000 5.710000
-16.277900 -1.245890 44.498800 -13.320000 6.710000
-7.432180 1.257210 47.232200 -14.030400 11.230000
-15.959900 -1.417740 45.523400 -13.320000 8.200000
-7.499140 1.268540 47.657700 -14.030400 10.510000
-7.843910 1.279870 48.038700 -14.030400 8.600000
13.433400 0.614673 51.266400 -13.941600 8.100000
-3.084220 2.230220 53.295900 -14.208000 9.530000
13.542600 0.619670 51.683200 -13.941600 9.040000
-2.798480 2.248200 53.742700 -14.208000 10.660000
13.651800 0.624668 52.100000 -13.941600 5.820000
-14.708200 -0.898843 59.386900 -13.764000 12.490000
33.181200 0.542384 54.458600 -12.432000 11.670000
33.403000 0.943152 54.822600 -12.432000 7.100000
33.627100 0.949482 55.190600 -12.432000 10.660000
15.537500 0.749601 62.735200 -13.941600 6.910000
15.640400 0.955812 63.150900 -13.941600 7.150000
15.455700 0.359149 64.532600 -14.030400 8.420000
15.554700 0.981132 64.945600 -13.941600 6.530000
15.655000 0.987462 65.364600 -13.941600 9.010000
15.755400 0.993791 65.783600 -13.941600 10.880000
16.365500 1.000120 66.078400 -13.941600 8.650000
16.157400 0.804572 67.462300 -14.030400 7.190000
16.256300 1.241300 67.875200 -13.941600 10.730000
16.355700 1.466150 68.290100 -14.030400 9.970000
16.456000 1.475140 68.709000 -14.030400 16.070000
16.557300 1.264290 69.132100 -14.030400 18.010000
16.657700 1.271950 69.551100 -14.030400 10.180000
15.777300 -0.854546 71.969900 -14.030400 17.660000
16.759500 17.761600 69.976100 -14.030400 20.880000
17.358300 18.535600 70.087000 -14.030400 20.270000
17.458600 18.642800 70.492100 -14.030400 18.480000
17.726800 -0.422116 75.950500 -14.030400 21.690000
26.443300 1.029450 84.728900 -13.764000 6.930000
26.571700 1.034450 85.140200 -13.764000 6.860000
26.205100 1.039450 85.704400 -13.764000 12.190000
16.460200 1.386240 92.910100 -14.119200 13.740000
16.535300 1.392570 93.334400 -14.119200 11.920000
16.610500 1.398900 93.758600 -14.119200 7.400000
16.684800 1.701040 94.178100 -14.119200 6.900000
-13.103400 1.411560 95.182600 -14.030400 8.540000
-13.162200 1.417890 95.609500 -14.030400 6.850000
-13.220900 1.424220 96.036300 -14.030400 7.900000
-10.984000 0.618016 113.657000 -14.119200 11.270000
-11.025600 0.265864 114.088000 -14.119200 9.160000
-11.067000 0.266864 114.516000 -14.119200 8.200000
-11.108100 0.982155 114.942000 -14.119200 13.000000
24.032800 -8.279370 129.821000 -14.030400 9.650000
23.102000 -8.715950 130.400000 -14.030400 11.970000
23.177000 -8.744240 130.823000 -14.030400 10.020000
15.292500 2.827410 158.240000 -14.208000 4.750000
15.333900 2.835070 158.669000 -14.208000 9.560000
15.374500 3.337060 159.088000 -14.208000 13.320000
-6.532720 0.395683 6.858110 -10.212000 4.670000
-6.760270 0.413669 7.235310 -10.300800 6.450000
-7.306170 0.870525 7.267100 -9.945600 3.670000
7.966270 0.906797 7.194650 -9.679200 3.120000
-7.172240 1.196910 7.948150 -10.478400 3.900000
8.153740 0.666600 7.654300 -9.945600 3.730000
8.512860 0.666600 7.252800 -9.501600 4.630000
8.840270 0.692238 7.531750 -9.501600 7.590000
9.017120 0.680625 7.987330 -9.679200 6.190000
-6.069790 0.516275 11.888000 -12.520800 4.050000
-6.677080 0.640095 11.551600 -12.165600 4.310000
-6.262110 0.703336 12.264700 -12.520800 6.420000
-10.691500 1.273640 9.288180 -9.679200 3.170000
-6.457800 0.725316 12.647900 -12.520800 4.430000
-6.917470 0.681392 12.405000 -12.254400 3.930000
-11.015400 1.312240 9.569640 -9.679200 7.210000
-6.555090 0.725316 12.597800 -12.520800 4.480000
7.789670 1.176800 12.352200 -12.165600 4.640000
-11.244000 1.350830 9.959890 -9.856800 6.890000
7.343040 0.361448 13.168200 -12.520800 8.030000
-11.565300 1.389430 10.244500 -9.856800 3.360000
-6.674020 0.396419 13.518600 -12.698400 10.220000
-5.884430 5.901730 15.087200 -13.320000 6.560000
-6.031540 6.049270 15.464400 -13.320000 7.120000
-5.499410 1.602510 17.621000 -13.497600 4.170000
8.888830 0.887874 16.233100 -12.787200 6.820000
-5.627310 1.639780 18.030800 -13.497600 4.480000
-5.652470 1.512690 18.486600 -13.497600 7.920000
-9.634700 1.240560 17.277800 -12.520800 9.380000
-5.775180 1.668510 18.887900 -13.497600 9.390000
-9.605160 1.267520 17.784500 -12.520800 10.750000
-5.490390 1.704780 19.419200 -13.675200 7.870000
-9.816000 1.055000 18.174900 -12.520800 9.180000
-6.290300 1.788850 19.622100 -13.497600 5.580000
-9.252510 0.991115 18.471700 -12.787200 7.460000
-9.437600 1.321460 18.841200 -12.787200 8.070000
-9.626280 1.481410 19.217900 -12.787200 5.420000
-9.131180 1.578830 19.926600 -12.964800 5.260000
-9.310230 1.609790 20.317300 -12.964800 5.260000
-5.304310 1.711190 22.147200 -13.764000 5.540000
11.139400 -1.869030 20.343200 -12.698400 5.890000
9.288180 -2.996130 21.123000 -13.142400 8.580000
11.018100 -1.958680 20.400800 -12.787200 7.660000
10.157200 -0.769473 21.398700 -13.231200 8.160000
11.695400 -0.769473 20.598300 -12.876000 7.230000
11.061700 -1.994950 20.864400 -12.787200 9.030000
9.064900 -0.858049 22.346500 -13.408800 10.370000
10.666900 -1.286730 21.606400 -13.053600 9.680000
11.262800 -2.031220 21.243800 -12.787200 8.050000
-5.150060 1.795540 24.389800 -13.941600 6.660000
10.055600 0.734187 22.868200 -13.231200 16.190000
-9.390530 0.734187 23.149300 -13.142400 16.340000
-5.763490 1.826490 24.693700 -13.941600 6.610000
10.229800 0.668249 23.264500 -13.231200 16.370000
-4.993270 1.318760 25.332900 -13.941600 7.730000
10.405200 0.459742 23.663300 -13.231200 11.590000
-5.424230 1.259540 25.688300 -13.941600 6.880000
-8.885710 0.467404 24.733000 -13.320000 6.770000
-5.711680 1.507100 26.054500 -13.941600 4.690000
10.033700 1.115110 24.734900 -13.408800 6.060000
10.195600 1.133090 25.133800 -13.408800 8.360000
-4.639560 2.151380 27.099300 -14.030400 6.300000
10.551000 1.321490 25.445100 -13.408800 8.270000
-4.712050 2.185000 27.522700 -14.030400 6.630000
10.014900 1.342140 26.122300 -13.497600 6.800000
11.773400 -2.674790 26.224500 -13.142400 8.870000
10.058700 -1.132470 27.497300 -13.586400 5.360000
-20.490200 0.733223 22.706900 -10.389600 5.130000
10.637800 -0.965339 27.747100 -13.497600 5.040000
-20.778800 0.743550 23.026700 -10.389600 5.680000
-21.067400 0.753877 23.346500 -10.389600 6.920000
-21.354700 0.838143 23.664900 -10.389600 6.680000
10.799500 1.118530 29.522500 -13.586400 6.590000
10.947400 1.133850 29.927000 -13.586400 16.840000
11.091200 1.448780 30.320100 -13.586400 7.770000
18.917900 1.468090 26.691100 -11.899200 10.730000
19.045900 1.780320 29.194100 -12.254400 7.900000
19.278700 1.884150 29.550900 -12.254400 8.310000
-4.067880 2.211430 35.029100 -14.119200 9.250000
19.513800 1.907120 29.911300 -12.254400 6.180000
-3.912460 2.238400 35.479500 -14.119200 6.330000
-17.359500 1.930100 31.702400 -12.343200 7.080000
-18.592400 -0.531710 31.050900 -12.076800 11.040000
-3.751970 2.265360 35.929300 -14.119200 6.850000
19.297200 -0.311504 31.129100 -12.432000 10.270000
-18.813800 -0.538040 31.420600 -12.076800 7.690000
19.524900 -0.085956 31.496400 -12.432000 8.540000
11.040200 -0.085956 35.374500 -13.764000 13.170000
19.752000 0.000000 31.862700 -12.432000 11.380000
11.168500 -0.086956 35.785900 -13.764000 9.720000
9.820590 -0.908783 36.614100 -13.941600 8.430000
10.714800 -0.919110 36.811400 -13.852800 13.470000
-3.727220 1.618700 38.567500 -14.208000 8.110000
-30.501800 0.464753 25.987000 -9.146400 8.430000
-3.768630 1.636690 38.996000 -14.208000 7.860000
-30.828500 0.595009 26.265400 -9.146400 5.790000
-8.708030 1.287120 38.653100 -13.941600 7.970000
-30.899300 0.601339 26.843700 -9.235200 7.980000
-8.802680 1.301110 39.073300 -13.852800 6.470000
-16.893700 -1.424970 36.310800 -12.787200 9.000000
-8.898180 1.189890 39.497200 -13.852800 6.100000
-17.639100 -1.440300 36.433700 -12.787200 9.350000
-8.992840 1.202550 39.917400 -13.852800 5.370000
-17.979200 -2.971920 37.136200 -12.698400 7.580000
-16.890700 -3.227070 37.622700 -12.876000 6.020000
-18.148900 -3.518370 37.486700 -12.698400 7.610000
-15.978300 -2.615960 38.533900 -13.053600 7.710000
-15.842500 -2.642920 39.054500 -13.053600 5.490000
-16.004200 -2.669890 39.453000 -13.142400 9.240000
23.310600 -1.074020 38.258600 -12.432000 5.880000
-7.355050 1.765330 45.044700 -14.030400 8.230000
-7.423510 1.924460 45.464000 -14.030400 8.590000
-15.385000 -1.798640 43.883700 -13.320000 6.560000
-15.271200 -1.815290 44.379000 -13.320000 4.940000
-15.409400 -1.978420 44.780600 -13.320000 10.380000
-7.705080 1.257210 47.188500 -14.030400 13.750000
-15.547400 -2.144190 45.181600 -13.320000 11.960000
-7.774500 1.268540 47.613600 -14.030400 9.880000
-15.687500 -2.163510 45.588700 -13.320000 6.880000
-7.843910 1.279870 48.038700 -14.030400 6.080000
12.929900 1.097360 50.943100 -13.941600 11.440000
13.431400 1.106360 51.258600 -13.941600 7.620000
-2.778070 0.950133 53.350900 -14.208000 8.920000
13.540600 1.115350 51.675400 -13.941600 6.700000
-2.800480 0.957795 53.781100 -14.208000 5.740000
13.246200 1.415780 52.189100 -13.941600 7.000000
-2.404520 1.427110 54.221400 -14.208000 8.780000
-2.423610 1.438430 54.651700 -14.208000 9.510000
34.710700 0.317170 47.215600 -11.810400 8.090000
34.966300 0.136930 47.563300 -11.810400 5.800000
35.221700 0.000000 47.910600 -11.810400 5.750000
15.288700 1.072730 58.346700 -13.941600 9.780000
15.639600 1.157020 63.147700 -14.030400 8.270000
15.743200 1.164680 63.565900 -14.030400 6.470000
15.455400 0.564372 64.531200 -14.030400 8.040000
16.053000 1.394190 64.816600 -14.030400 9.570000
16.365500 1.000120 66.078400 -14.030400 7.480000
16.677400 0.590026 67.337900 -14.030400 8.270000
17.171900 0.809569 67.655900 -14.030400 10.120000
15.960700 1.466150 68.383500 -14.030400 9.220000
16.058600 1.475140 68.803000 -14.030400 7.150000
16.156500 1.484140 69.222600 -14.030400 18.320000
16.255400 1.271950 69.646200 -14.030400 17.470000
15.811900 1.502130 70.185600 -14.030400 7.680000
26.439400 1.852920 84.716100 -13.852800 19.990000
26.569300 1.586110 85.132500 -13.852800 9.190000
26.202700 1.593770 85.696600 -13.852800 10.650000
26.328700 1.601430 86.108600 -13.852800 10.290000
16.460800 1.094420 92.913900 -14.119200 11.160000
16.536000 1.099420 93.338200 -14.119200 10.300000
16.611200 1.104410 93.762400 -14.119200 9.010000
-13.713900 1.716370 95.527000 -14.030400 8.040000
-13.775800 1.424220 95.958300 -14.030400 6.570000
-12.137800 0.941842 110.070000 -14.119200 14.040000
-12.185100 0.945507 110.498000 -14.119200 13.570000
-12.232300 0.949172 110.927000 -14.119200 8.550000
-11.635600 0.952837 111.424000 -14.119200 5.450000
-11.859400 0.971160 113.567000 -14.208000 11.120000
-11.904200 0.974825 113.995000 -14.119200 12.010000
-11.948900 0.978490 114.424000 -14.119200 9.520000
-11.993700 0.982155 114.852000 -14.119200 7.710000
-54.229200 -13.568000 116.558000 -12.698400 8.450000
-54.410000 -13.613300 116.947000 -12.698400 5.960000
24.037400 -7.871000 129.846000 -14.119200 4.730000
22.356500 -7.896640 130.582000 -14.119200 7.430000
15.333000 3.328060 158.659000 -14.296800 11.740000
15.374500 3.337060 159.088000 -14.208000 11.080000
-6.983800 0.742981 7.591000 -10.389600 6.010000
-6.734740 1.387100 8.292530 -10.922400 5.760000
-7.198270 0.773938 7.977010 -10.478400 5.170000
-6.469420 1.254840 8.521660 -11.277600 4.060000
-7.004130 1.442580 8.624230 -11.011200 4.570000
8.147100 0.804896 7.648070 -10.034400 3.940000
-6.659690 1.305030 8.914120 -11.366400 3.850000
8.399950 0.413702 8.039070 -10.212000 5.040000
8.630340 0.429024 8.420350 -10.300800 5.190000
9.022170 0.444347 8.634550 -10.212000 4.530000
-6.548600 0.579510 11.130500 -12.165600 6.190000
-6.588800 0.598827 11.604400 -12.343200 9.570000
-6.802250 0.575540 11.980400 -12.343200 3.750000
-6.325070 1.656390 12.627300 -12.698400 8.980000
-6.516740 1.706580 13.010000 -12.698400 8.050000
-5.940090 1.350830 13.796500 -12.964800 5.510000
-6.112700 1.305790 14.197300 -12.964800 5.200000
7.635870 1.210150 13.448600 -12.520800 4.420000
8.770970 -0.407745 12.788200 -12.076800 5.700000
-6.085120 1.342060 14.675100 -13.142400 5.950000
7.847980 1.243770 13.822100 -12.520800 6.490000
9.014610 -0.419072 13.143400 -12.076800 7.130000
7.368260 -2.359220 14.431100 -12.787200 10.340000
-6.172100 1.582400 16.477900 -13.320000 7.030000
-6.322640 1.621000 16.879800 -13.320000 14.000000
-6.149200 1.522910 17.869900 -13.497600 6.110000
9.480960 0.732777 16.402500 -12.698400 14.610000
-9.837290 1.420610 16.145500 -12.254400 4.520000
-5.755200 1.677050 18.440600 -13.586400 11.910000
-10.060900 1.452900 16.512400 -12.254400 4.510000
-5.879820 1.836430 18.839900 -13.586400 7.910000
-10.286800 1.424050 16.883200 -12.254400 11.710000
-6.162440 1.626750 19.223300 -13.586400 14.690000
-9.692350 1.704780 17.700500 -12.520800 10.260000
-5.494230 1.661360 19.870800 -13.675200 7.610000
-9.789290 1.852570 18.125500 -12.609600 9.360000
-5.609720 1.647150 20.288500 -13.675200 4.690000
-10.523800 1.891160 18.206600 -12.432000 7.260000
-5.724210 1.680770 20.702500 -13.764000 7.160000
-9.214820 1.547880 19.413400 -13.053600 7.370000
-5.837620 1.765200 21.112700 -13.675200 6.350000
-9.399110 1.578830 19.801600 -13.053600 4.160000
10.929700 -1.922410 19.960100 -12.787200 8.130000
9.528530 -0.413767 21.224100 -13.320000 5.340000
11.135900 -1.958680 20.336700 -12.787200 8.870000
10.892300 -2.195730 20.933300 -12.876000 4.260000
11.501400 -1.994950 20.625300 -12.698400 9.690000
10.928900 -2.161330 21.404800 -12.964800 5.740000
9.098280 0.588644 22.806400 -13.497600 10.280000
11.124000 -2.199930 21.787000 -12.964800 6.750000
10.056500 0.656923 22.870200 -13.320000 10.170000
-5.244060 1.434170 24.835000 -13.941600 8.280000
10.229800 0.668249 23.264500 -13.320000 8.150000
-5.332940 1.458480 25.255900 -13.941600 10.340000
10.403200 0.679576 23.658800 -13.320000 9.890000
-10.199900 1.777690 23.690300 -13.053600 10.180000
-4.777010 1.482790 25.804600 -14.030400 11.040000
10.576600 0.690902 24.053100 -13.320000 16.650000
-4.856150 1.424600 26.232100 -14.030400 18.430000
-4.934470 1.447580 26.655200 -14.030400 15.750000
10.195600 1.133090 25.133800 -13.497600 8.260000
10.357400 1.151080 25.532800 -13.497600 5.340000
10.496300 -2.185000 25.875300 -13.497600 5.590000
10.657800 -2.218610 26.273300 -13.497600 7.250000
10.647000 0.158585 27.297900 -13.586400 8.480000
10.803500 0.160917 27.699400 -13.586400 10.600000
11.176400 -0.163249 28.015500 -13.586400 9.870000
10.119600 -0.638628 28.864700 -13.675200 5.510000
10.487400 -0.647623 29.191300 -13.675200 8.910000
18.924900 1.582510 24.533300 -11.721600 9.450000
18.647500 2.122390 26.309500 -11.988000 7.810000
10.815400 1.948520 30.849400 -13.675200 5.440000
18.896100 2.150690 26.660300 -11.988000 10.110000
18.983300 1.792240 27.677900 -12.165600 7.090000
19.010000 1.815210 28.180100 -12.165600 10.810000
19.030200 1.838190 28.684400 -12.254400 7.730000
19.033400 2.184460 29.174800 -12.343200 10.890000
19.272000 2.102350 29.540600 -12.343200 5.500000
-3.863750 2.429510 35.037800 -14.208000 6.110000
19.047200 2.017570 30.203400 -12.432000 10.530000
-3.910870 2.459140 35.465100 -14.208000 10.900000
11.246700 -0.643638 34.397900 -13.764000 6.480000
11.381200 -0.538040 34.809200 -13.764000 8.290000
19.030300 1.953080 31.233500 -12.609600 11.490000
-17.125900 -2.179270 32.302600 -12.432000 13.020000
11.516100 -0.200564 35.222000 -13.764000 8.090000
-17.333400 1.976060 32.694000 -12.520800 6.040000
11.443900 -0.202896 35.698300 -13.764000 6.350000
9.818240 -1.231160 36.605400 -14.030400 10.710000
11.777900 -1.231160 36.022600 -13.764000 10.510000
9.708110 -1.956150 37.049400 -14.030400 6.900000
-30.248800 0.588679 26.278600 -9.235200 12.960000
-30.574100 0.595009 26.561200 -9.235200 9.600000
-30.899300 0.601339 26.843700 -9.235200 8.840000
-16.693600 -1.109970 38.772600 -13.053600 9.120000
11.918700 1.022380 40.947500 -13.941600 12.430000
12.279800 1.053360 42.188300 -13.941600 5.830000
-8.182720 2.395740 46.187700 -14.030400 7.530000
-17.550000 -1.831940 43.992100 -13.142400 8.650000
-7.773830 1.417740 47.609500 -14.119200 6.210000
-14.988500 -1.716100 45.842200 -13.497600 6.490000
-7.842490 1.580920 48.030000 -14.119200 6.980000
-17.068800 -1.731420 45.569100 -13.320000 8.010000
-16.544500 -0.117940 48.079100 -13.497600 8.200000
-2.367170 -0.123937 53.379000 -14.296800 10.190000
-2.386260 0.000000 53.809600 -14.296800 7.560000
-15.958500 -1.250270 57.716400 -13.852800 11.270000
14.839300 0.886183 58.465700 -14.030400 6.640000
-12.915100 -1.259270 58.913800 -13.852800 10.280000
14.945300 0.892513 58.883300 -14.030400 7.110000
34.540000 0.531390 52.062600 -12.254400 6.320000
13.246200 0.968472 64.576000 -14.208000 9.980000
15.554700 0.981132 64.945600 -14.119200 5.600000
-17.940700 6.684330 64.885700 -13.675200 5.900000
-18.055000 6.726910 65.298900 -13.675200 8.510000
15.854900 1.210650 66.199300 -14.119200 8.380000
15.955300 1.218320 66.618200 -14.119200 6.470000
16.156800 1.019110 67.459600 -14.119200 5.640000
16.256300 1.241300 67.875200 -14.119200 7.210000
16.059500 1.256630 68.807100 -14.119200 10.230000
16.059500 1.256630 68.807100 -14.119200 8.340000
16.157500 1.264290 69.226700 -14.119200 9.530000
16.658500 1.050760 69.554600 -14.119200 7.540000
16.646100 1.529110 71.320200 -14.119200 7.480000
16.649100 0.623008 71.333200 -14.119200 11.490000
16.747000 0.626673 71.752800 -14.119200 10.310000
17.361000 1.095070 72.487600 -14.119200 8.620000
16.628200 5.214560 73.809000 -14.119200 9.840000
16.460200 1.386240 92.910100 -14.208000 24.930000
16.534500 1.685720 93.329700 -14.208000 22.500000
16.608600 1.987840 93.748300 -14.208000 14.520000
-13.042300 2.292610 94.738800 -14.208000 8.210000
16.683800 1.996840 94.172500 -14.208000 6.650000
-13.650900 2.302940 95.088200 -14.119200 10.080000
-13.772600 2.548410 95.935400 -14.119200 10.950000
-10.652600 0.000000 110.228000 -14.208000 12.040000
-10.054200 0.000000 110.717000 -14.208000 12.250000
-10.942300 0.967496 113.226000 -14.208000 11.410000
-10.983800 0.971160 113.655000 -14.208000 9.040000
-11.025400 0.620348 114.086000 -14.208000 7.240000
-11.066900 0.622680 114.515000 -14.208000 8.220000
15.289600 4.179390 158.210000 -14.296800 6.750000
15.332000 3.821020 158.648000 -14.296800 11.370000
15.373400 3.831350 159.077000 -14.296800 13.660000
-6.241860 1.420130 8.664240 -11.544000 2.910000
-6.421900 1.476930 9.060580 -11.544000 2.870000
-6.717310 1.720000 11.417200 -12.343200 4.010000
-6.805250 0.405069 11.985600 -12.432000 7.470000
8.465650 1.648540 10.758500 -11.721600 3.070000
-6.365060 0.461684 12.707200 -12.698400 7.610000
-7.017910 0.417727 12.360200 -12.432000 7.120000
-6.623170 1.582760 12.971800 -12.698400 7.620000
-6.855740 0.396419 13.427300 -12.698400 5.660000
-7.154090 0.647482 13.749000 -12.698400 7.750000
-6.751900 0.743336 13.946100 -12.876000 6.990000
-7.461510 0.665468 14.073800 -12.609600 6.920000
7.049720 0.763985 14.279600 -12.876000 5.200000
9.153930 -0.430398 13.569600 -12.343200 8.990000
-6.153730 0.341801 15.170000 -13.231200 4.450000
9.285520 -0.545626 13.996200 -12.343200 9.240000
-6.435480 0.350796 15.520100 -13.231200 8.250000
9.301210 -0.559617 14.500100 -12.254400 5.110000
-6.600040 0.413083 15.916900 -13.231200 9.840000
-6.639550 0.368785 16.367600 -13.231200 7.440000
-5.501290 1.856210 18.500900 -13.764000 6.460000
-10.135900 1.897460 16.927800 -12.432000 11.720000
-5.515740 1.836430 18.949700 -13.764000 6.250000
-6.281280 1.714310 18.721500 -13.497600 5.210000
-10.356300 1.938700 17.295800 -12.432000 10.100000
-5.375510 1.813970 19.441400 -13.852800 5.910000
-5.899550 1.751580 19.294600 -13.675200 6.130000
-5.336690 1.852570 19.896800 -13.852800 6.530000
-6.138880 1.788850 19.670000 -13.675200 5.710000
-5.449360 1.826120 20.316900 -13.852800 4.050000
-5.563450 1.730580 20.742200 -13.852800 5.010000
-10.956300 1.900650 18.954900 -12.520800 5.230000
-11.171100 1.937920 19.326500 -12.520800 6.150000
-5.495520 1.748000 21.652000 -13.941600 8.960000
-5.601210 1.781610 22.068400 -13.941600 7.980000
9.349520 -0.670895 20.825400 -13.408800 9.750000
9.525920 -0.683553 21.218300 -13.408800 10.230000
11.663800 -1.903640 20.542600 -12.787200 8.180000
8.602990 -1.062440 22.057300 -13.497600 7.710000
10.480800 -1.062440 21.229500 -13.142400 9.500000
11.663800 -1.903640 20.542600 -12.787200 8.530000
9.056190 -1.361250 22.325100 -13.586400 7.760000
10.671400 -1.081750 21.615400 -13.142400 11.810000
12.087900 -1.972870 21.289600 -12.787200 5.960000
9.884330 0.512702 22.478800 -13.408800 14.600000
10.861900 -1.101070 22.001400 -13.142400 10.640000
10.056500 0.656923 22.870200 -13.408800 17.890000
-5.243120 1.512670 24.830500 -14.030400 6.560000
10.229800 0.668249 23.264500 -13.408800 16.890000
-10.021200 2.042090 23.275300 -13.142400 8.290000
-5.526440 1.538310 25.209500 -14.030400 6.700000
10.217600 0.919338 23.731500 -13.497600 11.470000
-10.191100 2.076700 23.669800 -13.142400 8.740000
-9.214120 0.934660 24.599200 -13.408800 7.830000
-4.854450 1.589580 26.222900 -14.119200 7.940000
-4.932750 1.615220 26.645900 -14.119200 5.080000
-4.802270 1.640860 27.106600 -14.119200 4.380000
10.491200 -3.212380 25.301000 -13.586400 8.450000
-12.862100 2.555030 24.260300 -12.964800 5.240000
10.317500 -3.025870 25.862500 -13.586400 8.130000
10.059800 -1.041920 27.500500 -13.764000 5.940000
18.920500 2.044340 22.843700 -11.455200 13.690000
10.047300 -0.965339 27.966400 -13.764000 9.840000
19.186200 2.260060 23.164400 -11.455200 12.820000
-20.709400 0.638628 22.510000 -10.478400 10.880000
10.193000 -0.979329 28.371700 -13.764000 7.580000
-21.001100 0.647623 22.827000 -10.478400 9.930000
-9.181300 1.871610 30.027700 -13.764000 15.040000
-9.072190 1.897250 30.509900 -13.764000 9.560000
18.857000 1.922880 26.175100 -11.988000 9.590000
-9.199120 1.648440 30.936700 -13.764000 7.360000
19.108400 1.948520 26.524100 -11.988000 8.900000
-9.140400 1.670420 31.402600 -13.764000 9.550000
-18.111300 2.103550 28.234700 -11.988000 9.240000
-4.067070 2.320480 35.022200 -14.296800 4.340000
10.655000 -0.082958 34.140500 -13.941600 4.710000
-18.107300 0.951406 31.326400 -12.343200 6.260000
-4.649770 2.377080 35.816900 -14.296800 5.990000
10.783400 -0.083957 34.551900 -13.941600 9.630000
10.911400 -0.311504 34.962000 -13.941600 9.290000
9.875380 -0.315169 35.715900 -14.030400 9.000000
12.809600 -1.582730 35.654900 -13.764000 10.190000
11.191500 -2.400210 36.602200 -13.941600 8.490000
10.427300 -2.575170 37.712200 -14.030400 5.270000
-30.248800 0.588679 26.278600 -9.235200 7.950000
-30.572500 0.720262 26.559800 -9.235200 8.460000
-30.897800 0.727924 26.842400 -9.235200 7.930000
-16.764700 -0.474748 37.342100 -12.964800 7.420000
-18.306900 -0.991400 37.081700 -12.698400 8.750000
-18.497600 -1.001730 37.468000 -12.698400 5.380000
-18.688300 -1.012050 37.854200 -12.698400 6.340000
19.483600 -1.240520 37.444200 -12.964800 11.330000
20.844100 -1.012050 36.711300 -12.787200 10.200000
11.915800 1.385050 40.937700 -14.030400 6.490000
19.099800 -1.022380 38.130700 -13.142400 7.220000
19.973400 -1.253180 37.673500 -12.964800 8.100000
12.034900 1.532230 41.346800 -14.030400 9.300000
18.771500 -1.032710 38.772600 -13.231200 7.390000
20.175100 -1.265840 38.054000 -12.964800 6.560000
-7.702000 1.765330 44.986700 -14.208000 7.270000
-8.037030 1.781980 45.365400 -14.119200 8.040000
-16.736700 -2.066920 42.911500 -13.320000 7.150000
-6.875650 1.510960 46.001700 -14.208000 8.110000
-15.971400 -2.086240 43.660900 -13.408800 6.630000
-6.939320 1.524960 46.427600 -14.208000 7.710000
-16.119300 -2.105550 44.065200 -13.408800 9.940000
-8.068550 1.257210 47.127700 -14.208000 9.790000
-15.204400 -1.700770 45.317000 -13.586400 7.840000
-8.141710 1.156630 47.555000 -14.208000 9.450000
-2.343920 3.153530 52.854900 -14.385600 8.380000
-2.362060 3.509020 53.263900 -14.385600 6.150000
-2.381110 3.537320 53.693500 -14.385600 8.040000
13.033800 -2.895150 52.626100 -14.119200 6.450000
13.137200 -2.918130 53.043800 -14.119200 6.090000
12.518400 -2.941110 53.635200 -14.119200 7.090000
15.180200 0.879853 57.932800 -14.119200 9.260000
15.290100 0.699628 58.352000 -14.119200 5.370000
15.743200 1.164680 63.565900 -14.119200 7.120000
16.054700 0.981132 64.823800 -14.119200 5.460000
16.157500 1.195330 65.238700 -14.119200 6.610000
16.261900 0.993791 65.660200 -14.119200 10.170000
16.363700 1.421170 66.071100 -14.119200 11.030000
15.955300 1.218320 66.618200 -14.208000 9.050000
16.570800 1.439160 66.907500 -14.119200 11.080000
15.767700 0.590026 67.556700 -14.119200 19.150000
16.258300 0.593690 67.883500 -14.119200 15.660000
16.356700 1.248960 68.294200 -14.208000 18.160000
16.457800 1.038100 68.716600 -14.208000 19.890000
16.558200 1.044430 69.135600 -14.208000 16.190000
16.658500 1.050760 69.554600 -14.208000 14.080000
16.095900 -1.529110 71.446400 -14.208000 10.900000
16.744000 -1.538100 71.739700 -14.208000 21.990000
16.845500 -0.171912 72.174800 -14.119200 25.450000
15.962900 0.000000 72.816500 -14.208000 24.430000
15.490200 -0.173911 73.358800 -14.208000 18.380000
16.147200 -0.408123 73.657300 -14.208000 10.860000
16.667400 -0.410456 73.983100 -14.119200 8.830000
16.840100 3.438430 74.749600 -14.208000 10.900000
16.460800 1.094420 92.913900 -14.296800 9.830000
15.996200 1.099420 93.432200 -14.296800 8.920000
16.068900 1.104410 93.856900 -14.296800 9.820000
16.140100 1.701040 94.273000 -14.296800 8.260000
-13.102700 1.708710 95.177800 -14.208000 9.400000
-13.161500 1.716370 95.604600 -14.208000 7.920000
-13.219500 2.023820 96.025700 -14.208000 8.510000
-10.652200 -0.941842 110.224000 -14.296800 14.260000
-10.053800 -0.945507 110.713000 -14.296800 13.430000
-10.092800 -0.949172 111.142000 -14.296800 6.780000
-10.983800 0.971160 113.655000 -14.296800 11.750000
-11.025200 0.974825 114.084000 -14.296800 12.480000
-11.066700 0.978490 114.513000 -14.296800 8.870000
-11.108100 0.982155 114.942000 -14.296800 5.710000
-54.392000 -14.012100 116.908000 -12.787200 6.540000
-54.572700 -14.058700 117.296000 -12.787200 7.170000
-54.053800 -14.506600 117.959000 -12.787200 6.740000
-54.232100 -14.554500 118.348000 -12.787200 5.450000
15.290500 3.810690 158.219000 -14.385600 8.820000
15.332000 3.821020 158.648000 -14.385600 6.930000
15.372500 4.202040 159.068000 -14.385600 13.210000
-6.591950 0.433703 11.610000 -12.520800 4.200000
-6.712030 0.447693 12.036600 -12.520800 7.130000
-6.155840 1.623620 12.714900 -12.787200 3.840000
-6.925430 0.000000 12.419300 -12.520800 6.300000
-6.443160 1.672820 13.051000 -12.876000 3.840000
7.769180 1.582760 12.319700 -12.432000 4.260000
-6.674020 0.396419 13.518600 -12.876000 10.320000
8.095190 1.629320 12.620000 -12.343200 6.760000
-6.864710 0.407745 13.904800 -12.876000 11.730000
8.630000 1.580450 12.793000 -12.165600 4.120000
-6.068980 1.771430 14.636200 -13.231200 4.920000
-7.054780 0.468361 14.289800 -12.876000 8.860000
8.654360 -1.820430 13.265600 -12.520800 6.660000
7.442740 0.481019 14.577000 -12.964800 4.270000
9.028810 1.176390 13.609200 -12.432000 9.790000
9.266410 1.207340 13.967400 -12.432000 8.910000
-6.067220 0.464377 16.585900 -13.320000 5.690000
-6.764640 0.464377 16.313900 -13.320000 4.140000
-5.866660 1.565240 17.048800 -13.586400 6.700000
-6.215990 0.377780 16.992600 -13.320000 3.690000
-5.871630 1.602510 17.500500 -13.586400 6.230000
-6.009370 1.595960 17.911100 -13.586400 5.050000
-6.144730 1.677050 18.314500 -13.675200 5.560000
-10.306600 1.632230 16.343300 -12.254400 7.030000
0.495279 1.362900 19.768300 0.888000 11.000000
-5.628310 1.714310 18.928100 -13.764000 5.130000
-5.118380 1.592140 19.082900 -13.586400 5.640000
-10.406500 1.668510 16.787100 -12.343200 9.180000
-10.791900 1.668510 16.542100 -12.165600 9.990000
-6.680100 1.592140 18.593800 -13.586400 4.710000
0.506046 1.392520 20.198000 0.888000 13.100000
-6.167780 1.392520 19.239900 -13.675200 5.710000
-11.009200 -5.594730 16.051600 -12.165600 10.630000
0.119195 1.613540 20.619800 0.799200 12.840000
-6.412490 1.422150 19.612600 -13.675200 7.770000
1.072280 1.613540 20.592300 0.799200 11.040000
0.931911 1.826120 21.014300 0.888000 13.020000
-5.604250 1.891160 20.268700 -13.852800 5.460000
0.829451 0.832702 21.512900 0.888000 10.700000
-5.718630 1.929760 20.682400 -13.941600 4.170000
0.676892 0.849356 21.949000 0.888000 7.150000
-9.312260 1.540660 20.321700 -13.231200 6.600000
-5.481540 1.288330 22.132600 -13.941600 8.520000
0.580287 2.155800 23.161300 0.799200 4.210000
-5.715220 1.312630 22.517600 -13.941600 9.000000
9.511350 -1.456310 21.185900 -13.408800 8.110000
0.136406 2.195730 23.597200 0.799200 8.660000
9.064740 -1.263760 21.860900 -13.497600 10.680000
0.000000 2.309950 24.019600 0.799200 11.880000
9.232090 -1.156300 22.264500 -13.497600 11.310000
0.000000 2.351190 24.448500 0.799200 10.280000
9.579590 0.588644 22.608500 -13.497600 11.560000
9.880470 0.598971 22.948400 -13.586400 15.290000
-9.376170 1.564180 23.113900 -13.320000 11.280000
10.051500 0.530691 23.345600 -13.586400 15.910000
-9.537830 1.591150 23.512400 -13.320000 11.010000
10.221900 0.539686 23.741300 -13.586400 12.180000
-10.384400 1.697910 23.615900 -13.142400 7.740000
-9.027990 0.548681 24.679800 -13.497600 4.270000
9.856880 1.049200 25.272200 -13.764000 6.350000
-4.874400 1.925830 27.513800 -14.208000 6.580000
-4.949390 1.955460 27.937100 -14.208000 6.240000
18.379600 1.806900 22.190600 -11.544000 5.630000
18.657400 1.743410 22.526000 -11.544000 10.160000
10.422500 -1.057240 27.825400 -13.764000 12.930000
18.935200 1.677250 22.861400 -11.544000 9.730000
-20.708000 0.733223 22.508400 -10.478400 4.500000
-20.999600 0.743550 22.825400 -10.478400 12.970000
-21.292800 0.656618 23.144100 -10.478400 6.460000
-21.584500 0.665613 23.461100 -10.478400 15.930000
-9.721350 1.626470 30.325000 -13.675200 7.260000
-7.515270 1.823100 31.378600 -13.764000 14.500000
-4.068650 2.102350 35.035700 -14.385600 4.620000
19.070900 -0.083957 30.763900 -12.609600 9.120000
-17.839800 2.153630 31.420100 -12.432000 9.340000
19.297900 -0.084957 31.130100 -12.609600 10.460000
19.525000 0.000000 31.496400 -12.609600 10.120000
19.752000 0.000000 31.862700 -12.609600 15.970000
9.115800 -0.205228 36.806600 -14.030400 7.210000
-5.042350 1.878990 38.840900 -14.385600 7.240000
-30.829800 0.469750 26.266400 -9.235200 7.520000
-9.199430 1.565480 39.415000 -14.119200 5.610000
-31.157800 0.474748 26.545900 -9.235200 6.480000
-16.650900 -0.095951 37.867100 -13.053600 9.790000
-18.789200 -1.982230 36.799700 -12.787200 6.850000
18.501000 -0.613998 37.474700 -13.231200 9.640000
20.333200 -2.002880 36.463200 -12.964800 5.220000
-18.984900 -2.002880 37.183000 -12.787200 8.430000
18.687300 -1.109970 37.852000 -13.231200 5.360000
20.542800 -2.023530 36.839100 -12.964800 5.590000
21.389000 -2.023530 36.354300 -12.787200 9.120000
11.920200 0.758574 40.952800 -14.119200 7.150000
12.040600 0.766236 41.366500 -14.119200 6.680000
-17.342000 -0.766236 39.438800 -13.142400 8.800000
11.821700 2.455110 41.812500 -14.119200 6.170000
11.368100 2.479420 42.383700 -14.119200 8.870000
-7.353150 2.047600 45.033100 -14.296800 7.350000
-7.774660 1.781980 45.411100 -14.208000 6.880000
-16.488400 -2.066920 43.007600 -13.408800 4.920000
-7.847330 1.798640 45.835500 -14.208000 7.110000
-16.307400 -2.086240 43.536500 -13.408800 8.660000
-7.919000 1.960430 46.254200 -14.208000 7.440000
-15.525600 -1.960430 44.284500 -13.586400 8.710000
-16.121400 -1.960430 44.071100 -13.408800 9.920000
-15.409400 -1.978420 44.780600 -13.586400 7.610000
-17.547800 -1.978420 43.986600 -13.320000 5.140000
-15.549500 -1.996400 45.187700 -13.586400 11.390000
-7.776340 0.708947 47.624900 -14.208000 8.650000
-15.948400 -2.312600 45.490700 -13.586400 9.390000
-7.845780 0.715277 48.050100 -14.208000 8.600000
13.551100 -2.813340 53.390500 -14.208000 9.660000
35.434300 0.317170 46.674900 -11.899200 7.000000
14.733300 0.879853 58.048100 -14.208000 6.530000
14.839300 0.886183 58.465700 -14.208000 6.870000
14.945300 0.892513 58.883300 -14.208000 7.630000
15.273900 5.515620 61.671000 -14.208000 8.290000
15.380200 5.404510 62.100000 -14.208000 8.790000
15.535100 1.349210 62.725800 -14.208000 6.560000
15.640400 0.955812 63.150900 -14.208000 6.570000
15.744000 0.962142 63.569100 -14.208000 7.090000
15.554700 0.981132 64.945600 -14.296800 9.420000
15.655600 0.779585 65.367200 -14.296800 11.790000
15.854900 1.210650 66.199300 -14.208000 9.950000
15.954300 1.430170 66.614300 -14.208000 7.610000
16.054600 1.439160 67.033200 -14.296800 6.730000
16.155000 1.448160 67.452200 -14.296800 12.580000
16.258300 0.593690 67.883500 -14.208000 11.670000
15.963100 0.814567 68.393800 -14.296800 16.640000
16.061000 0.819564 68.813400 -14.296800 19.760000
16.158900 0.824561 69.233000 -14.296800 18.320000
16.256900 0.829559 69.652600 -14.296800 12.790000
16.759600 0.834556 69.976500 -14.296800 16.810000
16.330000 19.683900 68.183100 -14.296800 14.270000
13.638700 19.800400 69.194900 -14.385600 12.670000
13.829700 1.082410 72.366300 -14.385600 8.960000
17.260600 1.088740 72.068600 -14.296800 8.890000
17.427200 2.016070 74.666900 -14.296800 9.800000
17.525100 2.027400 75.086400 -14.296800 8.810000
16.460800 1.094420 92.913900 -14.385600 10.120000
16.535300 1.392570 93.334400 -14.385600 14.300000
16.067400 1.693380 93.848400 -14.385600 11.200000
-13.714600 1.417890 95.531800 -14.296800 10.300000
-13.776400 1.124400 95.962200 -14.296800 10.540000
-11.901700 -0.923518 107.929000 -14.385600 5.810000
-11.322400 -0.927183 108.424000 -14.385600 6.390000
-11.996200 0.930848 108.785000 -14.385600 7.750000
-12.043400 0.934513 109.213000 -14.385600 11.250000
-12.090600 0.938177 109.642000 -14.385600 10.060000
-10.984000 -0.618016 113.657000 -14.385600 6.790000
-11.025600 0.000000 114.088000 -14.385600 6.230000
-11.067100 0.000000 114.517000 -14.385600 8.710000
-11.994100 -0.267863 114.856000 -14.385600 9.270000
15.291600 3.319070 158.230000 -14.474400 9.910000
15.333000 3.328060 158.659000 -14.474400 9.270000
15.375400 2.842740 159.097000 -14.474400 6.120000
