VERSION .7
FIELDS x y z velocity intensity
SIZE 4 4 4 4 4
TYPE F F F F F
COUNT 1 1 1 1 1
WIDTH 978
HEIGHT 1
VIEWPOINT 0 0 0 1 0 0 0
POINTS 978
DATA ascii
7.212480 1.671710 22.059300 -10.300800 9.590000
-8.887560 1.743480 21.433600 -9.856800 4.230000
-9.052140 1.775760 21.830500 -9.856800 9.340000
-8.743570 1.808050 22.417800 -9.945600 5.260000
7.315740 0.512702 23.440900 -10.389600 4.300000
7.627700 0.521696 23.794000 -10.389600 9.950000
7.759210 0.530691 24.204300 -10.389600 16.920000
7.890730 0.539686 24.614500 -10.389600 18.300000
6.451080 -1.807320 25.416800 -10.478400 15.170000
7.185300 -3.162190 25.986800 -10.478400 8.620000
6.942630 -3.212380 26.495400 -10.478400 4.880000
-13.584100 1.896200 23.924900 -13.497600 5.300000
-8.547700 0.671260 26.663900 -10.123200 8.060000
-13.799300 1.839400 24.303800 -13.497600 6.330000
-8.679200 0.681588 27.074100 -10.123200 8.410000
-14.011600 1.867700 24.677700 -13.497600 7.350000
6.655670 -1.041920 28.516300 -10.567200 5.080000
6.753550 -1.057240 28.935600 -10.567200 9.830000
4.920510 1.914770 30.134800 -10.567200 5.380000
5.209840 -3.065430 30.430200 -10.567200 6.840000
5.282200 -3.108000 30.852900 -10.656000 5.890000
5.555240 -1.626470 31.356800 -10.567200 5.770000
6.069530 -4.224640 32.786600 -10.567200 8.230000
5.740170 -1.315670 33.527800 -10.567200 6.880000
7.116610 -1.332320 33.703100 -10.567200 4.240000
7.207150 -1.133220 34.131900 -10.567200 7.840000
7.297450 -0.928753 34.559500 -10.567200 6.730000
18.612800 0.737571 30.025000 -9.412800 5.310000
7.655840 -0.940080 34.923000 -10.567200 7.490000
18.839800 0.746565 30.391100 -9.412800 10.030000
18.942500 2.256180 32.771300 -9.501600 7.000000
19.157700 2.281820 33.143700 -9.501600 6.700000
18.806100 2.090940 34.344300 -9.590400 5.690000
8.709610 1.042020 38.660200 -10.567200 6.610000
19.012700 2.113920 34.721700 -9.590400 6.710000
7.292080 1.053340 39.390600 -10.567200 5.280000
19.219400 2.136900 35.099100 -9.590400 6.550000
7.603120 0.093952 39.784500 -10.567200 7.640000
-16.165100 2.182850 37.545200 -11.011200 7.550000
18.868400 2.182850 36.262000 -9.768000 8.050000
-16.627200 2.205830 37.813300 -10.922400 6.840000
7.764890 0.095951 40.631000 -10.567200 6.930000
19.067100 2.205830 36.643700 -9.679200 5.240000
-16.800400 2.228810 38.207200 -10.922400 7.600000
19.268000 2.131990 37.029900 -9.679200 8.700000
19.466600 2.153970 37.411600 -9.679200 8.440000
-22.643900 -4.214960 35.906700 -8.880000 7.520000
19.048100 2.297740 38.582900 -9.856800 12.930000
19.238600 2.320720 38.968700 -9.856800 12.600000
19.429000 2.343690 39.354500 -9.856800 5.480000
-26.825100 1.698710 34.774800 -8.347200 6.700000
19.619500 2.366670 39.740400 -9.856800 6.250000
-27.088100 1.715370 35.115800 -8.347200 6.220000
19.513300 1.732020 40.304900 -9.856800 9.390000
-27.354200 1.593520 35.460800 -8.347200 8.010000
9.346520 0.664638 44.263600 -10.567200 6.230000
19.386800 1.748670 40.843100 -9.856800 14.670000
-27.343400 1.468990 36.017300 -8.347200 10.010000
9.435540 0.670967 44.685200 -10.567200 8.390000
19.571400 1.765330 41.232100 -9.856800 5.890000
19.756000 1.781980 41.621100 -9.856800 13.040000
19.553900 1.670130 42.671500 -9.945600 6.440000
19.731000 1.831940 43.058100 -9.945600 13.250000
19.910400 1.848600 43.449500 -9.945600 9.040000
19.417400 1.443060 45.098900 -10.034400 9.600000
19.587800 1.455720 45.494500 -10.034400 10.980000
19.453300 2.436490 46.914500 -10.034400 7.080000
19.618200 2.457140 47.312000 -10.034400 6.620000
19.955900 2.015140 48.126600 -10.123200 8.230000
19.743800 2.194240 48.671900 -10.123200 6.510000
19.905600 2.212230 49.070800 -10.123200 8.220000
-12.333900 2.212230 51.498100 -12.254400 5.330000
20.067500 2.230220 49.469800 -10.123200 5.360000
-12.835600 2.065100 51.825900 -12.254400 5.050000
-12.536100 2.081750 52.342000 -12.254400 7.500000
-12.636300 2.098410 52.760700 -12.254400 8.490000
20.245100 3.087120 50.747900 -10.123200 6.360000
10.039700 0.298513 54.232900 -10.656000 6.600000
10.117900 0.472753 54.655400 -10.656000 8.850000
10.514800 0.303177 55.020500 -10.656000 8.590000
20.246600 1.250270 56.355400 -10.212000 13.180000
20.392200 1.259270 56.760900 -10.212000 9.380000
20.537900 1.268260 57.166300 -10.212000 16.290000
20.683500 1.277260 57.571800 -10.212000 11.780000
20.513400 2.398180 58.511600 -10.300800 7.180000
20.655800 2.414830 58.917900 -10.300800 9.670000
20.795700 2.625900 59.316800 -10.300800 8.320000
20.938100 2.643880 59.723100 -10.300800 11.820000
20.723700 3.252930 60.224300 -10.300800 6.690000
20.863700 3.274910 60.631200 -10.300800 8.850000
21.003800 3.296890 61.038100 -10.300800 9.820000
21.143800 3.318870 61.445100 -10.300800 7.260000
20.806500 3.340850 62.014200 -10.300800 15.000000
20.955000 2.548070 62.456800 -10.300800 14.690000
21.228900 2.581380 63.273300 -10.300800 7.290000
20.874400 2.598030 63.844300 -10.300800 10.000000
21.136600 3.052090 64.646100 -10.300800 7.590000
21.270400 3.071410 65.055200 -10.300800 6.280000
21.404100 3.090720 65.464400 -10.300800 14.180000
-9.630410 2.731260 69.955000 -10.656000 18.440000
-9.689140 2.747920 70.381600 -10.656000 18.190000
21.969900 2.742690 73.885100 -10.389600 16.630000
21.665100 2.518270 74.432200 -10.389600 19.970000
22.274300 1.486500 80.558700 -10.478400 9.620000
22.541400 2.287900 84.041200 -10.478400 6.000000
23.303300 2.299230 84.280200 -10.478400 5.300000
22.382800 2.321880 85.420200 -10.478400 5.470000
22.492000 2.333210 85.836800 -10.478400 6.630000
22.601200 2.344540 86.253500 -10.478400 7.580000
-10.326900 -4.294830 88.926600 -10.567200 6.690000
-13.361000 -4.336130 89.392100 -10.567200 11.570000
23.343100 -4.703560 89.085000 -10.478400 9.250000
22.783500 2.435150 89.765300 -10.478400 8.490000
22.889400 2.446470 90.182800 -10.478400 6.760000
22.376200 2.005830 93.427500 -10.567200 7.630000
22.477900 1.716370 93.852100 -10.567200 11.370000
-26.371700 2.023820 93.275000 -10.212000 10.660000
-27.210200 2.032820 93.482600 -10.212000 7.040000
-27.330600 2.041810 93.896300 -10.212000 7.520000
-56.233500 -15.202600 102.696000 -9.235200 8.850000
-56.438800 -15.258100 103.070000 -9.235200 5.270000
-57.439600 -15.313500 103.006000 -9.146400 7.660000
20.136600 1.062780 123.323000 -10.656000 6.260000
20.206100 1.066440 123.749000 -10.656000 4.830000
20.274900 1.459220 124.170000 -10.656000 5.430000
-56.024000 -17.786500 118.029000 -9.412800 5.090000
-56.207100 -17.844700 118.415000 -9.412800 4.800000
-55.001300 -12.495700 122.512000 -9.679200 5.130000
-55.177100 -12.535600 122.903000 -9.679200 4.810000
-55.336600 -12.993400 123.258000 -9.590400 4.890000
22.772000 3.841680 158.623000 -10.744800 5.410000
22.833200 3.852000 159.049000 -10.656000 4.980000
-60.245800 -18.815500 157.142000 -9.856800 11.660000
-60.399100 -18.863300 157.542000 -9.856800 13.560000
-6.822450 2.601580 176.949000 -10.744800 11.370000
-6.839050 2.607910 177.380000 -10.744800 5.780000
-5.485010 2.614240 177.858000 -10.744800 6.880000
-4.511250 0.000000 180.060000 -10.744800 7.340000
-4.522050 0.000000 180.490000 -10.744800 8.780000
-4.532840 0.000000 180.921000 -10.744800 8.070000
5.616590 -0.305755 4.692600 -6.748800 8.750000
5.946970 -0.323741 4.968630 -6.837600 7.380000
6.410660 -0.113938 4.364530 -6.038400 7.020000
6.174320 -0.367023 5.363920 -6.926400 5.140000
6.602980 -0.120268 4.838880 -6.304800 4.660000
6.221050 0.726846 6.530920 -7.725600 7.360000
7.234680 0.994990 6.044500 -7.015200 5.250000
6.395620 0.797981 6.951680 -7.814400 6.520000
7.502300 1.040220 6.391820 -7.104000 5.460000
6.527710 1.101160 7.375530 -7.992000 4.810000
6.417570 1.149040 8.027650 -8.258400 8.490000
6.068560 -0.964880 8.848070 -8.702400 12.980000
6.841960 -0.998057 8.260640 -8.169600 10.690000
6.240200 -1.003470 9.250360 -8.702400 12.530000
7.181640 -1.037980 8.535970 -8.080800 9.580000
6.559240 -0.934516 9.563470 -8.968800 8.770000
6.627510 -1.042070 9.505110 -8.613600 9.040000
7.489570 0.134928 8.901970 -8.169600 5.900000
5.778440 -0.904024 10.552800 -9.146400 8.340000
7.533310 0.139926 9.423310 -8.347200 6.900000
5.836860 -0.936311 11.009400 -9.146400 4.130000
6.640690 1.080760 10.530200 -8.880000 5.560000
6.700950 1.118030 10.997900 -8.968800 7.750000
6.652050 1.319840 11.508300 -9.146400 11.300000
6.957990 1.362410 11.826300 -9.146400 11.090000
7.175430 1.404990 12.195900 -9.146400 7.800000
6.720660 1.627800 12.916000 -9.324000 6.540000
-8.839590 0.962150 11.643700 -8.169600 7.010000
6.535600 1.582940 13.499300 -9.412800 4.520000
6.619310 1.532710 13.945300 -9.501600 4.580000
-8.858210 0.875089 12.704400 -8.436000 4.520000
13.607900 -1.809070 10.422700 -6.660000 2.830000
13.948100 -1.854300 10.683300 -6.660000 4.650000
7.057260 0.413083 15.719500 -9.590400 6.350000
7.109290 0.423410 16.167800 -9.679200 6.810000
14.168600 1.559690 11.837700 -6.926400 5.820000
6.936960 -0.689503 18.094000 -9.768000 10.530000
13.941000 1.267520 14.635400 -7.725600 8.660000
6.163940 -0.689503 18.371800 -9.768000 8.640000
7.189710 -1.179370 18.433800 -9.768000 12.870000
14.237700 1.294490 14.946800 -7.725600 11.170000
7.091310 -1.205010 18.931900 -9.856800 10.840000
14.534300 1.321460 15.258200 -7.725600 9.550000
6.842450 0.239872 19.517100 -9.945600 10.700000
17.528900 1.578830 13.159900 -6.393600 5.640000
4.640100 0.244870 20.596500 -10.123200 9.710000
14.667400 1.900650 16.254100 -7.903200 9.840000
5.008330 -1.348430 20.911400 -10.212000 6.970000
14.955000 1.937920 16.572800 -7.903200 7.060000
5.967160 -1.375400 21.105500 -10.034400 7.000000
6.243030 1.748000 21.448400 -10.034400 6.950000
6.950410 1.781610 21.681300 -9.945600 7.520000
6.787600 1.599920 22.199000 -9.945600 6.940000
6.911790 1.702660 22.605200 -9.945600 5.160000
7.029250 2.086990 22.989400 -9.945600 5.140000
17.797100 1.618120 18.683500 -7.725600 8.430000
7.573580 0.294843 24.267000 -9.945600 10.670000
7.701630 0.379793 24.677300 -9.945600 16.890000
18.203500 1.672050 19.482600 -7.725600 8.040000
7.829990 0.386123 25.088600 -9.945600 17.920000
7.958350 0.392453 25.499900 -9.945600 14.600000
6.557040 -1.115820 28.093700 -10.212000 7.140000
7.203040 -1.132470 28.379500 -10.123200 7.090000
7.525600 1.585440 28.720200 -10.123200 9.760000
7.645550 0.000000 29.177900 -10.123200 10.990000
7.526440 0.000000 29.653700 -10.123200 11.220000
7.209060 2.133230 30.100100 -10.212000 10.320000
5.124050 -2.389210 31.381400 -10.212000 5.470000
5.193300 -2.421490 31.805500 -10.212000 6.400000
18.575700 1.736360 28.473300 -8.880000 6.320000
5.290250 -0.710586 33.620000 -10.212000 9.650000
18.585700 1.838190 28.974300 -8.968800 6.950000
-6.653300 2.157490 33.755000 -10.123200 14.860000
18.818100 1.861170 29.336500 -8.968800 6.350000
-6.538800 2.184460 34.215300 -10.123200 15.540000
19.047200 1.993260 29.693600 -8.968800 11.160000
-6.619520 2.211430 34.637700 -10.123200 11.890000
18.568000 1.930100 31.010100 -9.057600 9.370000
6.587630 -0.643638 35.585300 -10.212000 15.220000
18.789000 1.953080 31.379300 -9.057600 9.580000
8.049410 -0.311504 35.729700 -10.212000 18.250000
19.010100 1.976060 31.748400 -9.057600 9.710000
7.656070 0.000000 36.257900 -10.212000 16.830000
19.231100 1.999030 32.117600 -9.057600 9.140000
7.744980 0.202896 36.679000 -10.212000 10.550000
18.379200 2.518570 33.564700 -9.235200 6.160000
18.850500 2.427180 33.804300 -9.235200 7.710000
19.429600 2.066920 41.761300 -9.590400 9.590000
19.611200 2.086240 42.151600 -9.590400 11.290000
19.390700 2.271310 43.191500 -9.590400 5.560000
19.567000 2.291950 43.584100 -9.590400 13.310000
19.743300 2.312600 43.976800 -9.590400 10.930000
19.916500 2.483660 44.362700 -9.590400 13.390000
19.315900 2.068350 45.586900 -9.768000 17.380000
19.481300 2.240770 45.977100 -9.768000 16.770000
19.649200 2.260090 46.373500 -9.768000 10.170000
20.084300 2.436490 46.647800 -9.679200 11.510000
19.783100 2.477790 47.709600 -9.768000 13.170000
19.573500 2.659490 48.252100 -9.768000 21.340000
-11.620000 1.762790 53.006100 -11.455200 22.330000
20.424200 1.961250 51.196700 -9.856800 18.900000
20.583700 1.976580 51.596700 -9.856800 8.910000
10.512000 1.342520 55.005500 -10.212000 8.450000
20.743300 1.991900 51.996700 -9.856800 7.710000
10.272900 1.178310 55.492700 -10.212000 6.600000
10.352000 1.011430 55.919700 -10.212000 7.980000
7.376900 1.019090 56.823800 -10.300800 9.970000
10.442900 1.944670 58.945600 -10.300800 8.490000
20.536400 1.456120 57.162400 -9.945600 7.930000
20.682100 1.466450 57.567800 -9.945600 6.080000
20.827700 1.476770 57.973200 -9.945600 6.110000
20.973400 1.487100 58.378600 -9.945600 6.370000
20.461500 1.848130 59.462200 -9.945600 11.150000
20.599700 2.056590 59.863800 -9.945600 7.400000
20.739800 2.070580 60.271000 -9.945600 14.490000
20.881900 1.886100 60.684100 -9.945600 13.330000
21.015400 2.498100 61.072000 -9.945600 7.370000
21.155500 2.514760 61.479200 -9.945600 16.930000
21.295600 2.531410 61.886300 -9.945600 9.140000
20.952400 2.751800 62.449100 -9.945600 5.750000
20.871800 2.805760 63.836300 -10.034400 11.200000
20.901800 2.436250 65.201400 -10.034400 7.860000
21.033200 2.451570 65.611500 -10.034400 12.180000
21.162200 2.681300 66.014000 -10.034400 8.160000
21.293700 2.697950 66.424000 -10.034400 5.660000
21.427600 2.497530 66.841700 -10.034400 5.370000
21.562200 1.511120 69.088900 -10.034400 19.860000
21.690500 1.520120 69.500100 -10.034400 16.150000
21.817400 1.755600 69.906500 -10.034400 7.020000
21.659600 2.406350 70.838400 -10.034400 6.570000
21.787600 2.189900 71.257000 -10.034400 6.200000
21.913600 2.202560 71.668900 -10.034400 10.100000
22.271400 2.003450 80.548300 -10.123200 6.640000
22.387800 1.753980 80.969100 -10.123200 11.050000
22.502600 1.762970 81.384300 -10.123200 10.690000
22.618700 1.509480 81.804500 -10.123200 7.960000
21.729000 2.055090 82.924900 -10.123200 10.980000
21.839700 1.798950 83.347400 -10.123200 13.280000
21.948900 1.807950 83.764100 -10.123200 11.680000
-11.123600 -3.217680 89.745000 -10.212000 5.950000
-12.391800 -3.233000 90.013400 -10.212000 10.590000
-13.493700 -3.530650 90.279700 -10.212000 12.030000
-14.773500 -4.398070 90.478100 -10.123200 8.990000
22.471700 2.835480 93.826400 -10.123200 6.050000
22.574000 2.548410 94.253400 -10.123200 7.280000
22.674300 2.559730 94.672300 -10.123200 5.980000
22.770500 3.175820 95.074000 -10.123200 8.130000
23.608400 2.886110 95.322800 -10.123200 8.450000
23.711900 2.898770 95.740900 -10.123200 8.430000
23.075600 2.605040 96.347900 -10.123200 12.980000
23.175900 2.616370 96.766900 -10.123200 12.780000
23.283500 0.850223 97.215800 -10.123200 7.610000
21.949200 0.291851 123.893000 -10.300800 8.380000
24.415500 0.292851 123.870000 -10.212000 6.090000
18.726900 0.000000 125.293000 -10.300800 9.940000
-55.776700 -11.292100 117.508000 -9.235200 11.340000
-55.913300 -12.539700 117.796000 -9.235200 8.510000
-55.184700 -12.581000 118.612000 -9.235200 4.930000
-55.348900 -13.028100 118.965000 -9.235200 4.730000
-55.457300 -14.698100 119.198000 -9.235200 4.790000
-60.310600 -12.135300 157.311000 -9.590400 7.730000
-59.247100 -12.166300 158.174000 -9.590400 6.650000
-59.397900 -12.197300 158.577000 -9.590400 5.040000
-4.446020 2.607910 177.456000 -10.300800 4.660000
-4.456810 2.614240 177.887000 -10.300800 4.950000
-4.467600 2.620570 178.317000 -10.300800 6.820000
-4.532770 0.979496 180.919000 -10.300800 5.000000
-4.543560 0.981828 181.349000 -10.300800 5.890000
-4.554360 0.984161 181.780000 -10.300800 6.870000
-47.240400 -15.026100 186.124000 -9.945600 5.120000
-47.346100 -15.059700 186.540000 -9.945600 6.650000
-46.346900 -16.286100 187.134000 -9.945600 7.470000
5.187930 -0.638630 3.801890 -6.393600 3.440000
6.264470 0.838368 6.475820 -7.636800 7.590000
5.973230 -0.495558 8.427560 -8.702400 9.610000
6.476980 -1.180820 7.975150 -8.347200 7.920000
6.086930 -0.482925 8.874840 -8.702400 13.430000
6.746850 -1.230020 8.307450 -8.347200 9.680000
5.972320 -0.449659 9.974270 -9.057600 12.770000
6.184770 -0.792359 10.329100 -9.057600 11.170000
6.534310 1.532350 10.540700 -8.968800 7.630000
6.850420 1.476020 10.862800 -8.968800 6.670000
7.036050 0.320140 11.350100 -9.057600 7.240000
-8.377350 1.360940 10.315100 -7.992000 6.090000
-8.647590 1.404840 10.647800 -7.992000 7.960000
6.711320 0.490313 12.035300 -9.235200 5.480000
-8.917830 1.448740 10.980600 -8.080800 7.470000
6.341030 1.317440 12.659200 -9.412800 3.170000
-8.045160 1.617860 14.169400 -8.968800 6.420000
-8.256880 1.660440 14.542300 -8.968800 8.430000
13.956900 1.745590 10.690000 -6.660000 7.760000
6.719430 0.666161 15.858300 -9.679200 7.160000
-9.056260 1.160240 15.124700 -8.880000 9.730000
14.297300 1.788170 10.950800 -6.660000 6.830000
6.977380 0.901150 16.205700 -9.679200 9.370000
-9.277150 1.188540 15.493600 -8.880000 9.190000
7.275300 0.923129 16.545300 -9.679200 9.170000
5.890780 -0.395770 18.016900 -10.034400 7.270000
14.488700 1.897460 13.392700 -7.370400 7.310000
5.918400 -0.344806 18.462000 -9.945600 12.380000
6.050220 -0.291175 18.873200 -9.945600 13.830000
7.809110 -1.714310 18.137400 -9.679200 11.680000
6.179160 -0.657549 19.275400 -9.945600 12.380000
7.871620 -1.751580 18.577500 -9.679200 10.440000
7.251210 -0.671540 19.358800 -9.945600 12.240000
8.039100 -1.788850 18.972800 -9.679200 9.720000
7.108130 1.956190 19.785200 -9.945600 12.180000
5.154160 2.128770 20.810800 -10.212000 9.630000
7.369770 1.996110 20.146700 -9.945600 10.140000
7.512700 2.171340 20.537400 -10.034400 4.680000
7.833030 2.036040 20.431300 -9.856800 8.900000
-8.572750 0.322824 20.232300 -9.590400 8.760000
5.651760 2.213920 21.569000 -10.123200 6.360000
6.660450 1.640750 21.783200 -10.123200 3.860000
6.786120 1.671710 22.194200 -10.123200 5.750000
-8.474130 1.135650 22.103500 -9.679200 5.770000
-8.455700 1.081750 22.574500 -9.679200 7.410000
17.816400 6.988370 17.382900 -7.814400 4.800000
7.573580 0.294843 24.267000 -10.123200 7.110000
17.786000 1.857450 18.671900 -7.814400 5.540000
7.701940 0.299841 24.678300 -10.123200 9.330000
18.078300 1.969480 18.978800 -7.814400 12.190000
7.830310 0.304838 25.089600 -10.123200 13.270000
7.958920 0.227215 25.501700 -10.123200 17.880000
6.487990 -2.932770 26.196300 -10.212000 12.670000
5.323650 1.640860 27.009100 -10.212000 18.900000
5.618090 1.666500 27.388600 -10.212000 7.050000
6.834000 -0.835454 27.593400 -10.212000 15.530000
6.932570 -1.383430 27.991400 -10.300800 9.400000
-7.698390 0.965339 28.701900 -10.034400 8.490000
-7.809960 0.979329 29.117900 -10.034400 6.500000
7.924860 -0.449422 29.546300 -10.212000 6.490000
7.457690 -0.455751 30.111700 -10.212000 6.890000
4.701400 -2.290860 31.454800 -10.389600 8.250000
4.580570 -2.321810 31.906900 -10.300800 7.380000
18.278300 2.049610 27.095400 -8.880000 5.740000
4.643620 -2.150690 32.346100 -10.300800 5.000000
18.515100 2.178990 27.446500 -8.880000 6.170000
6.403800 -2.076580 32.489200 -10.300800 8.330000
18.755600 2.207290 27.802900 -8.880000 8.330000
18.358500 1.631210 28.620000 -8.968800 8.010000
18.588000 1.758340 28.977800 -8.968800 8.050000
-6.456790 2.263880 33.786100 -10.212000 10.580000
18.820300 1.780320 29.340000 -8.968800 9.170000
-6.537500 2.292180 34.208500 -10.212000 6.430000
19.052700 1.802300 29.702300 -8.968800 9.140000
-6.417910 2.320480 34.668500 -10.212000 14.420000
19.282700 1.907120 30.060800 -8.968800 8.790000
-6.496180 2.348780 35.091300 -10.212000 16.710000
7.271100 -0.867475 35.447100 -10.300800 11.570000
18.551700 1.755100 31.531800 -9.235200 14.390000
7.359750 0.084957 35.879300 -10.300800 13.290000
18.770000 1.775750 31.902800 -9.235200 6.280000
7.446340 0.085956 36.301500 -10.300800 11.040000
7.745080 0.086956 36.679400 -10.300800 10.980000
8.673440 -0.093952 39.564900 -10.300800 9.040000
8.457270 -0.094951 40.052200 -10.300800 6.370000
8.546010 0.351817 40.472500 -10.300800 6.380000
8.635030 0.355481 40.894100 -10.300800 8.310000
-24.761400 -1.455000 37.323100 -8.613600 6.630000
19.513300 1.732020 40.304900 -9.590400 7.070000
19.071400 1.748670 40.991300 -9.590400 6.780000
19.248000 2.047600 41.371000 -9.590400 7.480000
19.429600 2.066920 41.761300 -9.590400 7.320000
19.611200 2.086240 42.151600 -9.590400 6.950000
19.795500 1.960430 42.547600 -9.590400 7.130000
19.390700 2.271310 43.191500 -9.679200 4.950000
19.564000 2.439700 43.577500 -9.679200 16.380000
19.740300 2.461680 43.970100 -9.679200 7.790000
19.916500 2.483660 44.362700 -9.679200 19.040000
19.403500 2.353900 45.066500 -9.679200 8.090000
19.573700 2.374550 45.461900 -9.679200 10.970000
19.743900 2.395200 45.857200 -9.679200 12.570000
19.914100 2.415840 46.252500 -9.679200 17.070000
20.084300 2.436490 46.647800 -9.679200 16.970000
19.982300 2.457140 47.159400 -9.768000 12.220000
20.160600 1.838680 47.580300 -9.768000 6.340000
19.958200 1.854000 48.132100 -9.856800 20.390000
20.064800 2.395310 49.463100 -9.856800 5.740000
20.226600 2.414630 49.862000 -9.856800 9.680000
20.388400 2.433940 50.260900 -9.856800 6.250000
-11.526600 1.915290 52.579800 -11.632800 8.300000
-11.618800 1.930610 53.000500 -11.632800 5.720000
-12.019600 1.945930 53.352500 -11.632800 5.200000
-12.114200 1.961250 53.772600 -11.632800 9.420000
10.514800 0.303177 55.020500 -10.300800 10.120000
10.595500 0.480083 55.442500 -10.300800 6.230000
10.676700 0.131933 55.867600 -10.300800 7.970000
8.097360 -11.703600 56.403700 -10.300800 7.640000
11.241700 -0.879853 58.824100 -10.300800 11.980000
11.317900 -1.958660 59.222400 -10.389600 7.790000
8.976550 -1.972650 60.057700 -10.389600 5.820000
20.535300 1.597000 57.159000 -9.945600 5.550000
20.680900 1.608330 57.564400 -9.945600 7.020000
20.826500 1.619660 57.969800 -9.945600 5.860000
20.972200 1.630980 58.375200 -9.945600 5.690000
21.243100 3.208970 59.129300 -9.945600 9.010000
21.388600 3.230950 59.534300 -9.945600 13.860000
21.534100 3.252930 59.939300 -9.945600 7.170000
17.816600 1.164680 63.016200 -9.146400 9.430000
20.815400 2.733810 62.040900 -10.034400 8.280000
17.931500 1.580040 63.422600 -9.146400 9.320000
20.952400 2.751800 62.449100 -10.034400 8.760000
21.101700 1.590370 62.894000 -9.057600 7.000000
21.211000 3.767750 63.219700 -10.034400 6.620000
21.344000 3.999600 63.616200 -10.034400 7.800000
21.484600 3.816360 64.035500 -10.034400 13.110000
21.142100 2.631340 64.662800 -10.034400 6.140000
20.899400 2.647990 65.193900 -10.034400 6.040000
21.030800 2.664650 65.604000 -10.034400 6.370000
21.164700 2.466890 66.021600 -10.034400 12.300000
21.296100 2.482210 66.431600 -10.034400 15.400000
21.165900 2.747920 67.819200 -10.123200 14.210000
21.157900 2.126610 69.197600 -10.123200 11.520000
21.285700 1.914140 69.615500 -10.123200 17.140000
21.409800 2.151930 70.021400 -10.123200 14.590000
20.992300 2.164590 70.597100 -10.123200 6.960000
21.239600 1.959440 71.429000 -10.123200 5.920000
21.916700 1.796910 71.679300 -10.123200 9.540000
21.652700 1.486500 80.728000 -10.212000 12.720000
21.765400 1.234330 81.148200 -10.212000 6.800000
21.876000 1.501820 81.560200 -10.212000 6.760000
21.987600 1.509480 81.976300 -10.212000 8.870000
21.836900 2.265250 83.336700 -10.212000 6.490000
-12.396100 -2.179010 90.044500 -10.300800 6.460000
-12.977600 -2.189340 90.397800 -10.300800 6.190000
-13.624000 -2.993950 91.151500 -10.212000 13.070000
-17.381000 -3.007940 90.948700 -10.212000 9.040000
22.892400 1.942870 90.194300 -10.212000 11.730000
22.998300 1.951860 90.611900 -10.212000 5.950000
23.104300 1.960860 91.029400 -10.212000 5.900000
23.210300 1.969850 91.447000 -10.212000 5.320000
23.420600 2.282290 92.275700 -10.212000 8.650000
22.989100 2.514430 92.822300 -10.212000 8.700000
23.196200 2.537080 93.658500 -10.212000 6.400000
23.301100 2.323590 94.082100 -10.212000 6.690000
23.404700 2.333920 94.500300 -10.212000 6.910000
23.508200 2.344250 94.918400 -10.212000 8.360000
23.614800 1.747020 95.348900 -10.212000 10.530000
23.717000 2.059800 95.761300 -10.212000 9.540000
23.822000 1.762340 96.185300 -10.212000 6.380000
23.284300 0.231882 97.219100 -10.212000 11.770000
23.384600 0.232881 97.638100 -10.212000 10.640000
23.485000 0.233881 98.057200 -10.212000 6.170000
20.275500 1.070110 124.174000 -10.389600 7.180000
19.623700 1.464220 124.711000 -10.389600 8.830000
19.689900 1.860990 125.131000 -10.389600 11.650000
19.756900 1.867310 125.557000 -10.300800 16.240000
-54.880200 -10.990400 117.958000 -9.324000 16.100000
-55.061400 -11.026600 118.347000 -9.324000 11.420000
-55.260100 -10.556600 118.774000 -9.324000 7.980000
-55.034100 -12.704700 120.099000 -9.235200 8.410000
-55.212800 -12.745900 120.489000 -9.235200 7.100000
-55.391500 -12.787200 120.879000 -9.235200 7.530000
-59.014300 -8.984160 157.552000 -9.679200 9.160000
-59.155100 -9.528750 157.928000 -9.679200 6.830000
-60.419700 -18.341400 157.596000 -9.590400 9.060000
-5.471730 2.607910 177.427000 -10.389600 12.570000
-5.485010 2.614240 177.858000 -10.389600 11.720000
-4.532670 1.539200 180.915000 -10.389600 6.090000
-4.543470 1.542860 181.345000 -10.389600 7.060000
5.107730 -0.618735 3.912170 -6.571200 2.650000
5.399640 -0.659984 4.235690 -6.748800 4.130000
6.387950 -2.021970 6.706140 -7.903200 5.460000
6.393020 1.458380 7.996940 -8.347200 6.200000
5.584130 -0.931693 9.164950 -9.057600 8.690000
5.585570 -0.968960 9.663270 -9.235200 7.000000
6.831990 0.632009 8.856670 -8.791200 7.350000
5.933910 1.390950 9.910140 -9.235200 7.000000
6.496000 0.656317 9.629550 -8.880000 7.510000
6.262680 4.648730 9.763230 -9.324000 4.000000
6.624640 1.405420 9.985390 -8.968800 6.130000
6.635080 0.539568 11.081100 -9.146400 5.390000
6.409150 0.598827 11.704600 -9.324000 6.120000
6.856250 0.557554 11.450500 -9.146400 6.180000
6.615890 0.618144 12.082200 -9.324000 5.640000
-9.033940 1.273640 10.907100 -7.992000 6.700000
-9.323140 1.007360 11.256300 -7.992000 7.530000
6.139700 1.672820 13.196400 -9.590400 4.320000
-9.196910 0.850781 11.922400 -8.169600 5.280000
-9.490930 0.897346 11.686300 -7.992000 5.480000
6.429230 1.629320 13.544800 -9.590400 5.290000
-9.969070 0.922984 11.849100 -7.903200 3.330000
6.619310 1.532710 13.945300 -9.590400 4.360000
-8.482740 1.384470 14.940100 -8.968800 8.010000
7.222950 1.051180 16.088600 -9.768000 9.670000
-8.694800 1.419080 15.313600 -8.968800 6.670000
7.397720 1.132680 16.477900 -9.768000 10.720000
-8.793320 1.244380 15.768900 -9.057600 3.670000
7.443610 1.159650 16.928100 -9.768000 9.930000
14.076500 1.796500 13.214300 -7.459200 7.620000
14.258500 1.836430 13.645900 -7.459200 5.200000
7.171490 -1.836430 18.387100 -9.856800 13.930000
14.213100 0.657549 14.412200 -7.725600 5.610000
7.327390 -1.876350 18.786800 -9.856800 12.890000
7.214380 -2.001040 18.817700 -9.679200 9.380000
14.373100 0.671540 14.858000 -7.814400 5.970000
17.163500 -2.783450 11.978000 -6.393600 5.320000
17.513700 -2.840260 12.222500 -6.393600 8.030000
4.731580 -0.832702 21.002500 -10.300800 9.840000
4.826210 -0.849356 21.422600 -10.300800 8.640000
6.783100 1.781610 21.734200 -10.123200 4.710000
6.782970 1.815230 22.183900 -10.123200 3.840000
-8.316360 1.312630 21.692000 -9.679200 5.820000
7.040740 1.775760 22.559700 -10.123200 5.850000
-8.470360 1.336940 22.093700 -9.679200 8.450000
-8.754260 1.361250 22.445200 -9.679200 6.560000
7.701630 0.379793 24.677300 -10.123200 4.710000
7.829990 0.386123 25.088600 -10.212000 16.650000
7.957950 0.475066 25.498600 -10.123200 5.940000
6.309250 -1.782810 26.343100 -10.212000 18.000000
7.334970 -1.725990 26.528200 -10.212000 14.810000
7.454500 -1.428650 26.960400 -10.212000 9.420000
6.751030 -1.332870 28.924800 -10.300800 7.810000
6.850640 -1.165780 29.351600 -10.300800 10.620000
7.119590 -1.276980 29.726500 -10.300800 7.900000
18.095700 2.037490 25.118400 -8.702400 12.260000
7.450990 -1.390830 30.084700 -10.300800 12.010000
18.591500 2.065790 25.289300 -8.702400 9.010000
18.846200 2.094090 25.635700 -8.702400 10.260000
4.944770 -2.192480 31.424500 -10.300800 8.630000
5.011590 -2.222110 31.849100 -10.389600 6.880000
18.239700 2.122390 26.593800 -8.880000 9.660000
4.818740 -3.134930 32.239900 -10.389600 10.100000
18.482900 2.150690 26.948400 -8.880000 11.680000
5.133750 -3.176180 32.625500 -10.389600 10.430000
18.726100 2.178990 27.303000 -8.880000 13.000000
4.834310 -1.210460 33.674300 -10.300800 9.980000
18.350300 1.920330 28.607300 -9.057600 6.410000
7.923700 -1.210460 33.083900 -10.300800 8.660000
18.582600 1.944640 28.969400 -9.057600 7.130000
-6.537500 2.292180 34.208500 -10.212000 7.260000
18.814900 1.968950 29.331500 -9.057600 10.170000
-6.417910 2.320480 34.668500 -10.212000 13.960000
-6.700250 2.238400 35.060100 -10.212000 8.540000
18.346900 1.907120 30.640900 -9.235200 15.470000
-6.985970 2.265360 35.442700 -10.212000 10.750000
18.568000 1.930100 31.010100 -9.235200 6.010000
6.666660 -0.424774 36.012200 -10.389600 7.960000
18.546600 1.953080 31.523100 -9.235200 15.590000
18.764800 1.976060 31.894000 -9.235200 15.810000
7.917230 1.482210 37.494700 -10.300800 11.400000
7.764630 0.351817 40.629600 -10.389600 6.950000
-6.733660 1.001730 41.239200 -10.300800 8.040000
-6.803080 1.012050 41.664300 -10.300800 5.440000
-6.872500 1.022380 42.089500 -10.300800 10.290000
-22.849100 -3.663460 36.858700 -8.702400 8.180000
19.133100 1.970340 39.519600 -9.679200 8.020000
-24.720800 -3.975300 36.645700 -8.524800 8.150000
19.320700 1.989650 39.907100 -9.679200 7.850000
19.508300 2.008970 40.294500 -9.679200 8.750000
19.248000 2.047600 41.371000 -9.679200 6.720000
19.429600 2.066920 41.761300 -9.679200 13.150000
19.611200 2.086240 42.151600 -9.679200 6.810000
19.792800 2.105550 42.541900 -9.679200 8.710000
19.390700 2.271310 43.191500 -9.768000 8.940000
19.567000 2.291950 43.584100 -9.768000 18.670000
19.743300 2.312600 43.976800 -9.768000 17.460000
19.919600 2.333250 44.369400 -9.768000 11.200000
19.579100 2.068350 45.474500 -9.856800 6.090000
19.746700 2.240770 45.863800 -9.856800 12.330000
19.917000 2.260090 46.259100 -9.856800 7.010000
19.788500 2.158270 47.722900 -9.856800 17.750000
-25.519700 -1.519010 44.946100 -9.057600 13.420000
19.955900 2.015140 48.126600 -9.856800 9.880000
-26.080900 -1.531670 45.121000 -8.968800 11.740000
-26.296400 -1.544320 45.493900 -8.968800 9.440000
-11.122100 1.748800 52.672700 -11.721600 8.810000
-11.211100 1.762790 53.094000 -11.721600 8.640000
-11.711000 1.945930 53.421100 -11.721600 9.760000
-4.279930 0.300845 55.420300 -10.389600 9.950000
-12.115500 1.790770 53.778300 -11.721600 6.260000
10.514800 0.303177 55.020500 -10.389600 6.860000
10.595500 0.480083 55.442500 -10.389600 11.360000
10.998800 0.659649 55.801300 -10.389600 9.150000
12.269400 1.196300 55.968100 -10.389600 5.850000
7.905250 4.896700 57.423500 -10.389600 6.270000
8.298070 4.932970 57.801800 -10.389600 15.080000
20.413200 2.298260 55.803300 -10.034400 10.110000
20.561100 2.314910 56.207700 -10.034400 7.340000
20.002600 1.848130 59.618200 -10.034400 11.940000
20.139600 1.860780 60.026500 -10.034400 6.530000
20.274700 2.070580 60.429100 -10.034400 9.110000
20.546500 2.298340 61.239200 -10.034400 7.470000
20.681100 2.514760 61.640400 -10.034400 7.060000
7.554070 1.164680 65.049300 -10.389600 6.740000
20.818000 2.531410 62.048600 -10.034400 5.560000
20.955000 2.548070 62.456800 -10.034400 9.520000
21.094400 2.359630 62.872300 -10.034400 9.220000
20.743000 2.374960 63.442300 -10.123200 6.680000
20.876800 2.390280 63.851600 -10.123200 11.310000
21.008200 2.614680 64.253500 -10.123200 6.150000
21.142100 2.631340 64.662800 -10.123200 17.910000
20.896800 2.859710 65.185800 -10.123200 19.210000
21.028200 2.877700 65.595800 -10.123200 7.970000
21.159600 2.895680 66.005800 -10.123200 11.820000
21.291000 2.913670 66.415700 -10.123200 14.250000
21.425100 2.714610 66.834000 -10.123200 7.930000
21.037700 2.731260 67.408200 -10.123200 10.700000
21.168400 2.528180 67.827000 -10.123200 5.800000
21.296700 2.543500 68.238100 -10.123200 17.290000
21.427200 2.336400 68.656400 -10.123200 18.600000
21.155900 2.350390 69.191000 -10.123200 8.400000
21.281800 2.364380 69.602800 -10.123200 15.400000
21.405500 2.604790 70.007300 -10.123200 6.060000
21.764400 1.494160 81.144100 -10.212000 7.860000
21.716300 -3.579140 82.876400 -10.212000 6.770000
22.306500 -3.597120 83.165300 -10.212000 5.630000
-12.911900 -3.233000 89.940300 -10.300800 5.560000
-15.405800 -3.248330 89.983800 -10.300800 7.150000
22.890800 2.230650 90.188000 -10.300800 7.530000
22.996700 2.240980 90.605600 -10.300800 7.640000
23.102700 2.251300 91.023100 -10.300800 4.970000
22.679700 2.261630 91.573300 -10.300800 5.490000
23.313300 2.491780 91.852800 -10.300800 8.760000
23.420600 2.282290 92.275700 -10.300800 10.580000
23.526600 2.292610 92.693300 -10.300800 9.280000
24.349500 2.302940 92.925900 -10.212000 5.330000
23.197500 2.313270 93.664000 -10.300800 6.590000
22.575300 2.323590 94.258900 -10.300800 9.800000
22.675600 2.333920 94.677800 -10.300800 13.490000
22.776000 2.344250 95.096800 -10.300800 12.300000
-12.758600 0.842894 98.278700 -10.300800 6.010000
-12.814300 0.538723 98.708100 -10.300800 6.300000
19.558000 0.291851 124.293000 -10.389600 13.060000
19.625000 0.292851 124.719000 -10.389600 13.040000
19.692000 0.293850 125.144000 -10.389600 8.790000
-55.168000 -12.985500 118.576000 -9.324000 6.410000
-54.660300 -13.028100 119.283000 -9.324000 4.770000
-60.450700 -12.688600 157.677000 -9.679200 7.850000
-5.458450 2.601580 176.997000 -10.478400 5.300000
-5.471730 2.607910 177.427000 -10.478400 5.750000
-5.485010 2.614240 177.858000 -10.478400 5.860000
-4.543470 1.542860 181.345000 -10.478400 4.090000
5.568040 -0.390616 4.743870 -7.104000 1.550000
6.147650 -3.443200 7.569640 -8.702400 9.650000
6.546680 -3.555230 7.781260 -8.613600 4.670000
6.601930 -1.723940 10.468800 -9.057600 9.810000
6.453820 0.888845 11.165400 -9.324000 7.730000
6.667490 0.959683 11.535000 -9.324000 7.760000
6.860010 1.489660 11.868100 -9.324000 7.720000
7.071980 1.579920 12.234800 -9.324000 4.390000
-8.650290 1.273640 11.213800 -8.169600 2.780000
6.128670 1.886450 13.172700 -9.679200 5.760000
-8.253250 1.312240 12.033400 -8.524800 6.420000
-8.912420 1.312240 11.553600 -8.169600 4.500000
6.822170 1.771220 13.818700 -9.679200 9.430000
6.377810 1.771430 14.504300 -9.768000 11.230000
-8.252420 1.624350 13.544300 -8.880000 9.510000
6.435180 1.819310 14.946300 -9.768000 4.640000
-8.370610 1.617860 13.979600 -8.880000 6.330000
7.077670 0.948013 15.212500 -9.679200 4.380000
-7.851350 1.207340 14.809100 -9.146400 7.350000
6.805220 0.972321 15.805800 -9.768000 6.560000
-8.948840 1.131940 14.687300 -8.880000 4.160000
6.759210 0.846578 16.300800 -9.945600 4.730000
-8.582090 1.269260 15.390100 -9.057600 4.170000
-9.172570 1.160240 15.054500 -8.880000 5.220000
6.794120 0.923129 16.748700 -9.945600 4.540000
-9.396290 1.188540 15.421700 -8.880000 7.870000
14.026000 1.944750 11.949900 -7.192800 6.790000
7.219370 0.945108 17.038200 -9.856800 4.680000
-8.713870 1.756580 16.746600 -9.235200 7.020000
7.286810 -0.464719 17.963200 -10.034400 10.290000
6.807520 -0.475046 18.609700 -10.123200 3.740000
6.449540 -0.045976 18.742700 -9.945600 7.200000
8.228000 1.668510 17.955600 -9.590400 7.750000
7.450860 -0.045976 18.367600 -9.945600 6.040000
6.151820 -1.777320 20.119700 -10.212000 7.390000
7.827530 0.383118 20.069100 -10.034400 12.210000
5.835750 -1.849860 21.106000 -10.212000 12.630000
7.130490 -1.646620 20.721600 -10.034400 10.530000
5.668410 -1.402370 21.632500 -10.300800 11.580000
6.949130 1.834420 21.677300 -10.123200 9.720000
6.781720 1.869030 22.179800 -10.123200 8.660000
-8.322360 0.971223 21.707700 -9.768000 9.150000
6.903730 2.049720 22.578800 -10.212000 9.070000
-8.476480 0.989209 22.109700 -9.768000 8.920000
7.025340 2.235650 22.976600 -10.212000 8.130000
6.970330 2.275570 23.441300 -10.212000 8.470000
-8.785810 0.949280 22.916500 -9.768000 7.320000
7.432870 0.373463 24.309400 -10.212000 4.900000
7.558850 0.379793 24.721400 -10.212000 8.730000
7.684830 0.386123 25.133400 -10.212000 7.590000
7.810810 0.392453 25.545500 -10.212000 10.320000
4.932750 -1.615220 26.645900 -10.389600 7.920000
6.976510 -1.725990 26.624700 -10.212000 9.930000
5.400270 9.302740 26.326700 -10.300800 7.750000
8.877130 9.443690 25.797400 -10.300800 18.460000
7.208420 0.000000 28.400700 -10.300800 8.470000
7.147720 0.000000 28.860100 -10.300800 4.370000
6.628120 -0.536365 29.420900 -10.389600 8.350000
6.720970 -0.898746 29.833000 -10.389600 10.500000
6.816220 -0.815491 30.255800 -10.389600 5.970000
7.321900 -1.118530 30.571200 -10.389600 8.300000
4.945800 -2.094090 31.431000 -10.389600 4.320000
4.763850 -2.421490 31.872600 -10.389600 4.540000
18.250100 1.823100 26.608900 -8.880000 8.470000
5.076150 -2.453780 32.259400 -10.389600 5.450000
18.493400 1.847410 26.963700 -8.880000 12.200000
4.890880 -2.486070 32.722500 -10.389600 5.070000
18.736700 1.871720 27.318500 -8.880000 11.090000
18.355600 1.736360 28.615600 -9.057600 6.600000
5.814110 -1.119230 33.959700 -10.389600 8.860000
18.585700 1.838190 28.974300 -9.057600 10.560000
18.818100 1.861170 29.336500 -9.057600 10.280000
-6.616830 2.429510 34.623600 -10.300800 7.160000
19.050400 1.884150 29.698700 -9.057600 7.030000
-7.169590 2.459140 34.952300 -10.300800 5.520000
8.049700 0.000000 35.731000 -10.389600 7.260000
7.139460 -0.854503 40.299000 -10.389600 8.920000
9.089450 -0.863497 40.346200 -10.389600 20.210000
-7.050290 1.227860 41.180100 -10.389600 8.230000
-6.802100 1.240520 41.658300 -10.389600 7.930000
19.135700 1.834530 39.524900 -9.679200 5.260000
-23.904700 -4.207400 36.641800 -8.613600 5.990000
19.323300 1.852520 39.912400 -9.679200 8.600000
-23.853200 -4.248650 37.186000 -8.702400 9.450000
19.510900 1.870500 40.299900 -9.679200 5.720000
19.698500 1.888490 40.687400 -9.679200 7.250000
19.248000 2.047600 41.371000 -9.768000 8.190000
19.429600 2.066920 41.761300 -9.768000 8.660000
19.611200 2.086240 42.151600 -9.768000 7.750000
19.792800 2.105550 42.541900 -9.768000 8.750000
19.561600 2.550490 43.572200 -9.768000 6.600000
19.740300 2.461680 43.970100 -9.768000 15.300000
19.916500 2.483660 44.362700 -9.768000 13.550000
19.570700 2.527610 45.454900 -9.856800 6.420000
19.740900 2.549590 45.850200 -9.856800 8.900000
19.914100 2.415840 46.252500 -9.856800 10.630000
-26.676200 -0.911821 43.782300 -8.880000 5.510000
19.783100 2.477790 47.709600 -9.856800 10.690000
-26.559300 -0.919483 44.356200 -8.880000 6.640000
19.947900 2.498440 48.107200 -9.856800 11.130000
-26.435100 -0.927146 44.931000 -8.968800 12.790000
-11.523800 2.248200 52.567300 -11.899200 5.460000
-11.616000 2.266190 52.987800 -11.899200 8.810000
-11.706600 2.453260 53.401200 -11.899200 10.290000
-11.798800 2.472580 53.821700 -11.899200 12.710000
10.195100 0.996107 55.072400 -10.389600 8.250000
10.274100 0.829214 55.498800 -10.389600 6.950000
10.352900 0.659649 55.924800 -10.389600 7.520000
-24.574900 0.000000 51.773300 -9.412800 7.330000
20.651800 2.410070 53.867200 -10.034400 5.860000
-25.560800 0.000000 51.774700 -9.412800 6.360000
20.805900 2.428060 54.269200 -10.034400 5.810000
-23.818200 -1.394160 53.053500 -9.501600 11.840000
20.840100 2.482010 55.637400 -10.034400 10.950000
20.798300 2.431490 59.324200 -10.123200 10.520000
20.943200 2.252380 59.737400 -10.123200 13.660000
21.085600 2.267700 60.143800 -10.123200 6.840000
21.228100 2.283020 60.550200 -10.123200 8.620000
21.012800 2.697840 61.064400 -10.123200 13.690000
21.150100 2.916870 61.463300 -10.123200 6.420000
20.815400 2.733810 62.040900 -10.123200 6.910000
20.952400 2.751800 62.449100 -10.123200 9.400000
21.092000 2.564720 62.865100 -10.123200 6.060000
21.231400 2.374960 63.280500 -10.123200 8.910000
21.368300 2.390280 63.688800 -10.123200 8.520000
21.505300 2.405600 64.097100 -10.123200 8.520000
21.642300 2.420920 64.505300 -10.123200 7.330000
20.393700 2.859710 65.344900 -10.123200 7.070000
20.522000 2.877700 65.755900 -10.123200 7.270000
20.650300 2.895680 66.166900 -10.123200 8.100000
20.778500 2.913670 66.577900 -10.123200 15.160000
21.422500 2.931650 66.825700 -10.123200 19.520000
20.645100 2.949640 67.520300 -10.212000 19.300000
-2.738290 1.868830 71.021200 -10.478400 14.390000
20.775900 2.528180 67.948300 -10.123200 9.910000
20.901900 2.543500 68.360100 -10.123200 14.560000
21.667200 2.278510 74.439300 -10.212000 6.820000
21.208000 2.532260 75.011300 -10.212000 8.320000
21.905800 2.546260 75.259200 -10.212000 14.270000
22.026200 2.560250 75.672700 -10.212000 7.610000
21.760300 2.208620 81.128900 -10.300800 5.880000
21.873100 2.024110 81.549700 -10.300800 8.540000
-17.226800 -1.789960 83.981800 -10.212000 5.850000
-17.800900 -1.798950 84.302300 -10.300800 5.870000
22.876200 2.321880 85.289300 -10.300800 16.000000
21.937000 2.137710 86.430200 -10.300800 12.580000
22.711700 2.148030 86.675300 -10.300800 6.050000
22.820900 2.158360 87.092000 -10.300800 5.600000
-12.454100 2.401170 90.466000 -10.389600 5.700000
22.574400 1.915880 88.941600 -10.300800 5.570000
22.369100 2.230650 90.318800 -10.300800 8.830000
22.474200 1.951860 90.743300 -10.300800 10.190000
22.577700 1.960860 91.161500 -10.300800 7.820000
22.682700 1.678060 91.585100 -10.300800 7.680000
23.299700 2.548410 94.076600 -10.300800 6.160000
23.403300 2.559730 94.494800 -10.300800 6.730000
-13.574000 1.154390 98.601200 -10.389600 5.680000
-13.750700 -0.857553 99.884900 -10.389600 10.140000
21.230400 1.848330 124.005000 -10.478400 9.620000
21.303100 1.854660 124.430000 -10.478400 5.900000
20.412900 1.860990 125.015000 -10.478400 13.250000
-54.464600 -13.389900 118.856000 -9.324000 15.390000
-54.643200 -13.433800 119.246000 -9.324000 9.680000
-55.269200 -18.250000 118.794000 -9.324000 7.150000
-55.349500 -19.934100 118.966000 -9.324000 5.230000
-55.529200 -19.998800 119.352000 -9.324000 5.650000
-54.506600 -9.332870 123.958000 -9.412800 6.470000
22.893000 4.236020 159.466000 -10.478400 6.420000
22.954300 4.247350 159.892000 -10.478400 7.490000
23.015500 4.258670 160.319000 -10.478400 5.830000
-4.446200 2.058910 177.463000 -10.567200 4.940000
-4.456990 2.063900 177.894000 -10.567200 8.530000
-4.532350 2.658550 180.902000 -10.478400 7.690000
-4.543470 1.542860 181.345000 -10.478400 8.240000
-2.157280 1.165160 8.710400 2.397600 1.490000
-2.259090 1.249710 9.121480 2.397600 8.560000
-2.800090 1.306520 9.416710 2.397600 10.530000
-2.385690 1.426710 9.961010 2.397600 8.780000
6.957040 -1.175900 8.702470 -8.613600 6.490000
6.698670 1.077900 9.451080 -8.968800 10.570000
7.224620 -1.221120 9.037180 -8.613600 5.480000
6.212240 1.738370 10.195800 -9.324000 6.900000
6.352530 1.800460 10.609300 -9.324000 4.070000
6.541040 0.848956 11.117600 -9.412800 7.810000
6.759080 0.877254 11.488200 -9.324000 9.170000
6.983100 0.703336 11.869000 -9.324000 7.780000
7.098560 1.722420 14.171500 -9.679200 3.730000
-8.148970 1.718620 14.098100 -9.057600 2.520000
6.964330 1.712150 15.198000 -9.856800 4.450000
-8.363410 1.763850 14.469100 -9.057600 6.620000
6.365960 1.384470 15.957400 -10.034400 4.170000
-8.226930 1.915060 15.024300 -9.146400 6.840000
7.346730 1.051180 16.032500 -9.945600 3.550000
-8.551050 1.962940 15.334500 -9.146400 6.850000
7.524500 1.132680 16.420400 -9.856800 7.880000
-9.267180 1.453690 15.477000 -8.968800 6.450000
6.928710 1.887760 17.080500 -10.034400 3.490000
7.089840 1.931660 17.477700 -9.945600 6.450000
-7.902840 1.915890 17.603000 -9.590400 6.360000
6.947550 -0.766086 18.548100 -10.123200 9.510000
-7.939530 1.958470 18.055900 -9.590400 4.570000
6.952310 -0.782740 19.005500 -10.212000 12.790000
6.992890 -0.175908 19.464400 -10.212000 12.720000
8.828410 -1.979950 18.599300 -9.679200 4.720000
-9.230280 1.741050 18.427300 -9.412800 10.800000
5.165610 -2.216110 20.352200 -10.389600 8.430000
8.755430 -2.021200 19.106600 -9.679200 4.300000
5.269290 -2.327590 20.760600 -10.389600 11.230000
5.088580 -2.374150 21.246400 -10.389600 9.080000
6.906240 2.012460 22.128800 -10.300800 4.050000
6.903730 2.049720 22.578800 -10.300800 8.790000
-8.289700 1.775760 22.131300 -9.856800 4.420000
7.029250 2.086990 22.989400 -10.300800 2.770000
-8.617680 1.659180 22.478000 -9.856800 5.180000
6.977820 1.972870 23.466500 -10.300800 6.110000
-8.785810 0.949280 22.916500 -9.856800 5.300000
6.453600 2.007480 24.061000 -10.389600 6.720000
7.570820 0.746845 24.258200 -10.300800 4.600000
7.701240 0.459742 24.676100 -10.300800 4.880000
7.829990 0.386123 25.088600 -10.300800 3.370000
7.958350 0.392453 25.499900 -10.300800 10.250000
8.260290 -2.180540 25.767300 -10.389600 18.310000
6.718830 1.839400 27.128400 -10.478400 7.530000
-13.804600 1.666500 24.313200 -13.408800 5.920000
5.332240 1.362780 27.901800 -10.478400 4.300000
-14.017000 1.692140 24.687200 -13.408800 5.470000
4.481800 1.472610 28.482300 -10.478400 5.180000
7.199040 1.494590 28.363700 -10.389600 8.170000
8.556470 1.494590 27.984200 -10.389600 6.290000
6.753550 -1.057240 28.935600 -10.478400 5.780000
-13.511700 1.057240 26.463400 -13.675200 6.120000
6.851430 -1.072560 29.355000 -10.478400 7.810000
-7.416520 -0.979329 29.220600 -10.300800 7.690000
-13.707600 1.072560 26.847000 -13.675200 9.970000
6.547090 -1.087880 29.865300 -10.478400 8.270000
-7.522470 -0.993319 29.638000 -10.300800 7.680000
6.814260 -1.103210 30.247100 -10.478400 5.570000
-13.277600 1.941740 27.972700 -13.941600 8.580000
4.885870 -1.215740 31.050100 -10.567200 5.520000
-13.462000 1.968710 28.361200 -13.941600 9.330000
5.124050 -2.389210 31.381400 -10.567200 8.160000
6.663720 -2.022650 31.558300 -10.478400 9.050000
8.182740 0.500061 33.039200 -10.478400 8.490000
18.579300 2.051080 28.964200 -9.235200 6.200000
18.811500 2.076710 29.326200 -9.235200 7.790000
7.090770 -1.802300 34.568100 -10.478400 6.290000
19.040100 2.211430 29.682700 -9.235200 5.420000
7.183500 -1.050650 35.020100 -10.478400 5.950000
6.793560 -0.531710 35.548400 -10.567200 5.230000
7.083000 -0.084957 35.935000 -10.567200 5.970000
7.935270 -0.085956 36.197700 -10.478400 8.370000
7.124000 -1.012050 41.610600 -10.567200 7.290000
19.379200 1.912380 37.955100 -9.679200 7.530000
-16.488200 1.931700 39.763700 -11.011200 8.620000
-23.101300 -4.300110 36.632100 -8.791200 11.280000
19.130400 2.106120 39.514000 -9.768000 6.530000
-23.330000 -4.342690 36.994700 -8.791200 14.200000
19.317900 2.126770 39.901400 -9.768000 12.710000
-23.846000 -4.385260 37.174800 -8.791200 7.520000
19.505500 2.147420 40.288700 -9.768000 9.530000
-26.801300 1.732020 35.874100 -8.436000 6.560000
19.693000 2.168060 40.676100 -9.768000 9.540000
-27.059000 1.748670 36.219000 -8.436000 15.970000
19.245300 2.188710 41.365100 -9.856800 10.110000
-27.319900 1.624160 36.568100 -8.436000 18.780000
19.426800 2.209360 41.755300 -9.856800 8.520000
-27.292300 1.639490 37.124600 -8.347200 13.340000
19.608400 2.230010 42.145600 -9.856800 9.990000
19.790000 2.250660 42.535800 -9.856800 15.730000
-6.150560 2.291950 47.377400 -10.567200 8.380000
19.564000 2.439700 43.577500 -9.945600 13.940000
19.743300 2.312600 43.976800 -9.945600 13.320000
19.919600 2.333250 44.369400 -9.945600 6.890000
19.576500 2.221460 45.468400 -9.945600 6.780000
19.746700 2.240770 45.863800 -9.945600 6.600000
19.914100 2.415840 46.252500 -9.945600 13.060000
19.781200 2.230220 49.584900 -10.034400 9.990000
-11.522300 2.414630 52.560200 -12.076800 7.670000
20.100200 2.266190 50.384700 -10.123200 6.050000
-11.708200 2.284170 53.408300 -12.076800 8.910000
-12.111300 2.302160 53.759800 -12.165600 11.800000
10.513800 0.822885 55.015300 -10.567200 5.620000
10.594700 0.829214 55.438500 -10.567200 6.510000
10.676000 0.659649 55.864000 -10.567200 10.100000
10.756900 0.664647 56.287200 -10.567200 11.240000
-23.644900 -1.026760 52.667300 -9.590400 7.540000
-23.819900 -1.214290 53.057200 -9.679200 14.860000
20.536400 1.456120 57.162400 -10.212000 5.240000
20.829200 1.286250 57.977200 -10.212000 14.290000
20.524300 1.295250 58.542500 -10.212000 8.670000
26.353500 -0.917833 56.643300 -9.856800 6.050000
20.455000 2.431490 59.443500 -10.212000 7.550000
20.595100 2.448140 59.850600 -10.212000 5.780000
20.735200 2.464800 60.257700 -10.212000 6.880000
20.877700 2.283020 60.671900 -10.212000 7.810000
20.546500 2.298340 61.239200 -10.300800 7.450000
18.419300 1.149350 61.944300 -9.235200 7.530000
20.669600 3.318870 61.606200 -10.212000 6.820000
18.543000 0.955812 62.360400 -9.235200 8.580000
20.806500 3.340850 62.014200 -10.212000 8.250000
20.943400 3.362830 62.422200 -10.212000 6.710000
21.086500 2.974820 62.848800 -10.212000 9.870000
20.740600 2.581380 63.435000 -10.300800 6.990000
20.874400 2.598030 63.844300 -10.300800 13.850000
