VERSION .7
FIELDS x y z velocity intensity
SIZE 4 4 4 4 4
TYPE F F F F F
COUNT 1 1 1 1 1
WIDTH 974
HEIGHT 1
VIEWPOINT 0 0 0 1 0 0 0
POINTS 974
DATA ascii
6.862490 -3.725000 13.900300 -10.567200 8.560000
4.639650 -1.768970 15.603200 -11.011200 6.910000
5.709960 -1.768970 15.244100 -10.833600 7.070000
6.632460 -3.825680 14.473700 -10.656000 8.690000
5.860220 -1.815520 15.645200 -10.833600 7.650000
4.215430 -1.862070 16.608500 -11.100000 7.120000
3.863800 -1.745590 17.150600 -11.011200 7.120000
4.199470 -1.565240 17.534100 -11.100000 9.490000
4.438570 -1.559690 17.921500 -11.100000 9.870000
6.008180 -1.639780 17.907500 -11.011200 7.150000
-7.094200 1.814960 17.488400 -10.478400 4.090000
6.306020 -0.629569 18.325600 -10.922400 7.120000
8.544430 1.856210 17.307200 -10.478400 6.290000
-7.905230 1.856210 17.608300 -10.300800 5.930000
6.443930 -0.827338 18.726400 -11.011200 10.070000
8.751920 1.424050 17.727500 -10.478400 6.980000
-8.080900 1.897460 17.999600 -10.300800 5.410000
6.434570 -0.970467 19.178400 -10.922400 10.390000
-7.318400 2.125660 18.763800 -10.567200 6.260000
6.571470 -0.991115 19.586400 -10.922400 8.930000
-7.214970 2.170890 19.262000 -10.567200 9.600000
6.844430 -1.826120 19.890300 -11.011200 8.310000
-7.215830 2.151160 19.725900 -10.567200 11.820000
5.998700 -1.863390 20.609000 -11.100000 9.800000
-7.365390 2.128770 20.134700 -10.656000 11.480000
6.803840 -1.900650 20.809500 -11.011200 11.130000
-7.521350 1.900650 20.561100 -10.656000 8.940000
7.859610 -0.051973 20.983100 -10.922400 4.420000
-7.668830 1.937920 20.964200 -10.656000 10.070000
7.845680 -0.052973 21.447700 -10.922400 8.370000
-7.991810 1.570290 21.336000 -10.656000 9.080000
7.401410 0.000000 22.060100 -10.922400 9.690000
-8.142600 1.599920 21.738600 -10.656000 6.640000
8.313070 0.000000 22.193700 -10.833600 8.150000
-7.123260 0.000000 23.955600 -10.922400 3.930000
6.428850 1.748060 24.534600 -11.188800 6.720000
8.017290 1.697910 24.520800 -11.011200 5.820000
-8.171960 1.839400 26.726600 -10.833600 8.900000
18.357000 1.925830 21.066200 -8.968800 9.960000
18.635400 2.043200 21.385700 -8.968800 8.560000
18.245000 2.195490 22.822400 -9.235200 9.950000
-6.747060 1.677250 28.907800 -11.100000 7.100000
18.513300 2.227770 23.158000 -9.235200 6.870000
-7.239770 1.701560 29.231800 -11.011200 4.840000
18.781600 2.260060 23.493600 -9.235200 6.180000
-7.513110 1.820330 29.601100 -11.011200 10.880000
-7.617490 1.941740 30.012400 -11.011200 5.950000
18.347300 1.750180 24.957000 -9.501600 12.030000
7.319160 -1.410140 30.559800 -11.188800 7.240000
-7.723280 1.968710 30.429200 -11.011200 8.690000
18.598700 1.871610 25.299100 -9.501600 10.270000
18.853500 1.897250 25.645700 -9.501600 9.960000
7.759150 -1.648440 31.328900 -11.188800 12.550000
19.108300 1.922880 25.992200 -9.501600 6.080000
-15.857800 1.456830 31.058300 -11.988000 15.690000
18.582600 1.907120 30.498600 -10.034400 5.920000
18.806400 1.930100 30.866100 -10.034400 5.000000
19.030300 1.953080 31.233500 -10.034400 7.450000
19.254200 1.976060 31.601000 -10.034400 6.040000
18.695900 2.022010 32.927800 -10.212000 10.340000
-14.023000 2.373240 35.151000 -13.941600 9.600000
-18.446600 1.817040 33.080000 -13.586400 8.900000
19.164400 2.044990 33.155300 -10.212000 5.360000
-13.907900 2.400210 35.658700 -13.852800 9.050000
19.379800 2.067960 33.527800 -10.212000 8.260000
19.595100 2.090940 33.900300 -10.212000 6.540000
9.633370 0.735587 40.222300 -11.277600 17.000000
19.075000 1.854430 36.659000 -10.389600 5.860000
9.734200 0.613998 40.643400 -11.277600 10.420000
19.271000 2.002880 37.035600 -10.389600 5.680000
9.834550 0.620328 41.062400 -11.277600 10.960000
19.469600 2.023530 37.417400 -10.389600 7.480000
9.934910 0.626658 41.481400 -11.277600 5.970000
19.668300 2.044180 37.799200 -10.389600 14.590000
7.842810 -0.632988 42.365500 -11.277600 4.780000
9.318350 -0.639318 42.506800 -11.188800 5.450000
19.460200 2.455110 38.850300 -10.478400 13.770000
9.365580 -4.342690 42.722200 -11.277600 6.650000
19.652900 2.479420 39.234900 -10.478400 7.940000
9.457400 -4.385260 43.141100 -11.188800 6.300000
19.845500 2.503730 39.619600 -10.478400 10.370000
19.391000 1.468990 40.852100 -10.567200 4.720000
19.575700 1.482980 41.241200 -10.567200 7.420000
19.762300 1.354450 41.634200 -10.567200 17.320000
19.559500 1.234560 42.683800 -10.656000 9.880000
19.738900 1.245890 43.075400 -10.656000 8.820000
19.918400 1.257210 43.467000 -10.656000 6.250000
20.097800 1.268540 43.858600 -10.656000 11.590000
19.755700 2.050360 44.928100 -10.656000 9.100000
19.929000 2.068350 45.322200 -10.656000 8.580000
10.024200 3.128360 48.868900 -11.277600 10.420000
20.102300 2.086330 45.716300 -10.656000 4.950000
19.824600 1.808030 46.787300 -10.744800 7.500000
19.985100 2.298720 47.166200 -10.744800 9.540000
20.153100 2.318040 47.562600 -10.744800 6.830000
-22.880400 -1.519010 46.345400 -10.123200 8.980000
20.318100 2.498440 47.952000 -10.744800 12.210000
-23.071000 -1.531670 46.731600 -10.123200 6.660000
-22.899800 -1.381800 47.299800 -10.212000 11.780000
17.104700 0.447100 49.707300 -9.945600 10.410000
20.274500 2.703450 48.894900 -10.744800 5.510000
-22.719300 -1.393130 47.864000 -10.212000 10.900000
10.019600 2.395310 52.429100 -11.366400 15.480000
20.058800 2.725430 49.448500 -10.744800 14.760000
-4.985490 1.790770 54.900200 -11.366400 13.270000
20.426300 1.790770 51.202100 -10.833600 4.470000
20.585900 1.804760 51.602100 -10.833600 11.750000
-5.063390 1.818750 55.758000 -11.366400 5.200000
-22.922700 2.338130 51.058700 -10.300800 6.450000
20.340800 2.549850 53.056100 -10.833600 11.390000
20.494900 2.569160 53.458000 -10.833600 16.510000
20.646100 2.766860 53.852200 -10.833600 16.890000
19.964200 2.607800 54.576100 -10.922400 7.510000
20.540600 2.264950 54.837900 -10.922400 12.720000
20.691600 2.281600 55.241100 -10.922400 8.050000
-22.190600 -0.136930 54.703600 -10.478400 9.000000
20.842700 2.298260 55.644300 -10.922400 7.340000
20.387900 1.772180 56.748800 -10.922400 8.450000
20.533500 1.784830 57.154100 -10.922400 9.550000
20.945400 2.056590 59.743700 -11.011200 8.150000
20.739800 2.070580 60.271000 -11.011200 6.640000
20.879900 2.084570 60.678200 -11.011200 6.800000
21.020100 2.098560 61.085500 -11.011200 8.450000
-9.364530 1.936730 65.230500 -11.366400 8.140000
-10.310400 1.949390 65.523700 -11.366400 6.540000
-7.270390 1.949390 65.930300 -11.366400 6.330000
-19.779800 -0.784583 64.690400 -10.833600 4.510000
-16.853200 1.006450 66.400300 -11.011200 14.690000
-7.996640 2.681300 68.860300 -11.366400 5.830000
-7.647340 2.266450 69.348600 -11.366400 12.880000
20.787700 2.050660 66.607200 -11.100000 6.240000
-7.694540 2.280440 69.776700 -11.366400 14.090000
-17.390100 -2.797880 70.215700 -11.011200 6.730000
-15.992700 -2.814530 70.988500 -11.100000 6.080000
21.541600 1.310260 70.452500 -11.100000 5.900000
21.360600 2.202560 71.835700 -11.100000 10.740000
12.724200 0.874535 74.321100 -11.366400 6.250000
21.483300 2.215220 72.248500 -11.100000 6.540000
12.796900 0.879532 74.745800 -11.366400 8.800000
21.606100 2.227880 72.661400 -11.100000 8.070000
12.870000 0.648662 75.172800 -11.366400 9.950000
-13.931600 -5.037140 75.256000 -11.188800 7.820000
-14.009800 -5.065440 75.678700 -11.188800 5.360000
-17.823100 1.152040 76.363000 -11.100000 5.540000
-20.204700 0.924508 77.107900 -11.100000 7.140000
-17.161200 0.929506 78.283000 -11.100000 5.970000
22.502300 1.982800 79.589100 -11.188800 5.960000
22.619500 1.993130 80.003700 -11.188800 7.080000
22.271400 2.003450 80.548300 -11.188800 6.430000
22.383000 2.468390 80.951800 -11.188800 6.530000
22.497800 2.481050 81.366900 -11.188800 6.230000
22.605400 3.280840 81.756300 -11.188800 5.250000
22.207900 2.055090 82.797900 -11.188800 5.790000
-1.010500 3.380770 87.401500 -11.455200 11.950000
-1.015480 3.397420 87.832100 -11.455200 11.960000
-0.512887 2.607630 88.725600 -11.455200 10.320000
-0.515377 2.620290 89.156300 -11.455200 10.220000
-4.659120 2.355860 89.475000 -11.455200 10.530000
-55.230300 -9.266250 110.262000 -10.034400 7.390000
-55.422700 -9.298540 110.646000 -10.034400 6.600000
-55.639900 -8.562540 111.079000 -10.034400 5.050000
-61.323500 -4.077450 142.430000 -10.300800 12.720000
-6.258320 1.884000 162.318000 -11.455200 7.610000
-6.274920 1.889000 162.748000 -11.455200 5.850000
-5.033820 1.388940 163.228000 -11.455200 7.050000
-7.273310 0.380806 164.011000 -11.455200 6.890000
-6.391320 1.410930 165.767000 -11.455200 6.760000
-6.407920 1.414600 166.198000 -11.455200 5.590000
-6.424520 1.418260 166.628000 -11.455200 6.090000
-6.441120 1.421930 167.059000 -11.455200 6.060000
-5.166640 1.425590 167.534000 -11.455200 7.290000
-47.502200 -14.363900 171.799000 -10.922400 4.770000
-47.647500 -12.878300 172.325000 -10.922400 5.030000
5.362840 0.578928 3.561120 -4.173600 3.230000
5.720370 0.617523 3.798530 -4.528800 6.690000
6.079550 0.633551 4.037040 -4.528800 5.840000
4.960880 -0.617523 4.747750 -7.725600 2.270000
5.711630 -0.390616 4.569990 -7.015200 3.090000
6.437170 0.670819 4.274510 -4.706400 1.150000
5.507720 -0.656118 4.784820 -7.370400 6.820000
5.731390 -0.718601 5.176240 -7.548000 6.930000
6.656320 -0.240510 4.760680 -6.571200 6.690000
7.144180 -0.851507 4.744000 -6.038400 4.230000
7.181340 -0.237851 5.500400 -6.748800 5.010000
6.675850 1.320990 8.350730 -8.791200 4.400000
6.192810 1.163800 8.737360 -9.235200 5.180000
6.370290 1.210350 9.136220 -9.235200 6.680000
6.394180 1.256900 9.638030 -9.324000 5.440000
6.908010 0.106278 10.412500 -9.324000 9.580000
7.146220 0.109943 10.771600 -9.324000 16.060000
5.788670 -1.402030 11.956500 -10.034400 10.210000
7.298420 0.113607 11.187200 -9.412800 17.760000
6.070350 -1.447260 12.295800 -10.034400 9.520000
7.533850 0.117272 11.548100 -9.412800 15.390000
-8.547840 1.536210 11.259400 -8.791200 6.950000
7.467930 -1.142190 12.046800 -9.768000 6.200000
6.745060 -1.052560 12.962900 -9.856800 9.200000
5.326730 -0.341801 15.479800 -10.389600 3.660000
5.558650 -0.350796 15.855300 -10.478400 9.130000
7.438160 -0.298832 15.066400 -10.034400 6.320000
-8.624450 0.753364 14.403600 -9.412800 8.280000
-9.410620 0.666161 14.424800 -9.146400 5.140000
5.919990 -0.359791 16.183400 -10.478400 6.870000
-8.501680 0.772681 14.973400 -9.501600 9.050000
6.050820 -1.378230 16.541100 -10.478400 7.980000
-7.803950 1.160240 15.807300 -9.768000 6.130000
-8.714220 0.791998 15.347800 -9.501600 5.550000
5.969300 -1.411840 17.026600 -10.478400 8.030000
7.732960 1.523420 16.291400 -10.123200 9.530000
-7.994300 1.188540 16.192900 -9.768000 8.720000
7.217160 -2.106570 17.405200 -10.389600 5.520000
7.965650 1.698190 17.121100 -10.123200 8.290000
4.244480 -1.736780 18.840400 -10.833600 5.840000
7.892520 -2.154440 17.580000 -10.212000 6.150000
5.371040 -1.775380 18.997000 -10.656000 8.050000
-7.810670 1.668510 18.141000 -10.123200 5.520000
-7.873190 1.704780 18.581200 -10.123200 6.180000
6.707350 -1.076980 19.991400 -10.567200 6.080000
6.011670 -1.215400 20.653600 -10.656000 5.310000
-6.984120 1.863390 20.296200 -10.389600 9.480000
6.131910 -1.239710 21.066600 -10.656000 6.120000
-7.123800 1.900650 20.702200 -10.389600 7.640000
6.094360 -0.537008 21.555400 -10.744800 7.290000
-7.263480 1.937920 21.108100 -10.389600 10.090000
6.211560 -0.547335 21.969900 -10.744800 5.260000
-7.407000 1.834420 21.525100 -10.389600 10.410000
6.026690 -0.485717 22.469300 -10.656000 8.660000
-7.210840 1.743480 22.054300 -10.478400 10.980000
8.011230 -0.494712 22.298900 -10.567200 5.810000
18.215500 1.362710 19.495500 -8.258400 7.800000
18.509300 1.384690 19.809900 -8.258400 5.500000
6.727490 1.169060 27.163400 -10.833600 5.430000
18.436400 1.867700 21.573400 -8.613600 8.840000
6.986460 1.516510 27.526200 -10.833600 6.580000
18.546400 1.896000 22.043900 -8.702400 5.440000
6.930670 1.539480 27.983700 -10.833600 8.920000
18.823200 1.924300 22.372900 -8.702400 8.110000
18.604200 2.167030 23.643100 -8.880000 9.510000
18.638100 2.197980 24.161500 -8.968800 4.750000
18.900600 2.228940 24.501800 -8.968800 10.170000
-6.498520 0.267527 30.775900 -10.744800 5.600000
18.624700 1.232400 25.852600 -9.146400 10.300000
-6.587070 0.468411 31.195300 -10.744800 9.900000
18.876300 1.249050 26.202000 -9.146400 8.340000
19.128000 1.265710 26.551300 -9.146400 6.120000
19.381900 1.179820 26.903800 -9.146400 6.390000
7.527980 1.974160 32.253700 -10.833600 9.700000
18.554400 1.792240 27.967300 -9.412800 4.350000
7.625740 1.999800 32.672500 -10.833600 9.440000
18.792300 1.815210 28.325800 -9.412800 10.660000
19.030200 1.838190 28.684400 -9.412800 11.650000
19.270400 1.780320 29.046400 -9.412800 8.500000
18.588200 1.968950 29.475600 -9.501600 4.600000
18.814400 2.102350 29.834200 -9.501600 7.300000
19.043800 2.127990 30.198000 -9.501600 6.880000
19.040500 2.041870 30.715000 -9.590400 7.100000
18.785800 2.066180 31.373900 -9.679200 10.570000
18.860700 2.067960 33.822600 -9.856800 4.810000
19.070200 2.090940 34.198400 -9.856800 8.540000
19.472400 1.893070 37.422700 -9.945600 12.940000
9.695650 0.362811 41.541100 -10.833600 11.870000
19.671100 1.912380 37.804600 -9.945600 14.580000
9.469900 0.366476 42.034900 -10.833600 6.200000
19.574900 1.931700 38.338500 -9.945600 6.610000
10.136300 0.370140 42.322400 -10.833600 8.630000
20.065600 2.085470 38.562800 -9.945600 6.140000
19.434400 2.106120 39.365300 -10.123200 7.840000
8.569280 -2.503730 43.475500 -10.922400 7.050000
19.624900 2.126770 39.751300 -10.123200 5.780000
8.652480 -2.528040 43.897600 -10.833600 5.500000
19.815400 2.147420 40.137200 -10.123200 6.270000
8.735680 -2.552340 44.319700 -10.833600 5.210000
20.006000 2.168060 40.523100 -10.123200 8.950000
8.749480 0.244874 44.389800 -10.922400 14.460000
8.916140 0.249538 45.235300 -10.922400 14.930000
19.432200 1.924460 41.766900 -10.212000 15.360000
19.613800 1.942450 42.157300 -10.212000 7.210000
19.795500 1.960430 42.547600 -10.212000 14.020000
19.761700 1.007410 44.017800 -10.212000 9.330000
19.936800 1.166960 44.407700 -10.212000 12.650000
19.751800 1.931870 45.875600 -10.300800 8.610000
19.919600 2.104320 46.265300 -10.300800 9.310000
20.089900 2.122300 46.660800 -10.300800 7.540000
20.260200 2.140290 47.056200 -10.300800 9.630000
20.430400 2.158270 47.451600 -10.300800 6.790000
6.359690 0.759586 51.309800 -10.922400 6.450000
20.607800 1.692840 47.863600 -10.300800 12.140000
20.498800 1.706830 48.378400 -10.300800 10.650000
20.666800 1.720820 48.775000 -10.300800 9.770000
17.130200 0.957795 51.056900 -9.590400 9.660000
19.945500 1.915290 49.996800 -10.389600 9.750000
20.105000 1.930610 50.396800 -10.389600 16.750000
20.264600 1.945930 50.796700 -10.389600 16.480000
-4.668060 1.790770 54.928100 -10.922400 6.220000
20.424200 1.961250 51.196700 -10.389600 11.550000
-4.243110 2.302160 54.943500 -10.922400 7.290000
20.185500 1.976580 51.753800 -10.389600 5.960000
20.341900 1.991900 52.155000 -10.389600 13.880000
20.498400 2.007220 52.556200 -10.389600 5.830000
20.654900 2.022540 52.957400 -10.389600 15.310000
-8.902670 2.037870 56.577300 -11.011200 12.290000
-5.948530 2.037870 56.963700 -11.011200 12.020000
20.847200 1.930680 55.656600 -10.567200 9.710000
20.998300 1.944670 56.059900 -10.567200 7.530000
20.715600 1.772180 56.630000 -10.567200 13.540000
-19.386100 -3.524660 59.292200 -10.478400 15.900000
-17.788000 -2.374960 64.333400 -10.656000 7.350000
-17.902800 -2.390280 64.748400 -10.656000 8.850000
-19.766400 -2.614680 64.646400 -10.478400 14.940000
-19.892300 -2.631340 65.058100 -10.478400 4.480000
20.913600 0.794577 65.238300 -10.656000 5.250000
-20.411500 0.158919 65.401800 -10.478400 10.730000
21.424200 0.799575 65.525900 -10.656000 13.520000
21.557300 1.019110 65.932700 -10.656000 11.890000
21.568000 1.475140 67.279700 -10.656000 6.800000
21.699500 1.484140 67.689900 -10.656000 7.800000
21.831000 1.493130 68.100200 -10.656000 9.030000
21.162500 1.511120 69.212400 -10.656000 7.950000
21.690500 1.520120 69.500100 -10.656000 5.390000
21.818900 1.529110 69.911400 -10.656000 8.640000
21.947200 1.538100 70.322600 -10.656000 8.230000
21.783300 2.650760 71.242700 -10.744800 7.890000
21.906700 2.897800 71.646300 -10.744800 10.780000
21.476500 2.914460 72.225700 -10.744800 7.070000
21.307900 2.004750 73.204900 -10.744800 11.860000
21.428300 2.016070 73.618500 -10.744800 8.830000
-28.419300 0.652327 71.237900 -10.212000 13.050000
-28.992600 0.655991 71.471700 -10.123200 6.900000
21.972300 2.504280 73.892900 -10.744800 9.440000
22.386600 1.718000 79.180100 -10.744800 8.460000
22.736700 2.003450 80.418200 -10.744800 9.320000
22.853900 2.013780 80.832700 -10.744800 4.590000
22.972600 1.762970 81.252900 -10.744800 7.140000
21.986300 1.771970 81.971400 -10.744800 5.010000
-27.617900 1.246990 80.259300 -10.389600 6.850000
22.097900 1.780960 82.387500 -10.744800 10.350000
-27.758100 1.253320 80.666700 -10.389600 12.500000
22.209500 1.789960 82.803600 -10.744800 11.650000
-27.896900 1.524810 81.070000 -10.389600 8.470000
22.319500 2.065420 83.214000 -10.744800 8.970000
23.075000 2.075740 83.454700 -10.744800 8.310000
23.189800 2.086070 83.869900 -10.744800 6.540000
23.304600 2.096400 84.285100 -10.744800 6.650000
19.542500 1.299310 110.309000 -10.922400 10.640000
19.618300 0.956501 110.736000 -10.922400 10.690000
19.693900 0.611019 111.163000 -10.922400 10.170000
21.780900 2.620530 145.726000 -11.011200 8.610000
21.844600 2.628190 146.152000 -11.011200 8.170000
21.060700 2.635850 146.702000 -11.011200 6.080000
-59.465600 -9.735670 143.410000 -10.123200 5.440000
-59.630400 -9.762640 143.807000 -10.123200 9.300000
-59.757700 -11.237600 144.114000 -10.034400 12.310000
-59.908700 -11.752300 144.478000 -10.034400 11.060000
-6.291520 1.893990 163.179000 -11.011200 4.990000
-6.308120 1.898990 163.609000 -11.011200 6.090000
-6.324910 1.396270 164.045000 -11.011200 5.690000
-5.140250 0.386803 166.679000 -11.011200 4.780000
-5.153530 0.387802 167.109000 -11.011200 6.160000
-5.166810 0.388802 167.540000 -11.011200 7.270000
-5.180110 0.000000 167.971000 -11.011200 8.470000
-48.790300 -11.245900 172.568000 -10.567200 5.450000
5.372230 -0.373647 4.965830 -7.725600 0.450000
5.606960 -0.526278 4.684560 -7.192800 3.420000
5.194260 -1.141260 5.645870 -8.347200 5.660000
5.647550 -0.395627 5.301630 -7.814400 5.830000
5.934020 -0.605076 4.957810 -7.281600 5.790000
5.425160 -1.204660 6.012070 -8.436000 7.760000
5.649460 -1.268060 6.383220 -8.524800 8.570000
5.522130 -0.377698 7.158630 -8.791200 7.270000
5.668800 -0.395683 7.587800 -8.880000 4.220000
7.028220 0.424974 6.347450 -7.636800 6.880000
7.273280 -0.197885 6.076750 -7.370400 5.500000
6.865490 1.388420 10.348400 -9.501600 7.200000
7.062480 0.189896 10.825600 -9.501600 6.760000
7.297890 0.196226 11.186400 -9.501600 8.650000
5.055960 -1.986710 12.673600 -10.389600 17.850000
4.771500 -1.743710 13.281300 -10.389600 6.430000
4.916090 -1.796550 13.683700 -10.389600 6.440000
5.252190 -1.803090 14.021900 -10.389600 7.760000
7.044480 -1.130030 13.287200 -9.856800 7.180000
5.513250 -1.854610 14.380500 -10.389600 7.610000
7.245750 -1.162320 13.666800 -9.856800 7.460000
6.520550 -0.850163 14.524100 -10.212000 3.200000
-7.602400 1.906120 13.883800 -9.590400 10.380000
6.811550 -0.873141 14.864600 -10.212000 7.060000
7.238270 -0.873141 14.661500 -10.034400 11.920000
-7.725320 1.957640 14.303900 -9.679200 10.660000
4.781290 -0.999899 16.079500 -10.656000 7.380000
6.879830 -0.493677 15.324300 -10.300800 7.560000
7.436120 -0.493677 15.062300 -10.034400 11.460000
-7.526200 -0.090953 15.025300 -9.768000 9.850000
6.249500 -1.131940 16.023200 -10.389600 7.310000
-7.815810 1.291460 15.307700 -9.768000 9.170000
6.532130 -1.160240 16.373900 -10.389600 6.170000
-8.252110 1.323750 15.565000 -9.679200 9.640000
5.469500 -2.552160 17.061700 -10.656000 4.420000
5.606070 -1.453690 17.146100 -10.478400 6.080000
-7.373680 1.843850 16.424400 -10.034400 6.450000
-8.576020 1.356040 15.879000 -9.679200 6.640000
4.752110 -2.612930 17.717300 -10.656000 7.010000
-7.291430 1.830740 16.935100 -10.034400 8.640000
4.377450 -2.499430 18.277200 -10.833600 7.590000
6.386360 -1.639780 17.776200 -10.567200 6.680000
8.090260 1.873320 17.044200 -10.212000 7.010000
5.648510 -1.677050 18.473600 -10.656000 6.290000
8.139540 1.915890 17.494800 -10.212000 9.110000
5.774030 -1.714310 18.884100 -10.656000 6.390000
-7.065080 1.836430 18.428200 -10.300800 10.050000
7.077270 -1.751580 18.894400 -10.567200 5.530000
-7.214380 2.001040 18.817700 -10.300800 7.060000
7.515600 0.047975 19.269400 -10.478400 6.870000
-7.478840 2.043620 19.175100 -10.300800 7.390000
-8.584030 1.788850 18.732600 -10.034400 5.170000
-7.101320 1.863390 20.255500 -10.389600 5.470000
-7.121850 1.968350 20.696500 -10.389600 9.990000
6.091560 -0.866010 21.545500 -10.833600 13.480000
-7.261490 2.006950 21.102300 -10.389600 9.280000
6.377770 -0.882664 21.911300 -10.744800 12.590000
-7.394640 2.256490 21.489300 -10.389600 8.400000
6.923190 -1.186880 22.183100 -10.656000 7.360000
7.528660 -1.208860 22.439300 -10.567200 5.370000
-8.903960 0.769473 21.949800 -10.212000 8.660000
-7.088270 1.748060 24.352300 -10.656000 6.670000
-7.025900 1.238890 24.850200 -10.567200 5.210000
-8.025400 1.238890 24.545600 -10.389600 6.430000
17.894600 1.969480 19.152000 -8.347200 6.430000
18.187900 2.001770 19.466000 -8.347200 8.560000
18.157000 1.839400 21.246500 -8.702400 10.380000
18.265700 1.955460 21.710300 -8.702400 10.410000
7.208550 0.153921 27.510200 -10.833600 12.610000
18.542500 1.985090 22.039300 -8.702400 7.580000
18.819200 2.014720 22.368200 -8.702400 10.580000
18.404600 1.352190 23.858900 -8.968800 7.220000
18.480500 1.371510 24.342900 -9.057600 7.620000
18.743300 1.294960 24.689100 -9.057600 9.640000
-7.049610 0.743550 30.204100 -10.744800 7.320000
-7.324430 0.753877 30.581800 -10.744800 4.980000
7.440190 -0.962038 31.877500 -10.922400 14.620000
18.528800 1.769260 27.466700 -9.412800 8.030000
18.766200 1.896030 27.818700 -9.412800 13.430000
18.789100 1.920330 28.321000 -9.501600 18.770000
8.477570 0.906101 33.401000 -10.833600 5.770000
19.026900 1.944640 28.679500 -9.501600 19.320000
8.125150 1.133220 33.925100 -10.833600 6.340000
18.588200 1.968950 29.475600 -9.590400 15.280000
18.817700 1.993260 29.839500 -9.590400 5.840000
19.047200 2.017570 30.203400 -9.590400 12.200000
19.276700 2.041870 30.567300 -9.590400 18.580000
18.782500 2.179270 31.368300 -9.679200 16.510000
19.003400 2.204910 31.737300 -9.679200 6.730000
19.224400 2.230550 32.106400 -9.679200 8.930000
19.445400 2.256180 32.475400 -9.679200 16.540000
19.673200 2.044990 32.855900 -9.679200 18.390000
19.210300 2.535050 35.569100 -9.945600 7.830000
19.414700 2.562020 35.947500 -9.945600 7.010000
19.622800 2.461290 36.332700 -9.945600 10.740000
19.827200 2.486930 36.711200 -9.945600 14.480000
9.279370 0.750911 41.189200 -10.922400 13.670000
19.469600 2.023530 37.417400 -10.034400 8.280000
9.694470 0.758574 41.536000 -10.922400 6.730000
19.376400 2.044180 37.949700 -10.034400 8.830000
9.792890 0.632988 41.957700 -10.922400 14.050000
19.572100 2.064820 38.333000 -10.034400 13.130000
9.890820 0.639318 42.377300 -10.922400 16.660000
19.767800 2.085470 38.716300 -10.034400 13.550000
8.230690 -3.022070 43.068400 -10.922400 15.340000
6.884020 -2.914750 43.748600 -10.922400 9.620000
19.624900 2.126770 39.751300 -10.123200 10.880000
6.610190 -2.943050 44.225600 -10.922400 8.380000
19.815400 2.147420 40.137200 -10.123200 10.930000
9.667530 -2.971350 44.099600 -10.922400 13.090000
19.693000 2.168060 40.676100 -10.123200 6.820000
9.962390 1.115330 45.444700 -10.922400 8.720000
10.054600 1.125650 45.865500 -10.922400 5.580000
20.097800 1.268540 43.858600 -10.212000 8.150000
20.277200 1.279870 44.250200 -10.212000 7.590000
19.749400 2.086330 45.869900 -10.300800 5.700000
19.919600 2.104320 46.265300 -10.300800 5.390000
20.089900 2.122300 46.660800 -10.300800 10.380000
20.260200 2.140290 47.056200 -10.300800 10.340000
9.999530 0.119939 50.731800 -10.922400 16.540000
7.409110 0.120938 51.609600 -10.922400 20.840000
19.958200 1.854000 48.132100 -10.300800 20.480000
9.786990 0.120938 51.212000 -10.922400 20.490000
7.169430 0.121938 52.078500 -11.011200 15.560000
20.123200 1.869320 48.529900 -10.300800 7.340000
20.234200 1.915290 49.880700 -10.389600 7.530000
20.396000 1.930610 50.279700 -10.389600 8.230000
19.195600 0.000000 51.247200 -9.235200 6.160000
19.870200 2.115060 50.945600 -10.478400 9.040000
19.346800 0.000000 51.650700 -9.235200 14.990000
20.714800 2.302160 51.065600 -10.389600 18.030000
20.339600 2.165020 52.149000 -10.478400 6.900000
20.496100 2.181680 52.550100 -10.478400 16.620000
20.343500 2.374100 53.063200 -10.478400 7.510000
20.851000 1.563020 55.666700 -10.567200 10.290000
20.998300 1.944670 56.059900 -10.567200 9.580000
21.149400 1.958660 56.463200 -10.567200 10.540000
-19.406800 -2.028610 59.355500 -10.389600 5.750000
-4.663910 1.721590 65.307800 -11.011200 10.430000
21.287100 1.430170 65.106500 -10.656000 7.190000
21.421000 1.439160 65.516000 -10.656000 8.280000
21.825900 0.814567 66.754500 -10.744800 6.430000
21.571200 0.819564 67.289800 -10.656000 6.620000
21.701900 1.044430 67.697400 -10.656000 6.460000
21.834300 0.829559 68.110400 -10.656000 5.480000
22.228000 1.069750 69.338500 -10.744800 12.040000
22.762300 1.076080 69.618400 -10.744800 8.090000
21.231100 2.881150 71.400300 -10.744800 5.940000
21.906700 2.897800 71.646300 -10.744800 7.900000
-29.540500 1.133050 71.241000 -10.123200 6.270000
-18.019600 0.919511 77.205300 -10.744800 8.090000
-18.566000 0.924508 77.518800 -10.744800 9.300000
-14.962600 0.924508 78.294200 -10.744800 8.220000
-27.758100 1.253320 80.666700 -10.389600 6.650000
23.324300 1.789960 82.496600 -10.744800 5.220000
19.618300 0.956501 110.736000 -11.011200 4.720000
19.693500 0.960166 111.161000 -11.011200 6.080000
19.766200 2.015200 111.571000 -11.011200 6.900000
-55.647600 -18.424700 104.962000 -9.590400 7.990000
-55.847100 -18.490700 105.338000 -9.501600 4.890000
21.000500 2.171150 146.283000 -11.011200 6.730000
-59.687400 -6.992760 143.945000 -10.123200 5.940000
-5.060230 1.903990 164.084000 -11.011200 7.970000
-6.441120 1.421930 167.059000 -11.011200 5.010000
-5.166640 1.425590 167.534000 -11.011200 6.080000
-5.179920 1.429250 167.965000 -11.011200 4.850000
-5.180030 0.909532 167.969000 -11.100000 4.820000
5.367620 -0.481075 4.961570 -7.725600 3.630000
5.647550 -0.395627 5.301630 -7.725600 6.260000
5.850680 -0.461853 5.708320 -7.992000 4.930000
5.907120 -0.417606 5.653330 -7.814400 5.800000
6.100430 -0.486161 6.067810 -8.169600 5.480000
6.827340 -0.144923 10.465100 -9.590400 7.390000
6.979120 0.149920 10.880100 -9.590400 14.580000
5.535750 -1.360940 12.080400 -10.123200 10.240000
7.211750 0.154918 11.242800 -9.590400 17.290000
5.786310 -1.404840 12.436900 -10.212000 8.210000
7.444090 0.202556 11.605000 -9.590400 15.440000
5.239840 -1.492480 13.134600 -10.389600 5.470000
6.260050 -1.492480 12.680100 -10.123200 6.160000
7.676720 0.208886 11.967600 -9.590400 8.640000
7.193740 -1.537710 12.669900 -10.034400 5.240000
5.746630 -1.536550 13.858800 -10.300800 5.270000
-8.314120 1.130030 12.532000 -9.146400 6.210000
-8.640270 1.389430 12.808200 -9.057600 4.440000
5.987880 -0.665468 14.761100 -10.567200 6.010000
-7.602400 1.906120 13.883800 -9.768000 6.950000
5.412580 -0.683453 15.438600 -10.567200 7.780000
-9.155650 -0.291170 13.572200 -9.146400 5.850000
5.770210 -0.545626 15.774000 -10.656000 7.550000
-9.395370 -0.402756 13.927500 -9.146400 5.700000
5.900270 -1.450870 16.129500 -10.656000 10.160000
5.244670 -1.487150 16.804800 -10.744800 9.030000
4.803650 -1.621000 17.373200 -10.833600 6.980000
-7.368870 1.955180 16.413600 -10.034400 5.940000
4.653620 -2.499410 17.759800 -10.833600 9.030000
-7.770280 2.001730 16.701200 -10.034400 5.730000
4.897900 -1.420610 18.260900 -10.833600 7.040000
6.397190 -1.452900 18.247100 -10.567200 7.080000
-7.255430 1.856210 17.885900 -10.212000 5.480000
5.359320 2.202320 18.955600 -10.833600 7.420000
-7.941930 1.897460 18.061400 -10.123200 5.650000
7.351650 0.907900 18.849000 -10.567200 7.540000
-8.114580 1.938700 18.454000 -10.123200 6.250000
7.508060 0.927217 19.250000 -10.567200 9.220000
-8.287230 1.979950 18.846700 -10.123200 4.880000
6.554080 1.011760 20.045600 -10.656000 7.420000
7.664480 0.946534 19.651100 -10.478400 7.620000
6.282010 -1.614330 20.545500 -10.833600 7.870000
-7.099380 1.929760 20.250000 -10.389600 9.520000
6.530170 -1.578830 20.923800 -10.833600 8.670000
-7.241370 1.968350 20.655000 -10.389600 13.020000
5.969660 -0.537008 21.590300 -10.833600 9.950000
-7.379110 2.144950 21.047900 -10.389600 11.950000
6.969660 -0.547335 21.741300 -10.833600 11.350000
7.101650 -0.485717 22.153100 -10.833600 11.170000
-8.157620 0.755482 21.778700 -10.300800 8.520000
7.537280 -0.421430 22.465000 -10.744800 7.680000
-8.308680 0.769473 22.182000 -10.389600 8.660000
7.849370 -0.578317 22.810700 -10.656000 6.100000
7.495670 -0.588644 23.382200 -10.744800 7.400000
-7.218920 2.198790 24.277300 -10.656000 11.160000
-7.341280 2.236060 24.688800 -10.656000 6.190000
18.485500 1.950320 19.784500 -8.524800 8.790000
6.776600 -1.321490 26.699400 -10.833600 5.550000
18.276600 1.692140 21.723300 -8.791200 8.360000
6.834000 -0.835454 27.593400 -10.922400 8.380000
18.553600 1.717780 22.052400 -8.791200 9.490000
-6.715600 1.472610 28.039700 -10.744800 7.140000
18.833900 1.652950 22.385600 -8.791200 10.090000
-7.037050 1.313560 28.413300 -10.744800 9.310000
-7.140540 1.332870 28.831100 -10.744800 7.330000
18.342400 2.044340 23.310400 -8.968800 6.200000
18.383400 1.980900 23.831400 -9.057600 9.750000
18.646000 2.009200 24.171800 -9.057600 7.820000
-6.816220 0.815491 30.255800 -10.833600 7.630000
-7.324000 0.826817 30.580000 -10.833600 6.240000
18.157200 1.871610 25.617800 -9.324000 8.130000
-7.662370 0.936721 30.938100 -10.744800 11.020000
18.406000 1.897250 25.968800 -9.324000 4.460000
9.861300 0.949380 30.761600 -10.833600 9.440000
18.651200 2.022650 26.314700 -9.324000 5.110000
7.624330 0.962038 31.834000 -10.922400 6.370000
18.896100 2.150690 26.660300 -9.324000 10.160000
18.522300 1.974160 27.457100 -9.501600 15.650000
18.762800 1.999800 27.813700 -9.501600 6.030000
19.003400 2.025440 28.170300 -9.501600 16.380000
19.023500 2.051080 28.674300 -9.501600 9.010000
18.807900 2.184460 29.320700 -9.590400 12.640000
19.043700 2.102350 29.688300 -9.590400 7.820000
19.043800 2.127990 30.198000 -9.679200 11.040000
19.037100 2.153630 30.709500 -9.679200 4.900000
19.263700 2.179270 31.075100 -9.679200 17.280000
18.761600 2.090490 31.888600 -9.768000 18.420000
18.983000 1.999030 32.264900 -9.768000 15.070000
19.201200 2.022010 32.635700 -9.768000 10.670000
18.850500 2.427180 33.804300 -9.945600 17.600000
19.060000 2.454140 34.179900 -9.945600 19.130000
19.269400 2.481110 34.555500 -9.945600 8.170000
19.214000 2.410010 35.575800 -10.034400 12.240000
19.418400 2.435650 35.954300 -10.034400 6.850000
19.622800 2.461290 36.332700 -10.034400 7.730000
19.823400 2.615960 36.704300 -10.034400 11.470000
9.279830 0.620328 41.191300 -10.922400 11.140000
19.177700 2.153970 37.560600 -10.123200 12.300000
9.374520 0.626658 41.611600 -10.922400 10.150000
19.373400 2.175950 37.943800 -10.123200 8.440000
9.792400 0.766236 41.955600 -10.922400 6.340000
19.569100 2.197930 38.327100 -10.123200 11.140000
9.889730 0.908471 42.372600 -10.922400 15.200000
19.762400 2.320720 38.705700 -10.123200 14.640000
6.477300 -3.428760 43.336500 -11.011200 9.480000
9.498800 -3.454660 44.984800 -10.922400 17.920000
9.587580 -3.486950 45.405200 -10.922400 15.850000
19.581100 1.405080 43.615400 -10.389600 6.830000
19.753500 1.716100 43.999500 -10.389600 8.180000
19.927600 1.881910 44.387300 -10.389600 7.600000
20.101400 2.050360 44.774500 -10.389600 6.400000
19.746700 2.240770 45.863800 -10.478400 7.210000
19.917000 2.260090 46.259100 -10.478400 5.620000
20.087200 2.279410 46.654500 -10.478400 7.620000
20.087200 2.279410 46.654500 -10.389600 6.770000
20.257400 2.298720 47.049900 -10.389600 9.270000
9.999560 0.000000 50.731900 -11.011200 13.560000
10.082900 0.120938 51.154500 -11.011200 13.290000
19.953400 2.176260 48.120600 -10.478400 8.660000
10.166200 0.121938 51.577300 -11.011200 14.910000
20.118400 2.194240 48.518300 -10.478400 7.260000
20.280500 2.375990 48.909400 -10.478400 18.590000
17.529900 1.270230 50.001600 -9.679200 18.590000
17.672400 1.280560 50.408100 -9.679200 13.160000
20.229300 2.248200 49.868700 -10.478400 9.550000
20.391100 2.266190 50.267700 -10.478400 9.060000
20.553000 2.284170 50.666600 -10.478400 6.290000
20.714800 2.302160 51.065600 -10.567200 9.140000
20.573100 2.663620 51.570000 -10.567200 11.090000
20.331400 2.684270 52.128000 -10.567200 8.820000
20.487800 2.704920 52.529000 -10.567200 15.320000
20.644200 2.725570 52.930000 -10.567200 18.270000
20.649000 2.588480 53.860000 -10.567200 16.690000
20.808500 2.248290 54.275900 -10.567200 7.010000
20.962600 2.264950 54.678000 -10.567200 8.700000
-20.357200 -3.285770 58.065900 -10.389600 9.180000
21.012800 2.697840 61.064400 -10.656000 7.360000
21.158000 2.313670 61.486200 -10.656000 7.890000
21.298100 2.328990 61.893400 -10.656000 8.030000
-19.141000 -1.800880 65.760400 -10.656000 7.410000
-18.972600 -3.129360 67.105100 -10.656000 9.200000
20.920500 1.466150 67.032700 -10.744800 6.330000
21.048800 1.475140 67.443900 -10.744800 5.980000
21.177100 1.484140 67.855200 -10.744800 5.940000
21.306800 1.271950 68.270500 -10.744800 5.970000
21.285700 1.914140 69.615500 -10.744800 5.580000
-28.669300 -0.412788 70.674700 -10.212000 14.220000
-17.327800 1.402210 76.914500 -10.744800 6.040000
-18.018900 1.164700 77.202100 -10.833600 6.260000
-18.116800 1.171030 77.621700 -10.833600 5.210000
21.906200 3.114300 77.480900 -10.833600 8.970000
-13.500800 1.906890 90.327500 -10.922400 10.680000
18.978500 0.000000 110.852000 -11.011200 10.480000
19.691100 2.007540 111.147000 -11.011200 4.930000
-55.796100 -12.392100 103.310000 -9.590400 5.540000
-55.999800 -12.437400 103.687000 -9.590400 7.140000
-56.221500 -12.116800 104.098000 -9.590400 7.590000
-55.618300 -12.160700 104.906000 -9.590400 7.470000
-60.670700 -3.728080 143.187000 -10.123200 6.680000
-59.730300 -3.738400 144.048000 -10.123200 6.020000
-61.006900 -3.748730 143.980000 -10.212000 4.470000
-6.307170 3.418010 163.585000 -11.100000 6.340000
-6.324460 2.411680 164.033000 -11.100000 6.620000
-6.341320 1.908980 164.471000 -11.100000 4.590000
-5.153470 0.904868 167.107000 -11.100000 4.960000
-5.166750 0.907200 167.538000 -11.100000 5.020000
-5.180090 0.389801 167.971000 -11.100000 5.550000
-6.491140 0.390801 168.356000 -11.100000 8.590000
-47.731100 -14.433100 172.627000 -10.567200 8.900000
-47.820800 -15.577900 172.952000 -10.567200 7.380000
-47.935200 -15.615200 173.366000 -10.567200 4.610000
5.179040 -0.548872 5.151340 -8.169600 2.240000
5.430880 -0.581159 5.506940 -8.169600 5.090000
5.363520 -0.613445 6.155080 -8.613600 3.800000
5.645810 -0.645732 6.479030 -8.702400 4.170000
6.744020 -0.367094 10.513600 -9.679200 14.540000
6.979330 0.109943 10.880400 -9.679200 13.260000
4.886960 -2.118600 12.250000 -10.389600 8.960000
5.906730 -2.118600 11.792200 -10.212000 6.980000
7.211750 0.154918 11.242800 -9.679200 6.780000
7.444390 0.159915 11.605500 -9.679200 7.240000
-8.493940 0.889964 11.369300 -8.880000 4.020000
6.860530 0.351121 12.940200 -10.123200 4.840000
-8.749590 0.962150 11.711500 -8.880000 10.690000
7.062310 0.361448 13.320800 -10.123200 4.840000
-9.006930 0.990448 12.055900 -8.880000 8.350000
4.501570 -1.902230 14.722500 -10.744800 4.830000
6.757730 0.371775 13.958100 -10.300800 4.310000
-7.700240 2.052900 13.808700 -9.679200 6.400000
6.136320 -1.277380 15.127100 -10.567200 3.240000
-7.908350 2.108390 14.181900 -9.679200 6.470000
-8.616080 0.835212 13.898900 -9.412800 7.440000
6.645230 -0.194896 15.434200 -10.478400 7.110000
-8.743680 -0.142925 14.350600 -9.501600 6.460000
6.259710 -0.559617 16.049400 -10.567200 8.480000
-8.183520 0.719424 15.152300 -9.768000 8.500000
6.410460 -0.942073 16.435900 -10.567200 6.610000
-8.147720 0.737410 15.658600 -9.768000 8.310000
4.100920 -1.411840 17.570400 -10.833600 7.940000
-7.385940 1.523420 16.451700 -10.034400 5.570000
-8.344120 0.867226 16.036000 -9.856800 7.330000
-8.925480 0.867226 15.719900 -9.679200 6.910000
4.194470 -1.659590 17.971200 -10.922400 6.810000
-7.691390 1.559690 16.784600 -10.034400 8.300000
-9.137990 0.887874 16.094100 -9.679200 7.450000
4.152120 -1.595960 18.430400 -10.922400 4.670000
6.877110 -1.128090 17.632300 -10.656000 10.550000
-7.365080 1.756580 17.382100 -10.212000 6.410000
4.137450 -1.632230 18.873500 -10.922400 6.100000
7.033410 -1.153730 18.033100 -10.656000 9.250000
-7.525640 1.975560 17.761000 -10.212000 6.930000
-7.550290 2.080430 18.208600 -10.300800 4.320000
-7.719310 2.001040 18.616200 -10.300800 4.270000
-7.736790 2.043620 19.072500 -10.389600 6.900000
-6.978190 2.062450 20.279000 -10.567200 6.750000
-7.117750 2.103700 20.684600 -10.567200 7.940000
6.377280 -1.194820 21.446800 -10.922400 12.170000
-7.257320 2.144950 21.090200 -10.567200 9.120000
6.498820 -1.288330 21.855600 -10.922400 11.210000
6.792870 -1.312630 22.216200 -10.922400 10.600000
7.866430 -0.341814 21.895900 -10.744800 5.510000
-7.662920 2.227450 21.857400 -10.567200 8.130000
17.657900 1.815230 15.044300 -7.636800 8.340000
17.984900 1.848840 15.322900 -7.636800 7.580000
18.311900 1.882460 15.601400 -7.636800 9.720000
-6.910720 1.061150 24.442800 -10.744800 7.180000
6.456080 -1.482790 25.436500 -10.922400 8.330000
17.902600 1.807320 19.160600 -8.524800 5.360000
6.561920 -1.507100 25.853500 -10.922400 8.380000
18.196100 1.836950 19.474700 -8.524800 7.920000
6.513390 -1.699020 26.298900 -10.922400 6.860000
18.485500 1.950320 19.784500 -8.524800 9.360000
7.571920 -1.699020 26.013900 -10.922400 6.860000
6.629750 -0.063967 26.768800 -11.011200 8.340000
7.099180 -0.238209 27.092800 -10.922400 8.280000
-7.570340 1.362780 27.379400 -10.744800 7.800000
18.115000 1.516510 21.871100 -8.880000 7.460000
18.389500 1.539480 22.202500 -8.880000 7.280000
18.127800 1.769050 23.500000 -9.146400 4.890000
8.024150 1.794690 29.020700 -10.922400 7.430000
18.390500 1.794690 23.840600 -9.146400 6.970000
18.649700 1.914770 24.176600 -9.146400 5.810000
18.157200 1.871610 25.617800 -9.412800 6.350000
-7.424330 0.838143 30.998900 -10.922400 8.970000
18.398800 2.094090 25.958700 -9.412800 8.060000
18.647500 2.122390 26.309500 -9.412800 8.620000
18.896100 2.150690 26.660300 -9.412800 15.780000
18.310100 1.974160 27.599100 -9.590400 7.100000
18.544400 2.103550 27.952200 -9.590400 14.600000
18.782200 2.130520 28.310600 -9.590400 9.470000
19.023500 2.051080 28.674300 -9.590400 7.860000
19.257700 2.184460 29.027300 -9.590400 8.830000
18.814400 2.102350 29.834200 -9.679200 14.930000
19.043800 2.127990 30.198000 -9.679200 5.220000
19.273200 2.153630 30.561800 -9.679200 5.910000
18.536600 2.292330 31.506200 -9.856800 13.850000
18.758300 2.204910 31.882900 -9.856800 15.950000
18.976400 2.230550 32.253600 -9.856800 13.560000
19.194500 2.256180 32.624300 -9.856800 6.520000
19.412600 2.281820 32.995100 -9.856800 15.240000
18.854100 2.307460 33.810700 -10.034400 15.620000
18.788300 2.696160 34.311900 -10.034400 11.570000
18.994800 2.725790 34.688900 -10.034400 6.940000
19.197100 2.879050 35.058300 -10.034400 7.000000
18.948100 2.066050 35.739700 -10.123200 13.450000
19.149700 2.088030 36.119900 -10.123200 6.330000
19.348900 2.205830 36.495700 -10.123200 7.150000
19.550500 2.228810 36.875800 -10.123200 10.300000
9.833470 0.881487 41.057800 -11.100000 14.320000
9.934410 0.758574 41.479300 -11.011200 13.720000
19.662900 2.274760 37.788800 -10.212000 4.800000
9.792400 0.766236 41.955600 -11.011200 8.170000
19.861500 2.297740 38.170500 -10.212000 9.860000
9.890820 0.639318 42.377300 -11.011200 16.340000
19.627700 1.989650 39.757000 -10.300800 8.130000
8.987240 -2.804740 43.813500 -11.100000 15.470000
19.815400 2.147420 40.137200 -10.300800 9.620000
9.340550 1.748670 44.235300 -11.100000 7.470000
9.170070 1.906470 44.704800 -11.100000 6.390000
9.517280 1.924460 45.072300 -11.100000 8.510000
9.600920 -2.481560 45.468400 -11.100000 8.070000
7.915590 -2.395740 46.234300 -11.100000 10.360000
8.259050 -2.271310 46.618600 -11.100000 8.480000
19.582800 1.257210 43.619200 -10.478400 6.250000
19.760300 1.156630 44.014700 -10.478400 7.800000
19.593900 1.166960 44.560100 -10.478400 6.820000
20.114600 1.025400 44.803800 -10.478400 7.520000
19.743900 2.395200 45.857200 -10.478400 11.230000
19.914100 2.415840 46.252500 -10.478400 15.160000
20.084300 2.436490 46.647800 -10.478400 14.860000
9.915870 0.436106 50.307300 -11.100000 6.240000
20.254500 2.457140 47.043100 -10.478400 18.860000
9.999190 0.439771 50.730100 -11.100000 7.790000
19.797300 1.519010 47.743900 -10.567200 18.290000
19.962200 1.531670 48.141800 -10.567200 12.800000
20.127200 1.544320 48.539600 -10.567200 8.030000
20.293900 1.393130 48.941700 -10.567200 7.130000
20.064800 2.395310 49.463100 -10.567200 14.760000
20.226600 2.414630 49.862000 -10.567200 6.150000
20.388400 2.433940 50.260900 -10.567200 11.430000
20.550200 2.453260 50.659800 -10.567200 7.160000
20.416500 2.472580 51.177600 -10.567200 7.740000
-4.849890 2.037870 57.067700 -11.188800 16.670000
-5.550740 2.053190 57.436500 -11.188800 9.790000
-10.578300 2.607800 57.142100 -11.011200 8.590000
-10.658100 2.446040 57.573100 -11.011200 7.500000
-10.736400 2.464030 57.996400 -11.011200 5.860000
20.837300 2.665750 55.630000 -10.656000 5.360000
20.988300 2.685070 56.033100 -10.656000 5.960000
-21.606500 -1.619660 57.683600 -10.478400 7.660000
-11.990500 2.398180 60.832800 -10.922400 8.710000
-21.305400 -2.014620 58.242400 -10.478400 10.670000
-12.073800 2.414830 61.255200 -11.011200 7.970000
-19.863700 -2.028610 59.204200 -10.567200 6.060000
-12.157000 2.431490 61.677700 -11.011200 8.920000
21.365500 2.697840 60.942000 -10.744800 8.450000
21.155500 2.514760 61.479200 -10.744800 8.290000
21.295600 2.531410 61.886300 -10.744800 7.990000
-18.047600 -1.744240 63.833400 -10.744800 8.780000
-18.164800 -1.755570 64.247900 -10.744800 8.560000
-18.280400 -1.974710 64.656800 -10.744800 6.540000
21.416400 2.025340 65.502000 -10.833600 7.540000
21.561300 2.294430 67.258900 -10.833600 6.930000
21.692800 2.308420 67.669000 -10.833600 8.210000
21.824300 2.322410 68.079100 -10.833600 6.370000
21.681500 2.589470 69.471300 -10.922400 10.140000
20.865300 2.604790 70.170200 -10.833600 6.820000
-27.941300 -0.174911 70.039600 -10.389600 6.840000
-28.100900 -0.175910 70.439800 -10.389600 9.330000
-28.260600 -0.176910 70.840100 -10.389600 8.910000
-11.400000 -1.371560 76.271700 -11.011200 6.400000
-29.537200 -1.610060 71.233200 -10.300800 7.460000
-11.463700 -1.379220 76.697800 -11.011200 6.050000
-29.702200 -1.619060 71.631100 -10.300800 9.060000
-29.867200 -1.628050 72.029100 -10.300800 6.230000
-17.235800 -0.181907 76.506100 -10.922400 8.600000
-17.330500 -0.182907 76.926500 -10.922400 5.610000
-18.020800 -0.183906 77.210300 -10.922400 8.380000
21.683400 1.664030 76.692800 -10.922400 5.440000
21.797800 2.106680 77.097500 -10.922400 11.750000
21.915000 2.118010 77.512000 -10.922400 12.960000
22.036300 1.440520 77.941100 -10.922400 9.770000
19.618700 0.608687 110.739000 -11.100000 5.710000
19.692900 1.309300 111.157000 -11.100000 7.120000
19.768600 0.963831 111.585000 -11.100000 6.180000
-59.874700 -5.561990 144.396000 -10.212000 7.610000
-58.705600 -14.531700 144.719000 -10.212000 8.190000
-61.096700 -14.571600 144.192000 -10.123200 5.830000
-6.291710 1.388940 163.184000 -11.188800 5.520000
-6.308310 1.392610 163.615000 -11.188800 5.200000
-6.324460 2.411680 164.033000 -11.188800 6.810000
-6.341060 2.418010 164.464000 -11.188800 6.140000
-5.153470 0.904868 167.107000 -11.188800 4.860000
-5.166750 0.907200 167.538000 -11.188800 4.870000
-5.180090 0.389801 167.971000 -11.188800 7.160000
-47.739900 -14.017600 172.659000 -10.656000 8.260000
-47.845600 -14.467700 173.041000 -10.656000 5.520000
6.773530 0.048975 5.999960 -7.992000 6.130000
7.035190 0.051307 6.353750 -7.992000 3.720000
6.418820 0.183567 10.720000 -10.034400 5.940000
-1.835780 1.388420 12.282300 2.752800 8.220000
6.978830 0.189896 10.879700 -9.856800 13.390000
-1.899080 1.436300 12.705800 2.752800 13.570000
7.211460 0.196226 11.242300 -9.856800 16.820000
-1.961170 1.556000 13.121200 2.752800 14.110000
7.444090 0.202556 11.605000 -9.856800 15.540000
-1.500540 1.648540 13.607400 2.752800 9.780000
-2.725880 1.874570 13.829500 2.664000 8.730000
6.959660 0.385093 12.886200 -10.300800 7.520000
-2.808480 1.931370 14.248600 2.664000 5.790000
-2.316200 -4.568070 14.185200 2.752800 4.140000
-2.386110 2.235050 15.164000 2.752800 4.320000
-2.241960 2.297140 15.616800 2.752800 4.370000
6.705260 -0.291170 14.935500 -10.567200 9.980000
-2.302560 2.359220 16.038900 2.752800 6.870000
7.444770 -0.291170 14.581000 -10.567200 9.980000
5.124200 -0.805281 15.984500 -10.922400 8.500000
6.435870 -0.298832 15.521000 -10.744800 9.410000
4.363860 -0.825929 16.654000 -10.922400 9.290000
6.600890 -0.306494 15.919000 -10.656000 8.870000
-8.837140 1.078740 14.758800 -9.590400 7.880000
5.255590 -0.825929 16.394400 -10.922400 7.490000
4.448820 -2.017230 16.978200 -10.922400 6.660000
-8.696410 1.378230 15.316400 -9.768000 6.170000
-9.058060 1.105710 15.127700 -9.590400 6.050000
4.424690 -2.010810 17.433000 -11.100000 5.240000
-8.908510 1.411840 15.690000 -9.679200 5.280000
4.531590 -2.001730 17.854100 -11.011200 9.450000
-7.676150 1.944750 16.751300 -10.212000 6.830000
3.910120 -1.128090 18.517700 -11.011200 10.090000
3.999710 -1.093860 18.941900 -11.011200 8.910000
-7.253240 1.915890 17.880500 -10.300800 6.110000
5.347820 -2.552260 18.914900 -11.011200 10.590000
-7.416660 1.897460 18.283300 -10.389600 6.280000
5.464080 -2.607740 19.326100 -11.011200 10.290000
-7.325250 1.938700 18.781300 -10.478400 6.030000
6.568480 -1.098960 20.489900 -11.011200 7.060000
-7.090940 2.195060 20.225900 -10.656000 8.820000
6.538570 -1.120940 20.950700 -11.011200 8.190000
-7.232760 2.238970 20.630400 -10.656000 12.360000
17.585100 -2.762260 12.887000 -7.281600 5.340000
6.541280 -1.264020 21.393400 -11.011200 8.010000
17.929900 -2.816430 13.139600 -7.281600 11.160000
6.213250 -0.123603 21.975900 -11.100000 8.370000
18.274700 -2.870590 13.392300 -7.281600 9.950000
6.330490 -0.125935 22.390600 -11.100000 4.690000
-7.976480 1.528120 21.805200 -10.567200 6.960000
7.364810 -0.201562 22.525200 -11.011200 9.570000
-8.301240 1.263760 22.162100 -10.567200 7.420000
7.983110 -0.205226 22.770700 -10.922400 7.170000
-8.625840 1.286730 22.499200 -10.478400 6.860000
7.471210 2.067500 23.305900 -11.011200 6.060000
7.445440 -0.212556 23.856500 -11.011200 5.610000
17.830600 2.007480 17.396800 -8.347200 6.090000
9.083040 1.591150 23.691800 -10.833600 3.970000
18.141400 1.983300 17.700000 -8.347200 10.710000
6.553090 -0.219885 25.008800 -11.100000 5.660000
-8.207670 1.618120 24.463100 -10.744800 12.800000
18.448900 2.016920 18.000000 -8.347200 4.970000
-8.346040 1.563950 24.875600 -10.744800 4.830000
6.768200 -0.867406 25.829700 -11.100000 7.110000
-8.286170 1.672050 25.343200 -10.744800 10.470000
6.674870 -0.881396 26.298500 -11.188800 8.280000
-7.220370 1.699020 26.113700 -10.833600 7.750000
6.782050 -0.724881 26.720800 -11.188800 6.940000
6.889320 -0.498053 27.143400 -11.188800 8.370000
6.995300 -0.505716 27.561000 -11.188800 8.110000
18.367400 1.332870 23.342200 -9.324000 9.260000
18.404600 1.352190 23.858900 -9.324000 9.100000
18.664900 1.466020 24.196300 -9.324000 9.200000
-7.207490 2.228940 30.093600 -11.011200 7.180000
-7.561810 0.267527 30.532100 -11.011200 5.290000
18.150200 2.065790 25.607900 -9.590400 7.420000
-7.665400 0.271192 30.950300 -11.011200 5.540000
18.398800 2.094090 25.958700 -9.590400 4.780000
18.647500 2.122390 26.309500 -9.590400 9.150000
7.476360 6.489430 31.216200 -11.188800 8.500000
18.896100 2.150690 26.660300 -9.590400 4.560000
19.148500 2.076580 27.016400 -9.590400 6.550000
18.328400 2.103550 28.094300 -9.768000 6.690000
18.559700 2.235580 28.448800 -9.768000 14.990000
18.798400 2.157490 28.814700 -9.768000 17.420000
19.037000 2.076710 29.180400 -9.768000 6.730000
18.587200 1.993260 29.983700 -9.945600 15.510000
18.813900 2.017570 30.349300 -9.945600 5.680000
19.040500 2.041870 30.715000 -9.945600 13.470000
