VERSION .7
FIELDS x y z velocity SNR
SIZE 4 4 4 4 4
TYPE F F F F F
COUNT 1 1 1 1 1
WIDTH 225
HEIGHT 1
VIEWPOINT 0 0 0 1 0 0 0
POINTS 225
DATA ascii
5.06974527921092 4.65105677929334 0.589171639393202 -2.63015002395936 6.01491606896348
3.90541067711224 8.46663038920997 1.31468051765425 3.09429414583454 5.14079462481097
4.02107860497231 8.71738957282576 1.58492040183874 2.93957943854282 9.50273328538445
4.72146496795319 8.08727354916268 2.64153400306456 2.93957943854282 9.50273328538445
4.03992222747934 8.75824109911871 1.2830308014885 3.09429414583454 9.19715925435304
4.25723452617694 8.45123695819672 -2.26417200262677 3.09429414583454 9.19715925435304
4.62819354542965 8.43785904550549 1.43397560166362 3.09429414583454 9.19715925435304
5.72613608232597 7.68949855985018 1.6603928019263 4.48672651146009 7.1242781598382
5.98506996663607 7.56351084145747 1.2830308014885 4.48672651146009 7.1242781598382
-1.51536712833884 9.64995082350146 2.33720980916312 2.63015002395936 7.95174927127244
4.86703228347742 8.51081354169761 2.18139582188558 2.63015002395936 7.95174927127244
4.73998648994627 8.28865289080748 3.11627974555082 2.93957943854282 9.55874176248972
4.81844943067108 8.78472274653423 0.701162942748936 3.09429414583454 8.44572923140307
4.98967869762799 8.54668981429312 1.71395386005295 3.24900885312627 7.42477970570393
6.17813673975336 7.80749506214965 -1.3244188918591 4.17729709687663 5.3559383619712
6.10449938555567 7.71443734855311 -2.02558183460803 4.33201180416836 9.67881695882595
6.08744707744337 7.85062652433191 1.48023287913664 4.48672651146009 10.0020794096001
4.98727981363875 8.90431988596759 1.76751491817961 2.63015002395936 9.4713711241298
4.97383048351995 9.06800463814303 0.562391110329875 2.78486473125109 7.46455405904902
4.98057898173983 9.08030811598794 0.160683174379964 2.93957943854282 6.61241604516945
4.97578098980984 9.07156069019226 0.482049523139893 3.09429414583454 6.95687690806061
5.59188088570223 8.30575731037213 2.65127237726941 4.17729709687663 6.90557356085341
6.31943107055816 8.14980279090116 0.964099046279786 4.17729709687663 6.90557356085341
5.84354850603785 8.50622684674232 -0.883757459089804 4.33201180416836 8.43446072361798
6.3893178001588 8.07437084619077 -1.12478222065975 4.33201180416836 8.43446072361798
-1.61309603094327 10.2722944698238 2.40050924149462 2.47543531666763 7.91830423155941
5.18882447772232 9.07352058880093 2.15218069927104 2.47543531666763 7.91830423155941
-1.62150764928823 10.3258601714 2.15218069927104 2.63015002395936 11.531326669139
5.23354011953492 9.15171330824443 1.65552361482388 2.63015002395936 11.531326669139
4.67704257876641 9.48839458719835 1.40719507260029 2.78486473125109 8.55190967707504
5.03093383209735 9.36723985213936 0.910537988153131 2.78486473125109 8.55190967707504
5.25671902496155 9.19224547049378 1.3244188918591 2.78486473125109 8.55190967707504
5.59549346741179 9.01288179880575 1.15886653037671 2.78486473125109 8.55190967707504
5.40357248488249 9.06710687085614 1.57274743408268 3.403723560418 5.97786550491441
6.01186201881734 8.7512342971973 -1.07609034963552 3.55843826770973 5.85550211334121
5.29658203343128 9.45654996115623 1.78942626014051 2.47543531666763 7.92557546089764
5.3096601288618 9.47989967273531 1.6190047115557 2.63015002395936 12.3388866192061
5.56250108737903 9.33378648470485 1.6190047115557 3.403723560418 8.79970120022015
5.70912187759116 9.38552567158608 -0 3.55843826770973 6.83917396408627
6.21121059892154 9.04141829108222 0.596475420046837 3.55843826770973 6.83917396408627
-0.168560639011485 10.8642798104673 1.6190047115557 4.64144121875182 6.24974143303716
5.46757494795714 9.76184175669744 1.5776166211851 2.63015002395936 7.86766946924631
-1.73760095805563 11.0651494826121 1.48997125334149 3.403723560418 5.82863812033594
5.66791181467871 9.70841753755701 1.13938978196702 3.403723560418 5.82863812033594
7.07788608307985 8.76425479104015 0.876453678436169 4.64144121875182 7.93280146827694
7.56619668482518 8.27423436549708 1.40232588549787 4.64144121875182 7.93280146827694
5.8040698668386 9.94163909510582 1.53135934371208 3.403723560418 7.30454634258501
5.90151651572863 9.70181333438803 2.43215895766037 3.55843826770973 7.5587361753046
6.0808169405052 9.99657473128026 2.312863873651 3.55843826770973 7.17537107889587
-9.01989775266395 8.27498311662515 0.0949491484972513 4.79615592604354 5.2073790513157
-8.53616386814884 8.75512824218133 -0.56969489098351 4.79615592604354 5.2073790513157
-9.2503421948247 8.48639614152746 0.194767484096926 4.64144121875182 6.74566787645456
-9.24895038165135 8.48511927222953 0.29215122614539 4.79615592604354 7.40851443158335
-9.38179442601431 8.80610943571438 -0.199636671199349 4.48672651146009 5.93844945721188
4.99808972901503 13.4185845781121 3.54720280411527 1.54714707291727 9.80181843743193
5.2477330972629 13.7395025202644 1.14425896906944 1.701861780209 5.00613114727407
5.55343303223892 13.1984353078564 3.54720280411527 1.701861780209 5.00613114727407
5.23781770047461 13.7135422405328 3.38895422328652 1.39243236562554 8.45108811922367
5.20735752759012 13.6337920675805 3.73953569466099 1.54714707291727 16.001164338663
5.7035534572001 13.5552154663162 3.27209373282836 1.54714707291727 16.001164338663
5.26513072004176 13.7850526040028 3.03837275191205 1.701861780209 5.8370134816918
5.5894823880561 13.6026495584871 3.27209373282836 1.85657648750073 7.11241113433301
6.13723686977231 13.3050581573705 3.50581471374468 1.85657648750073 7.11241113433301
5.82784790311204 14.1827395101189 1.19295084009367 1.39243236562554 7.00258639456259
5.8410612911608 14.2148958127296 0.596475420046837 1.54714707291727 11.6416022226567
6.085183385496 13.4934881574846 4.17532794032786 1.85657648750073 7.83468363156973
6.16060351817598 13.6607272697156 3.45955743627165 2.01129119479245 11.6409506897539
6.29907732981765 13.6559158444388 3.22096726825292 2.16600590208418 12.2405586538132
5.46727890224728 14.6782367543431 0.973837420484633 1.54714707291727 5.59667573094558
6.00138731420062 13.9332894844499 4.01707935949911 1.701861780209 5.06361195078359
6.0175609735646 13.6517438089085 4.86918710242316 1.85657648750073 7.03361254972106
6.9132890171058 14.0251051780986 1.33902645316637 2.01129119479245 6.47136271431566
-11.8568970931976 11.1293350322386 -1.39258751129302 3.09429414583454 25.5195430248832
-11.8568970931976 11.1293350322386 -1.39258751129302 3.24900885312627 14.9543900941732
-1.27624483822982 16.4040322464418 -2.45163570607006 2.93957943854282 7.8188599506851
-1.27906737190206 16.4403112831824 -2.19356878964163 3.09429414583454 148.657740293515
-1.28035895369009 16.4569124467405 -2.06453533142742 3.24900885312627 96.8216739743528
-1.28270395230461 16.4870535542601 -1.80646841499899 3.403723560418 8.1885856364323
-1.30180355903741 16.7325476439161 -2.36642493177765 2.93957943854282 12.0357846790481
-1.30451666979745 16.7674202287544 -2.1034888282468 3.09429414583454 235.669989643788
-1.30575165833237 16.7832939789503 -1.97202077648138 3.24900885312627 216.881251438547
-1.30690591366884 16.798130036416 -1.84055272471596 3.403723560418 12.2825789072932
-1.72727670167624 17.0422274354204 -2.14244232506619 2.93957943854282 6.11416985631757
-1.32867438590481 17.0779280107684 -2.14244232506619 2.93957943854282 6.11416985631757
-1.46154182449529 17.0670705236721 -2.14244232506619 3.09429414583454 68.149097479878
-1.46292546905756 17.0832279534003 -2.00853967974955 3.24900885312627 52.758986615598
-1.75303064571945 17.2963294975378 -2.59040753848912 3.09429414583454 11.806379387813
-1.08226568160973 17.4073707092817 -2.18139582188558 3.09429414583454 11.806379387813
-1.75303064571945 17.2963294975378 -2.59040753848912 3.24900885312627 16.4362120347734
-1.08329026469056 17.4238503018748 -2.04505858301773 3.24900885312627 16.4362120347734
-1.92778574536734 17.6474458985709 -2.22034931870496 3.09429414583454 6.10138069335087
-1.24046407541575 17.7258833282377 -2.0815774862859 3.09429414583454 6.10138069335087
-1.24352441089234 17.7696146628877 -1.66526198902872 3.24900885312627 10.657081134503
12.8517350623889 19.0889961047511 8.35552506775814 0.464144121875182 9.01936767827936
4.95167501900527 24.0485802397674 3.46199202982287 0.309429414583454 9.46891112082641
-4.75011109194921 24.0307793081457 3.8466578109143 0.464144121875182 45.220748954533
5.69292490668124 23.7931890669859 4.03899070146001 0.464144121875182 45.220748954533
6.89873472443821 23.7227764020929 2.11566179600286 0.464144121875182 45.220748954533
6.8886928209172 23.6882451668163 2.50032757709429 0.618858829166909 13.5853102458301
5.74928841320139 24.0287564754965 4.47965213422931 0.309429414583454 22.6052272297852
5.76498724727214 24.0943686754288 4.09011716603545 0.464144121875182 118.715967029372
6.79200324487588 24.0786496935761 2.14244232506619 0.464144121875182 118.715967029372
5.77228689654588 24.1248770587536 3.89534968193853 0.618858829166909 28.2952756095344
6.79632408526185 24.0939677077591 1.94767484096926 0.618858829166909 28.2952756095344
5.81264729942301 24.29356059353 4.73284986355531 0.309429414583454 12.8744613291006
5.82928809386347 24.3631096522014 4.33844570825904 0.464144121875182 60.6974620517796
5.83704958786304 24.3955482838716 4.1412436306109 0.618858829166909 13.4825382378124
6.88127813632763 24.3951423041061 1.97202077648138 0.618858829166909 13.4825382378124
6.67686522294236 23.6704684844991 7.58619350557528 0.928288243750363 6.76929364231568
7.59998498171913 23.9461062404816 5.58982679358179 0.928288243750363 6.76929364231568
15.5697864942365 20.4901017251495 -0.399273342398698 4.79615592604354 7.89692956031648
7.45341607816236 24.1636785254065 6.2642092072674 0.928288243750363 11.6544090554869
6.52822180929631 25.4779111115584 1.84055272471596 0.309429414583454 5.71663257222514
8.13873334597057 24.263114506857 6.33968160735496 0.928288243750363 8.82020644753833
-16.9507299603981 20.5647649889826 1.24164271111791 -2.47543531666763 6.78950961665496
-16.3478038891062 21.0828120875088 0.206940451852984 -2.47543531666763 6.78950961665496
-16.9410021383262 20.9773451300363 1.25625027242517 -2.47543531666763 9.06135134826727
-19.4018896389519 19.04663655215 -2.54171566746489 0.464144121875182 5.53974799304052
-17.9989442295557 20.5256483639118 0.635428916866224 0.464144121875182 5.53974799304052
4.84281246898399 26.7099599419016 2.96533494537571 0.464144121875182 5.53974799304052
22.0414884339161 14.8143106766589 -6.35428916866223 0.464144121875182 5.53974799304052
17.0180687022385 23.3189557039448 -0.671947820134398 3.71315297500145 5.1411904403476
15.1475853757288 28.2037232312509 0.24832854222358 2.78486473125109 7.10410689268097
15.1439392827986 28.1969344663536 0.744985626670746 2.93957943854282 6.77909786975296
2.86517177981807 33.4578785287085 0.521003019959276 2.47543531666763 10.2859591767054
14.9652494900043 30.3602522033233 1.84055272471595 2.32072060937591 5.40226214631198
16.700238542045 29.8167080466734 1.59222418249237 2.47543531666763 12.0520585545688
-17.0547098465636 31.0931762759587 -0.550218142573815 -1.39243236562554 6.57076942728882
16.4886584119798 31.3584272981925 1.65065442772145 2.16600590208418 7.755553213678
16.6280549888937 31.6235342167514 1.94280565386684 2.16600590208418 10.3757387753934
16.6345757430593 31.6359355043712 1.66526198902872 2.32072060937591 5.37728388251699
11.4885013481299 36.1980812446296 0.2945858196966 3.09429414583454 9.34900567952125
12.6485044016394 35.7510364433329 2.06210073787621 3.09429414583454 9.34900567952125
13.8305310308155 35.3265598699282 1.76751491817961 3.09429414583454 9.34900567952125
11.4874644256257 36.1948140991672 0.5891716393932 3.24900885312627 5.95734061161301
12.6534645601078 35.7650563464405 1.76751491817961 3.24900885312627 5.95734061161301
13.8305310308155 35.3265598699282 1.76751491817961 3.24900885312627 5.95734061161301
11.5834476402632 36.4972389408663 0.297020413247812 3.09429414583454 5.59946172009516
12.4372730760292 36.0943909286606 2.97020413247813 3.09429414583454 5.59946172009516
13.6366085330719 35.7030767067257 2.3761633059825 3.09429414583454 5.59946172009516
14.764082937802 35.9300973350421 2.41511680280189 1.701861780209 7.76147479864239
16.3000766675122 35.3373142723255 0.60377920070047 1.701861780209 7.76147479864239
14.8898884220722 36.2362594796299 2.13026935731013 1.701861780209 13.0900747943422
16.7358164709 35.4803511823643 0.608648387802893 1.701861780209 13.0900747943422
15.193763695992 36.1098992389508 2.13026935731013 1.85657648750073 5.98779926918183
16.7373271388838 35.4835538364256 0.304324193901447 1.85657648750073 5.98779926918183
14.8534233892018 37.9392772022209 2.21548013160254 1.54714707291727 10.6593731360678
14.95322235113 38.1941881666414 2.87038579687845 1.54714707291727 13.7960701208698
-13.1214693653935 40.2040864277368 2.62936103530851 1.39243236562554 7.71142138593983
-10.4144284722993 40.6447407343113 5.91606232944414 1.39243236562554 7.71142138593983
14.7540727274833 39.6108880591 2.95803116472207 1.39243236562554 7.71142138593983
14.5576471329889 40.0934790843256 1.65552361482388 1.23771765833382 5.72820309787306
14.5528218196589 40.0801896016706 1.98662833778865 1.39243236562554 16.2349487603026
14.9803441921576 40.2183687069002 2.6683145321279 1.39243236562554 5.21807489403638
15.9978421702097 39.8790124001028 1.66769658257993 1.39243236562554 5.21807489403638
14.3355961014007 45.1687349502004 0.735247252465895 0.928288243750363 8.44511450107937
-15.3488838971997 44.5442190034332 5.14673076726128 1.08300295104209 9.75234218127941
-13.8984948686438 45.0583676627002 4.77910714102833 1.08300295104209 9.75234218127941
14.3304188900194 45.15242254247 1.4704945049318 1.08300295104209 9.75234218127941
16.9025453574587 44.253882625779 1.4704945049318 1.08300295104209 9.75234218127941
14.4318364042623 45.4719698279645 -0.370058219784159 0.928288243750363 14.8084998596336
15.5307518878678 45.0720207420022 1.8502910989208 0.928288243750363 14.8084998596336
17.014482743932 44.5469546961484 1.48023287913664 0.928288243750363 14.8084998596336
14.4318364042623 45.4719698279645 0.370058219784159 1.08300295104209 15.2035615227507
15.5307518878678 45.0720207420022 1.8502910989208 1.08300295104209 15.2035615227507
17.0098711152838 44.5348806286873 1.8502910989208 1.08300295104209 15.2035615227507
14.1421284872402 47.203562237914 -0.382231187540217 0.928288243750363 6.66489093095269
15.2666937617328 46.7770383308813 2.67561831278152 0.928288243750363 6.66489093095269
16.8161483899603 46.3136582163716 0.764462375080434 0.928288243750363 6.66489093095269
-48.0310597907789 35.187266571185 12.7524010212463 0.618858829166909 7.74339388832218
-22.6647963036677 56.4982253996023 -1.41693344680514 0.618858829166909 7.74339388832218
56.811684106412 20.8916122207195 6.61235608509065 0.618858829166909 7.74339388832218
56.7615081994333 20.8731608122124 7.0846672340257 0.773573536458636 7.88609575936773
-25.6084916044465 55.5172429139656 2.84847445491755 0.618858829166909 28.9675974759424
-25.6084916044465 55.5172429139656 2.84847445491755 0.773573536458636 40.305143499425
-25.7483518140966 55.820449106391 2.38590168018735 0.618858829166909 32.4581983210968
-25.739817202418 55.8019467237809 2.86308201622482 0.773573536458636 34.8849961685141
13.71120397902 66.5905956686794 10.1303437665914 0.154714707291727 5.08735631060162
13.7894747364704 66.9707297816308 9.64099046279785 0.154714707291727 9.85121169467266
16.5539036648164 66.8240777121184 5.35610581266548 0.154714707291727 9.85121169467266
13.7738122163671 66.8946623155684 10.1766010440644 0.309429414583454 13.2861090419158
13.8670209791495 67.3473451758569 9.1467679719019 0.154714707291727 5.26740226726072
16.6387081902861 67.1664129289393 4.84240657335984 0.154714707291727 5.26740226726072
13.8364204537142 67.1987289624574 10.2228583215374 0.309429414583454 7.26464006655573
16.6291486814746 67.1278235199007 5.38045174817759 0.309429414583454 7.26464006655573
-1.08026566127955 2.82832844213188 -0.827761807411937 0 5.35000031978327
-0.974620408931193 2.82846005165023 -0.949491484972516 0 5.35000031978327
-0.831768212508348 2.94874055461475 -0.681686194339242 0 5.35000031978327
-0.599720997311056 3.03398439612686 -0.535610581266548 0 5.35000031978327
0.0728177580563772 3.12842298959674 -0.243459355121158 0 5.35000031978327
5.69420618146465 7.49367140939121 -0.29215122614539 0 5.36083782061165
6.33111731040216 6.9235774067025 -0.803415871899821 0.5191085573604 12.3420439313774
6.86472762879096 6.4434947090593 -0.146075613072694 0.5191085573604 12.3420439313774
6.34950852558504 6.94368965477487 -0.365189032681737 0.62293026883248 17.3481194942345
5.27734347404074 8.16201651889057 -0.452834400525354 -0.31146513441624 5.79088542786356
5.20759560604157 8.21917725784512 -0 -0.20764342294416 7.02394177048491
7.27178921409298 6.67124335821927 -1.86976784733049 0.41528684588832 5.16371311345697
6.43708981218373 8.47131880160285 -0.827761807411938 0 9.02876166792918
6.98157995502707 7.96165893697855 1.3244188918591 0 9.02876166792918
6.36148274048151 8.54269120889881 -0.662209445929551 0.10382171147208 5.62941820985414
6.98157995502707 7.96165893697855 1.3244188918591 0.10382171147208 5.62941820985414
6.30388986538869 8.99320796077471 0.255632322877217 -0.10382171147208 8.77554788541688
6.6336317347267 8.72997128779159 -0.681686194339243 -0.10382171147208 8.77554788541688
6.63022527506656 8.72548832940389 -0.766896968631648 0 12.3285339918772
5.45785975034669 12.9712933272309 -1.20512380784973 -0.934395403248721 6.3045535587545
6.46209559560114 12.5550110906804 0.328670129413564 -0.934395403248721 6.3045535587545
-8.59411648044087 14.1283200080871 -1.80646841499899 1.24586053766496 35.8565652086443
-1.27906737190206 16.4403112831824 -2.19356878964163 1.24586053766496 35.8565652086443
-1.28035895369009 16.4569124467405 -2.06453533142742 1.34968224913704 46.02970851633
-1.69234462674864 16.6975690693753 -2.36642493177765 1.14203882619288 6.55453745203773
-1.69587167073668 16.7323687547763 -2.1034888282468 1.24586053766496 129.569661862743
-1.69747715583208 16.7482093216719 -1.97202077648138 1.34968224913704 146.885507317602
-1.6989776877695 16.7630143650832 -1.84055272471596 1.45350396060912 8.43961776154882
-2.12373450429022 16.9799606952455 -2.27634497038283 1.14203882619288 12.2887675829413
-1.58537149299984 16.958495307241 -2.81195555164937 1.24586053766496 179.06679655453
-1.58537149299984 16.958495307241 -2.81195555164937 1.34968224913704 170.440485127523
-1.58326343290119 16.9359456856235 -2.94585819696601 1.45350396060912 7.77353012838402
-2.16453136321946 17.3061450933935 -2.18139582188558 1.14203882619288 8.50043737012887
-2.16849573823571 17.3378415845609 -1.90872134414988 1.24586053766496 80.8884792244339
-2.17027734442399 17.3520861160644 -1.77238410528203 1.34968224913704 63.6956153977258
-1.23382632413668 17.6310317262715 -2.7754366483812 1.24586053766496 16.942887284312
-1.23929083630757 17.7091180708152 -2.22034931870496 1.34968224913704 19.1255641096826
-1.26334238321322 18.0528079226718 -1.9768899635838 1.24586053766496 5.94166305590243
-1.26438032788987 18.067639860657 -1.83568353761353 1.34968224913704 8.12375936397541
16.7217413345202 33.1951170420038 -9.2076328106822 -0.830573691776641 5.06987067143153
