VERSION .7
FIELDS x y z velocity intensity
SIZE 4 4 4 4 4
TYPE F F F F F
COUNT 1 1 1 1 1
WIDTH 971
HEIGHT 1
VIEWPOINT 0 0 0 1 0 0 0
POINTS 971
DATA ascii
19.511900 1.868240 30.940200 -10.123200 6.700000
19.020600 1.546760 31.766000 -10.212000 7.040000
19.241700 1.564750 32.135300 -10.212000 5.910000
19.465300 1.465550 32.508700 -10.212000 7.410000
19.686500 1.482210 32.878200 -10.212000 9.850000
9.539050 0.689612 37.583200 -11.366400 6.520000
18.862900 1.978130 33.826600 -10.389600 5.030000
9.644460 0.818524 37.998500 -11.366400 6.730000
19.072500 2.000110 34.202500 -10.389600 8.090000
9.750450 0.827518 38.416100 -11.366400 8.990000
19.279800 2.113920 34.574200 -10.389600 12.150000
9.602760 -3.218890 38.772800 -11.366400 7.600000
19.489400 2.136900 34.950000 -10.389600 11.740000
18.939200 2.410010 35.722800 -10.478400 6.950000
8.873260 -3.253500 39.386600 -11.455200 8.120000
19.140700 2.435650 36.102900 -10.478400 17.050000
8.730500 -3.666540 39.825200 -11.455200 7.060000
19.345600 2.333570 36.489500 -10.478400 19.300000
19.547100 2.357880 36.869600 -10.478400 12.550000
19.379200 1.912380 37.955100 -10.567200 7.750000
19.574900 1.931700 38.338500 -10.567200 9.230000
19.773300 1.816550 38.727100 -10.567200 10.130000
19.540800 2.395740 42.643000 -10.744800 12.110000
19.720000 2.417720 43.034200 -10.744800 9.140000
10.148700 -0.696287 46.294500 -11.455200 10.160000
10.241000 -0.702617 46.715400 -11.455200 11.130000
19.746100 2.163510 43.983100 -10.833600 10.420000
10.333600 -0.559702 47.138200 -11.455200 8.810000
19.922400 2.182820 44.375800 -10.833600 7.730000
20.098700 2.202140 44.768500 -10.833600 5.220000
20.277800 2.068350 45.167300 -10.744800 5.550000
19.646400 2.415840 46.366800 -10.833600 4.920000
16.398600 1.325170 47.655300 -9.856800 9.760000
20.084300 2.436490 46.647800 -10.833600 9.660000
20.254500 2.457140 47.043100 -10.833600 9.350000
-4.932180 0.594684 51.035900 -11.544000 7.780000
-4.676050 0.599681 51.492600 -11.544000 5.990000
19.960300 1.692840 48.137100 -10.922400 7.770000
20.123200 1.869320 48.529900 -10.922400 11.670000
20.288100 1.884640 48.927700 -10.922400 6.030000
20.072300 1.899960 49.481600 -10.922400 15.600000
-22.875500 3.014200 48.193000 -10.389600 14.960000
19.945500 1.915290 49.996800 -10.922400 9.280000
-23.042100 3.703520 48.544000 -10.389600 6.910000
20.105000 1.930610 50.396800 -10.922400 10.960000
20.264600 1.945930 50.796700 -10.922400 7.190000
20.421800 2.131720 51.190800 -10.922400 12.460000
19.886000 1.976580 51.869600 -11.011200 5.930000
20.344100 1.818750 52.160500 -11.011200 9.310000
20.196400 1.832740 52.679300 -11.011200 6.410000
20.657100 1.846730 52.962900 -11.011200 5.370000
20.240800 2.053190 54.037700 -11.011200 14.040000
20.271600 1.734200 55.416500 -11.100000 16.250000
20.419600 1.746860 55.821000 -11.100000 14.060000
-30.939200 -0.505736 50.779000 -9.768000 7.150000
20.567600 1.759520 56.225500 -11.100000 6.170000
20.527000 2.348220 57.136100 -11.100000 12.610000
20.675000 2.175770 57.547900 -11.100000 7.020000
20.820600 2.191090 57.953200 -11.100000 16.680000
20.966200 2.206410 58.358400 -11.100000 10.830000
-19.201900 -1.118700 59.898900 -10.922400 15.790000
-19.681700 -1.126370 60.196400 -10.922400 9.760000
-17.815200 -1.873440 61.205600 -11.011200 6.470000
-17.930000 -2.481450 61.599700 -11.100000 10.330000
-18.050300 -2.498100 62.013100 -11.100000 5.980000
-17.688900 -2.514760 62.564800 -11.011200 9.820000
21.374500 1.766900 63.707100 -11.188800 6.320000
21.511500 1.778220 64.115500 -11.188800 7.270000
11.665400 0.615679 71.442500 -11.544000 9.400000
12.288300 0.619344 71.775100 -11.544000 8.820000
12.776600 1.302600 72.118400 -11.544000 6.980000
12.851800 1.310260 72.542600 -11.544000 13.250000
-13.467200 -4.409810 72.747500 -11.277600 10.080000
-17.361000 1.095070 72.487600 -11.188800 7.840000
-18.020800 1.565090 72.761900 -11.188800 7.940000
-18.124300 1.574080 73.180100 -11.188800 6.730000
21.610700 1.583080 72.676900 -11.277600 7.310000
21.733500 1.592070 73.089900 -11.277600 6.430000
21.856300 1.601070 73.502800 -11.277600 6.090000
21.977500 1.848550 73.910600 -11.277600 5.100000
22.228000 0.904519 74.752900 -11.277600 6.100000
21.915900 0.909516 75.293800 -11.277600 10.020000
22.036300 0.914514 75.707500 -11.277600 11.490000
21.561500 2.329140 76.261900 -11.277600 8.890000
21.680600 2.095360 76.683000 -11.277600 9.390000
21.799100 1.920840 77.102000 -11.277600 9.910000
21.916300 1.931160 77.516500 -11.277600 12.470000
22.033500 1.941490 77.931000 -11.366400 15.010000
21.694300 2.392440 78.461000 -11.277600 11.520000
21.809100 2.405100 78.876100 -11.366400 15.800000
22.045800 1.215340 79.732200 -11.277600 8.930000
22.160600 1.221670 80.147500 -11.277600 10.660000
22.275400 1.228000 80.562700 -11.277600 7.970000
-1.651790 1.789960 85.714500 -11.544000 8.840000
21.210300 1.220360 141.908000 -11.544000 8.920000
21.274000 1.224030 142.334000 -11.544000 7.610000
-62.187800 -9.050370 138.519000 -10.478400 15.850000
-61.291500 -9.076010 139.388000 -10.478400 13.590000
-61.440800 -10.046000 139.727000 -10.478400 7.370000
-60.506300 -11.020900 140.532000 -10.478400 6.770000
-8.245790 0.858225 158.354000 -11.632800 7.430000
-7.044150 0.860557 158.844000 -11.632800 7.570000
-7.063240 0.862890 159.274000 -11.632800 4.700000
-7.082180 1.359620 159.701000 -11.632800 5.870000
-7.101050 1.859010 160.127000 -11.544000 5.270000
-7.138930 2.367380 160.981000 -11.632800 4.840000
-6.291850 0.883879 163.187000 -11.632800 7.320000
-6.308450 0.886211 163.618000 -11.632800 6.240000
-6.325050 0.888543 164.049000 -11.632800 6.510000
4.653440 -0.419726 3.090050 -4.795200 2.240000
5.011390 -0.452012 3.327750 -5.239200 5.090000
5.369350 -0.484299 3.565440 -6.038400 3.800000
5.727310 -0.516585 3.803140 -6.216000 4.170000
6.791130 -0.303802 7.793390 -8.613600 14.540000
7.076900 0.091619 8.121320 -8.613600 13.260000
4.836650 -1.708550 9.472830 -10.034400 8.960000
5.811530 -1.708550 8.908070 -9.590400 6.980000
7.278030 0.129931 8.516430 -8.702400 6.780000
7.489570 0.134928 8.901970 -8.791200 7.240000
6.745390 0.289158 9.999250 -9.501600 4.840000
6.986300 0.299485 10.356400 -9.501600 4.840000
4.500180 -1.585190 12.014300 -10.478400 4.830000
6.724220 0.309813 11.036100 -9.768000 4.310000
6.156620 -1.075690 12.291100 -10.212000 3.240000
6.660220 -0.164912 12.562400 -10.123200 7.110000
6.176860 -0.475674 13.276300 -10.300800 8.480000
-8.092280 0.611511 12.197600 -9.235200 8.500000
6.352830 -0.804209 13.654500 -10.300800 6.610000
4.006420 -1.210150 14.937200 -10.744800 7.940000
-8.265110 0.743336 13.106100 -9.412800 7.330000
-9.108310 0.763985 13.063100 -9.146400 6.910000
4.113700 -1.428020 15.337100 -10.833600 6.810000
-9.250800 0.784633 13.487800 -9.146400 7.450000
4.226870 -1.378330 15.759100 -10.833600 4.670000
6.894950 -0.974261 14.819700 -10.389600 10.550000
-7.301790 1.517050 14.577300 -9.945600 6.410000
4.244540 -1.414600 16.198600 -10.833600 6.100000
7.076400 -0.999899 15.209700 -10.389600 9.250000
-7.487150 1.712150 14.947300 -9.945600 6.930000
-7.587940 1.809070 15.369800 -9.945600 4.320000
-7.782570 1.745590 15.764000 -9.945600 4.270000
-7.847690 1.788170 16.209500 -10.123200 6.900000
-6.992990 1.814960 17.529100 -10.389600 6.750000
-7.151920 1.856210 17.927500 -10.389600 7.940000
6.295940 -1.056960 18.765200 -10.833600 12.170000
-7.310850 1.897460 18.325900 -10.389600 9.120000
6.431710 -1.142480 19.169900 -10.833600 11.210000
6.719250 -1.166790 19.526500 -10.833600 10.600000
7.773990 -0.303834 19.164200 -10.567200 5.510000
-7.628720 1.979950 19.122700 -10.389600 8.130000
17.755000 1.680770 12.088100 -6.660000 8.340000
17.966400 1.714380 12.538400 -6.748800 7.580000
18.318700 1.748000 12.784200 -6.748800 9.720000
-6.965590 0.953237 21.728600 -10.656000 7.180000
6.437540 -1.336940 22.769200 -10.833600 8.330000
17.993600 1.688810 16.632400 -7.903200 5.360000
6.554590 -1.361250 23.183200 -10.833600 8.380000
18.309300 1.718430 16.924200 -7.903200 7.920000
6.532710 -1.537210 23.626600 -10.833600 6.860000
18.620900 1.826490 17.212200 -7.903200 9.360000
7.617930 -1.537210 23.299400 -10.833600 6.860000
6.545530 -0.056971 23.673000 -10.922400 8.340000
6.984410 -0.212556 23.995500 -10.833600 8.280000
-7.693610 1.238890 24.651600 -10.656000 7.800000
18.103400 1.401620 19.005200 -8.347200 7.460000
18.400200 1.424600 19.316700 -8.347200 7.280000
18.244800 1.640860 20.614500 -8.702400 4.890000
8.049360 1.640860 26.325600 -10.833600 7.430000
18.529900 1.666500 20.936600 -8.702400 6.970000
18.811400 1.779930 21.254700 -8.702400 5.810000
18.264000 1.743410 22.846200 -9.057600 6.350000
-7.476610 0.758859 27.875100 -10.833600 8.970000
18.525400 1.952600 23.173200 -9.057600 8.060000
18.793900 1.980900 23.509000 -9.057600 8.620000
19.062400 2.009200 23.844800 -9.057600 15.780000
18.344000 1.845970 24.952600 -9.324000 7.100000
18.595200 1.968710 25.294300 -9.324000 14.600000
18.849900 1.995680 25.640800 -9.324000 9.470000
19.108300 1.922880 25.992200 -9.324000 7.860000
19.359400 2.049610 26.333800 -9.324000 8.830000
18.697300 1.948520 26.815500 -9.412800 14.930000
18.733400 1.974160 27.313500 -9.501600 5.220000
18.976700 1.999800 27.668300 -9.501600 5.910000
18.343500 2.130520 28.596700 -9.679200 13.850000
18.579300 2.051080 28.964200 -9.679200 15.950000
18.811500 2.076710 29.326200 -9.679200 13.560000
19.043700 2.102350 29.688300 -9.679200 6.520000
19.276000 2.127990 30.050300 -9.679200 15.240000
18.561500 2.153630 30.999300 -9.856800 15.620000
18.771300 2.518390 31.349600 -9.856800 11.570000
18.992100 2.548020 31.718400 -9.856800 6.940000
19.208800 2.693300 32.080200 -9.856800 7.000000
18.951400 1.934170 32.786700 -9.945600 13.450000
19.166800 1.956150 33.159300 -9.945600 6.330000
19.379800 2.067960 33.527800 -9.945600 7.150000
19.595100 2.090940 33.900300 -9.945600 10.300000
9.644460 0.818524 37.998500 -11.100000 14.320000
9.751030 0.704937 38.418400 -11.011200 13.720000
19.758100 2.136900 34.798700 -10.034400 4.800000
9.632360 0.712599 38.892300 -11.011200 8.170000
19.970600 2.159870 35.172900 -10.034400 9.860000
9.736430 0.595009 39.312500 -11.011200 16.340000
19.558600 1.873750 36.891200 -10.123200 8.130000
8.618410 -2.615960 40.815400 -11.100000 15.470000
19.757400 2.023530 37.266200 -10.123200 9.620000
9.035790 1.632100 41.217900 -11.100000 7.470000
8.805710 1.780580 41.702400 -11.100000 6.390000
9.219050 1.798560 42.053800 -11.100000 8.510000
9.306100 -2.320720 42.450900 -11.100000 8.070000
7.990110 -2.241880 43.161200 -11.100000 10.360000
8.321530 -2.126770 43.543700 -11.100000 8.480000
19.708900 1.189260 40.708800 -10.300800 6.250000
19.897700 1.094670 41.098900 -10.300800 7.800000
19.443600 1.105000 41.791300 -10.389600 6.820000
19.951200 0.971435 42.032300 -10.389600 7.520000
19.723100 2.271310 43.040800 -10.389600 11.230000
19.902400 2.291950 43.432000 -10.389600 15.160000
20.081700 2.312600 43.823300 -10.389600 14.860000
9.970340 0.410453 47.217900 -11.100000 6.240000
20.261000 2.333250 44.214600 -10.389600 18.860000
10.059400 0.414117 47.639500 -11.100000 7.790000
19.764400 1.443060 44.947900 -10.478400 18.290000
19.937800 1.455720 45.342200 -10.478400 12.800000
20.111200 1.468370 45.736500 -10.478400 8.030000
20.286300 1.325170 46.134700 -10.478400 7.130000
20.087200 2.279410 46.654500 -10.478400 14.760000
20.257400 2.298720 47.049900 -10.478400 6.150000
20.427700 2.318040 47.445300 -10.478400 11.430000
20.597900 2.337360 47.840700 -10.478400 7.160000
20.489000 2.356680 48.355300 -10.478400 7.740000
-4.907080 1.930610 54.036700 -11.188800 16.670000
-5.680180 1.945930 54.393900 -11.188800 9.790000
-10.655500 2.472580 54.059600 -11.011200 8.590000
-10.740200 2.320140 54.489300 -11.011200 7.500000
-10.823400 2.338130 54.911700 -11.011200 5.860000
20.647200 2.549850 52.937600 -10.567200 5.360000
20.803600 2.569160 53.338600 -10.567200 5.960000
-21.443400 -1.551700 54.979100 -10.389600 7.660000
-12.187200 2.281600 57.716500 -10.922400 8.710000
-21.275600 -1.930680 55.494300 -10.389600 10.670000
-12.276100 2.298260 58.137800 -11.011200 7.970000
-19.805500 -1.944670 56.492300 -10.567200 6.060000
-12.365100 2.314910 58.559100 -11.011200 8.920000
21.298000 2.589930 58.222300 -10.744800 8.450000
21.109300 2.414830 58.756900 -10.744800 8.290000
21.254900 2.431490 59.162200 -10.744800 7.990000
-17.816800 -1.676290 61.210900 -10.744800 8.780000
-17.937200 -1.687610 61.624500 -10.744800 8.560000
-18.056000 -1.898760 62.032700 -10.744800 6.540000
21.098600 1.949390 62.884900 -10.833600 7.540000
21.146700 2.210490 64.677000 -10.833600 6.930000
21.280500 2.224480 65.086400 -10.833600 8.210000
21.414400 2.238470 65.495700 -10.833600 6.370000
21.296100 2.482210 66.431600 -10.922400 10.140000
21.040100 2.512860 67.416000 -10.833600 6.820000
-27.893100 -0.168914 67.268200 -10.300800 6.840000
-28.058100 -0.169913 67.666200 -10.300800 9.330000
-28.223200 -0.170913 68.064200 -10.300800 8.910000
-11.518700 -1.317930 73.202400 -11.011200 6.400000
-29.473100 -1.556090 68.454200 -10.212000 7.460000
-11.585700 -1.325590 73.628000 -11.011200 6.050000
-29.643500 -1.565090 68.849900 -10.212000 9.060000
-29.813800 -1.574080 69.245600 -10.212000 6.230000
-17.563600 -0.174911 73.333400 -10.922400 8.600000
-17.663900 -0.175910 73.752400 -10.922400 5.610000
-18.335400 -0.176910 74.032300 -10.922400 8.380000
21.856300 1.601070 73.502800 -10.922400 5.440000
21.976300 2.027400 73.906300 -10.922400 11.750000
22.099000 2.038730 74.319200 -10.922400 12.960000
22.226000 1.386890 74.746100 -10.922400 9.770000
19.922600 0.592362 107.618000 -11.100000 5.710000
20.000000 1.274320 108.036000 -11.100000 7.120000
20.079000 0.938177 108.464000 -11.100000 6.180000
-59.977800 -5.470060 141.551000 -10.212000 7.610000
-58.833200 -14.292200 141.885000 -10.212000 8.190000
-60.911200 -14.332100 141.472000 -10.123200 5.830000
-6.175510 1.363290 160.170000 -11.188800 5.520000
-6.192110 1.366950 160.601000 -11.188800 5.200000
-6.208260 2.367380 161.020000 -11.188800 6.810000
-6.224860 2.373710 161.450000 -11.188800 6.140000
-5.060490 0.888543 164.092000 -11.188800 4.860000
-5.073770 0.890875 164.523000 -11.188800 4.870000
-5.087120 0.382805 164.956000 -11.188800 7.160000
-48.035900 -13.815900 169.900000 -10.656000 8.260000
-48.143900 -14.260000 170.282000 -10.656000 5.520000
6.102330 0.039646 4.052170 -4.884000 6.130000
6.461290 0.041978 4.290530 -5.150400 3.720000
6.247290 0.145587 7.692340 -9.057600 5.940000
6.793330 0.151917 7.795910 -8.791200 13.390000
7.076390 0.158247 8.120740 -8.791200 16.820000
7.277740 0.164577 8.516080 -8.880000 15.540000
6.898320 0.317135 9.893520 -9.590400 7.520000
6.714510 -0.245196 12.041000 -10.034400 9.980000
7.443710 -0.245196 11.604400 -9.945600 9.980000
5.161050 -0.681392 13.232500 -10.656000 8.500000
6.465200 -0.252858 12.662400 -10.300800 9.410000
4.359710 -0.702040 13.969300 -10.744800 9.290000
6.560370 -0.260520 13.097100 -10.300800 8.870000
-8.915510 0.943902 12.127400 -8.968800 7.880000
5.238550 -0.702040 13.664000 -10.656000 7.490000
4.463720 -1.722020 14.302500 -10.744800 6.660000
-8.599590 1.176540 12.333500 -9.146400 6.170000
-9.170240 0.970870 12.473900 -8.968800 6.050000
4.393960 -1.723550 14.776900 -10.922400 5.240000
4.517550 -1.722420 15.192600 -10.833600 9.450000
-7.615030 1.673390 13.906800 -9.768000 6.830000
3.929450 -0.974261 15.865800 -10.833600 10.090000
4.033580 -0.948013 16.286300 -10.833600 8.910000
5.311830 -2.219350 16.246200 -10.833600 10.590000
-7.476250 1.649960 15.442200 -10.034400 6.280000
5.444630 -2.274840 16.652300 -10.833600 10.290000
-7.325970 1.691210 15.987200 -10.212000 6.030000
6.641800 -0.967087 17.731800 -10.744800 7.060000
-7.089840 1.931660 17.477700 -10.389600 8.820000
6.547530 -0.989067 18.224800 -10.833600 8.190000
-7.250980 1.975560 17.874900 -10.389600 12.360000
16.737600 -2.545620 11.114400 -6.038400 5.340000
6.547340 -1.118170 18.675400 -10.833600 8.010000
17.093700 -2.599780 11.350800 -6.038400 11.160000
6.293700 -0.109610 19.249200 -10.922400 8.370000
17.449800 -2.653940 11.587300 -6.127200 9.950000
6.313870 -0.111942 19.695600 -10.922400 4.690000
-8.051920 1.358330 19.003100 -10.300800 6.960000
7.405920 -0.179573 19.771800 -10.833600 9.570000
-8.337810 1.125890 19.365400 -10.300800 7.420000
7.982950 -0.183238 20.010600 -10.744800 7.170000
-8.660020 1.148870 19.694400 -10.212000 6.860000
7.522840 1.849860 20.565100 -10.833600 6.060000
7.412880 -0.190567 21.144200 -10.833600 5.610000
17.609000 1.834420 14.426300 -7.548000 6.090000
9.013590 1.429340 20.935000 -10.567200 3.970000
17.944500 1.815230 14.701200 -7.548000 10.710000
6.502730 -0.197897 22.340600 -11.011200 5.660000
-8.313290 1.456310 21.684000 -10.567200 12.800000
18.276800 1.848840 14.973500 -7.548000 4.970000
-8.468840 1.410110 22.089700 -10.567200 4.830000
6.740260 -0.783463 23.156700 -11.011200 7.110000
-8.273550 1.510240 22.617300 -10.567200 10.470000
6.678750 -0.797454 23.622400 -11.100000 8.280000
-7.302990 1.537210 23.400000 -10.656000 7.750000
6.797160 -0.656923 24.041200 -11.100000 6.940000
6.915650 -0.452079 24.460200 -11.100000 8.370000
7.032860 -0.459742 24.874800 -11.100000 8.110000
18.456800 1.236290 20.453500 -8.791200 9.260000
18.544100 1.255610 20.952700 -8.791200 9.100000
18.662200 1.362780 21.416400 -8.791200 9.200000
-7.348520 2.043200 27.397500 -10.922400 7.180000
-7.693610 0.245539 27.825200 -10.922400 5.290000
18.256900 1.924300 22.837300 -9.146400 7.420000
-7.808440 0.249203 28.240500 -10.922400 5.540000
18.525400 1.952600 23.173200 -9.146400 4.780000
18.793900 1.980900 23.509000 -9.146400 9.150000
7.493930 5.977110 28.599300 -11.100000 8.500000
19.062400 2.009200 23.844800 -9.146400 4.560000
19.334700 1.941740 24.185500 -9.146400 6.550000
18.099300 1.941740 25.123400 -9.412800 6.690000
18.347000 2.065790 25.467200 -9.412800 14.990000
18.602000 1.995680 25.821200 -9.412800 17.420000
18.857000 1.922880 26.175100 -9.412800 6.730000
18.493400 1.847410 26.963700 -9.590400 15.510000
18.736700 1.871720 27.318500 -9.590400 5.680000
18.980100 1.896030 27.673200 -9.590400 13.470000
18.350300 1.920330 28.607300 -9.768000 15.700000
18.582600 1.944640 28.969400 -9.768000 13.500000
18.811500 2.076710 29.326200 -9.768000 5.360000
19.047200 1.993260 29.693600 -9.768000 7.150000
19.276000 2.127990 30.050300 -9.768000 5.760000
18.806400 1.930100 30.866100 -9.945600 7.670000
19.030300 1.953080 31.233500 -9.945600 18.070000
19.254200 1.976060 31.601000 -9.945600 11.210000
19.478100 1.999030 31.968400 -9.945600 12.310000
-6.394850 1.348360 37.351800 -11.100000 5.360000
19.421800 1.956150 33.010600 -10.034400 15.620000
-6.467520 1.363680 37.776200 -11.100000 7.150000
19.640000 1.978130 33.381500 -10.034400 14.490000
-6.540190 1.379010 38.200700 -11.100000 6.060000
9.426070 0.454758 38.059400 -11.100000 8.630000
9.529270 0.582349 38.476000 -11.100000 5.060000
19.504800 1.424970 34.977600 -10.212000 5.410000
9.632360 0.712599 38.892300 -11.100000 5.460000
19.714500 1.440300 35.353700 -10.212000 7.010000
9.735360 0.845508 39.308100 -11.100000 7.430000
8.200560 -3.193460 39.978300 -11.188800 9.860000
19.067100 2.205830 36.643700 -10.300800 5.260000
19.265700 2.228810 37.025400 -10.300800 9.400000
19.464300 2.251780 37.407100 -10.300800 11.660000
19.665300 2.175950 37.793400 -10.300800 8.760000
19.708900 1.189260 40.708800 -10.389600 10.610000
19.579300 1.200580 41.248700 -10.389600 12.720000
19.764000 1.211910 41.637800 -10.389600 9.010000
19.948700 1.223240 42.027000 -10.389600 14.140000
19.725900 2.124870 43.046900 -10.478400 7.460000
19.905200 2.144190 43.438300 -10.478400 11.330000
9.865940 2.698190 46.723500 -11.188800 9.350000
20.084500 2.163510 43.829600 -10.478400 9.420000
20.263900 2.182820 44.221000 -10.478400 8.580000
19.929000 2.068350 45.322200 -10.567200 7.320000
20.102300 2.086330 45.716300 -10.567200 5.650000
20.278200 1.948520 46.116200 -10.478400 6.240000
-22.917800 -1.325170 44.885700 -9.945600 11.340000
19.817200 2.279410 46.769900 -10.567200 15.780000
-23.808700 -1.336500 44.907600 -9.856800 15.390000
19.985100 2.298720 47.166200 -10.567200 10.040000
20.153100 2.318040 47.562600 -10.567200 12.960000
20.321000 2.337360 47.958900 -10.567200 16.880000
20.491700 2.194240 48.361800 -10.567200 16.190000
-5.261330 1.776780 54.441800 -11.188800 12.380000
20.180600 2.320140 51.741400 -10.744800 8.350000
20.194300 2.007220 52.673800 -10.744800 17.140000
20.348400 2.022540 53.075900 -10.744800 17.450000
20.500200 2.214990 53.471800 -10.744800 7.510000
20.965400 2.231640 53.753600 -10.744800 10.040000
20.540600 2.264950 54.837900 -10.833600 5.980000
20.691600 2.281600 55.241100 -10.833600 6.450000
-19.953900 -1.414810 55.540700 -10.567200 5.180000
-12.718800 2.849460 58.018100 -11.011200 6.880000
20.840100 2.482010 55.637400 -10.833600 6.920000
-19.667700 -1.425140 56.099400 -10.656000 8.500000
-12.810900 2.870100 58.438600 -11.011200 6.490000
-19.485800 -1.065070 56.626800 -10.656000 6.760000
20.529400 2.160440 57.142600 -10.833600 6.280000
-20.541000 -0.704625 57.174900 -10.567200 6.420000
20.515700 2.206410 58.518300 -10.833600 12.660000
20.658200 2.221730 58.924700 -10.833600 14.230000
20.800700 2.237060 59.331000 -10.833600 9.870000
-18.640700 -1.676290 60.965000 -10.744800 9.250000
-18.293100 -1.687610 61.519800 -10.833600 8.420000
-19.376200 -1.911420 62.084500 -10.744800 9.270000
-19.985600 -1.924080 62.343400 -10.744800 6.590000
21.649800 1.631680 64.527600 -10.922400 7.830000
21.790700 1.006450 64.947700 -10.922400 6.660000
21.961000 1.724620 68.505700 -11.011200 8.060000
-18.331500 1.592070 74.016400 -10.922400 8.810000
22.500900 2.174640 79.584500 -11.011200 8.380000
22.156600 1.993130 80.133100 -11.011200 5.610000
22.273000 1.744980 80.553900 -11.011200 7.520000
21.761500 2.013780 81.133600 -11.011200 9.600000
22.499700 2.219950 81.373900 -11.011200 8.630000
22.615800 2.034440 81.793900 -11.011200 11.830000
-0.995785 2.798080 86.128800 -11.277600 13.290000
-1.667870 2.812070 86.549200 -11.277600 13.170000
-56.342500 -9.412290 106.272000 -9.856800 10.060000
-55.720000 -9.445910 107.085000 -9.856800 10.080000
-55.931600 -9.104820 107.491000 -9.856800 15.140000
-61.676300 -7.350770 140.263000 -10.212000 15.630000
-60.736600 -8.677970 141.067000 -10.212000 11.650000
-49.963500 -14.125800 148.917000 -10.567200 5.400000
-50.100000 -14.164400 149.324000 -10.567200 6.400000
-6.175060 2.354720 160.159000 -11.277600 5.940000
-6.191660 2.361050 160.589000 -11.277600 4.620000
-7.139220 1.869010 160.988000 -11.277600 9.100000
-5.060490 0.888543 164.092000 -11.277600 9.310000
-5.073770 0.890875 164.523000 -11.277600 5.820000
-5.087120 0.382805 164.956000 -11.277600 4.750000
-49.355600 -13.269800 169.565000 -10.744800 7.560000
-49.475700 -13.302100 169.978000 -10.744800 7.610000
-48.281100 -13.334400 170.767000 -10.744800 6.470000
6.321570 0.084289 7.632340 -8.968800 7.130000
6.718390 0.087954 7.861560 -8.968800 13.410000
6.935000 0.091619 8.242820 -8.968800 16.370000
7.212400 0.095284 8.572530 -8.968800 15.200000
5.731230 2.874300 11.224900 -10.389600 5.590000
5.765290 2.970110 11.677900 -10.478400 8.160000
4.451060 -1.733180 12.935000 -10.833600 3.950000
6.619760 -3.221620 11.658900 -10.212000 9.790000
4.492290 -1.656390 13.389400 -10.833600 6.960000
6.826620 -3.322300 12.023300 -10.212000 8.560000
4.632870 -1.582760 13.808400 -10.833600 6.910000
5.682330 -1.582760 13.410700 -10.567200 7.070000
6.575370 -3.422970 12.636800 -10.389600 8.690000
5.849460 -1.629320 13.805100 -10.567200 7.650000
4.195680 -1.675870 14.839900 -11.011200 7.120000
3.903040 -1.575290 15.377700 -10.922400 7.120000
4.226030 -1.416170 15.755900 -11.011200 9.490000
4.462640 -1.414600 16.139900 -11.011200 9.870000
6.023210 -1.490710 16.080400 -10.833600 7.150000
-7.147290 1.649960 15.597200 -10.212000 4.090000
6.321010 -0.573607 16.487400 -10.744800 7.120000
8.446170 1.691210 15.424700 -10.212000 6.290000
-7.875940 1.691210 15.723500 -10.034400 5.930000
6.472950 -0.755396 16.883700 -10.833600 10.070000
8.669640 1.300220 15.832800 -10.212000 6.980000
-8.068040 1.732460 16.107000 -10.034400 5.410000
6.491840 -0.887874 17.331500 -10.744800 10.390000
-7.286810 1.944750 16.924300 -10.389600 6.260000
6.505930 -0.908522 17.785200 -10.744800 8.930000
-7.222020 1.989980 17.416900 -10.389600 9.600000
6.915340 -1.677050 18.037700 -10.833600 8.310000
-7.250980 1.975560 17.874900 -10.389600 11.820000
6.028200 -1.714310 18.804500 -10.922400 9.800000
-7.414420 1.958470 18.277800 -10.478400 11.480000
6.821790 -1.751580 18.988200 -10.833600 11.130000
-7.584330 1.751580 18.696700 -10.478400 8.940000
7.922300 -0.047975 19.105700 -10.744800 4.420000
-7.745700 1.788850 19.094500 -10.478400 10.070000
7.823550 -0.048975 19.611100 -10.744800 8.370000
-8.068230 1.451780 19.457700 -10.478400 9.080000
7.401610 0.000000 20.233700 -10.744800 9.690000
-8.079620 1.481410 19.917600 -10.478400 6.640000
8.260760 0.000000 20.364200 -10.656000 8.150000
-7.231170 0.000000 22.116500 -10.744800 3.930000
6.432550 1.629550 22.751600 -11.100000 6.720000
8.141050 1.584720 22.660300 -10.833600 5.820000
-8.150910 1.726210 24.929500 -10.744800 8.900000
18.382800 1.836950 19.298500 -8.613600 9.960000
18.675300 1.950320 19.605500 -8.613600 8.560000
18.066600 2.066340 20.732900 -8.880000 9.950000
-6.722640 1.580020 27.143800 -11.011200 7.100000
18.348900 2.098630 21.056800 -8.880000 6.870000
-7.197180 1.604330 27.466800 -10.922400 4.840000
18.631200 2.130910 21.380800 -8.880000 6.180000
-7.680250 1.717780 27.776900 -10.922400 10.880000
-7.575940 1.833870 28.245400 -10.922400 5.950000
18.267300 1.652950 22.850300 -9.146400 12.030000
7.307080 -1.332870 28.789400 -11.100000 7.240000
-7.687350 1.860830 28.660800 -10.922400 8.690000
18.532600 1.769050 23.182100 -9.146400 10.270000
18.801200 1.794690 23.518100 -9.146400 9.960000
7.744670 -1.560530 29.556200 -11.100000 12.550000
19.069800 1.820330 23.854100 -9.146400 6.080000
18.573400 1.815210 28.469800 -9.768000 5.920000
18.808500 1.838190 28.830200 -9.768000 5.000000
19.043600 1.861170 29.190600 -9.768000 7.450000
19.278700 1.884150 29.550900 -9.768000 6.040000
18.568000 1.930100 31.010100 -10.034400 10.340000
19.030300 1.953080 31.233500 -10.034400 5.360000
19.254200 1.976060 31.601000 -10.034400 8.260000
19.478100 1.999030 31.968400 -10.034400 6.540000
9.751030 0.704937 38.418400 -11.188800 17.000000
19.020700 1.777170 34.736200 -10.212000 5.860000
9.857520 0.588679 38.837900 -11.188800 10.420000
19.224700 1.920290 35.108800 -10.212000 5.680000
9.963510 0.595009 39.255500 -11.188800 10.960000
19.431400 1.940930 35.486300 -10.212000 7.480000
10.069500 0.601339 39.673100 -11.188800 5.970000
19.638100 1.961580 35.863800 -10.212000 14.590000
7.764070 -0.607669 40.626700 -11.188800 4.780000
9.185140 -0.613998 40.771000 -11.100000 5.450000
19.547100 2.357880 36.869600 -10.300800 13.770000
9.235420 -4.172390 40.994100 -11.188800 6.650000
19.748700 2.382190 37.249700 -10.300800 7.940000
9.329660 -4.214960 41.412400 -11.100000 6.300000
19.950200 2.406500 37.629800 -10.300800 10.370000
19.480900 1.413030 38.891700 -10.389600 4.720000
19.446500 1.427020 39.389800 -10.478400 7.420000
19.639000 1.303810 39.779800 -10.478400 17.320000
19.394500 1.189260 40.859500 -10.567200 9.880000
19.579300 1.200580 41.248700 -10.567200 8.820000
19.764000 1.211910 41.637800 -10.567200 6.250000
19.948700 1.223240 42.027000 -10.567200 11.590000
19.728500 1.978420 43.052700 -10.567200 9.100000
19.907900 1.996400 43.444100 -10.567200 8.580000
9.951150 3.020490 47.127000 -11.188800 10.420000
20.087200 2.014390 43.835500 -10.567200 4.950000
19.760500 1.746740 44.938900 -10.656000 7.500000
19.926400 2.221460 45.316200 -10.656000 9.540000
20.099600 2.240770 45.710200 -10.656000 6.830000
-22.719900 -1.468370 44.498200 -10.034400 8.980000
20.270000 2.415840 46.097600 -10.656000 12.210000
-22.915800 -1.481030 44.881800 -10.034400 6.660000
-22.764100 -1.336500 45.446100 -10.123200 11.780000
20.251400 2.615530 47.035900 -10.656000 5.510000
-22.691700 -1.347820 45.963200 -10.123200 10.900000
9.989500 2.318040 50.680900 -11.277600 15.480000
20.147100 2.637510 47.548500 -10.656000 14.760000
-5.137050 1.734810 53.155800 -11.277600 13.270000
20.455200 1.734810 49.330600 -10.744800 4.470000
20.620200 1.748800 49.728500 -10.744800 11.750000
-5.219900 1.762790 54.013100 -11.277600 5.200000
-22.882800 2.266190 49.183500 -10.212000 6.450000
20.416500 2.472580 51.177600 -10.744800 11.390000
20.576100 2.491890 51.577400 -10.744800 16.510000
20.732600 2.684270 51.969800 -10.744800 16.890000
20.186700 2.530530 52.654100 -10.833600 7.510000
20.652500 2.198330 52.951300 -10.833600 12.720000
20.809000 2.214990 53.352400 -10.833600 8.050000
-22.358700 -0.132932 52.768100 -10.389600 9.000000
20.965400 2.231640 53.753600 -10.833600 7.340000
20.123700 1.721540 55.012000 -10.833600 8.450000
20.271600 1.734200 55.416500 -10.833600 9.550000
20.822700 2.000630 57.959300 -10.922400 8.150000
20.517900 2.014620 58.524400 -10.922400 6.640000
20.660400 2.028610 58.930900 -10.922400 6.800000
20.802900 2.042600 59.337300 -10.922400 8.450000
-9.486760 1.886100 63.471300 -11.277600 8.140000
-10.411400 1.898760 63.762700 -11.277600 6.540000
-7.452640 1.898760 64.175800 -11.277600 6.330000
-19.640000 -0.764593 62.929700 -10.744800 4.510000
-16.927600 0.981132 64.601300 -10.922400 14.690000
-8.315280 2.614680 67.087400 -11.277600 5.830000
-7.849360 2.210490 67.592100 -11.277600 12.880000
20.774500 2.000030 64.804400 -11.011200 6.240000
-7.899040 2.224480 68.019900 -11.277600 14.090000
-17.372000 -2.731260 68.444600 -10.922400 6.730000
-16.147900 -2.747920 69.185900 -11.011200 6.080000
21.435100 1.279610 68.681700 -11.011200 5.900000
21.409800 2.151930 70.021400 -11.011200 10.740000
12.853000 0.854546 72.549200 -11.277600 6.250000
21.535800 2.164590 70.433300 -11.011200 6.540000
12.928100 0.859543 72.973500 -11.277600 8.800000
21.661700 2.177240 70.845100 -11.011200 8.070000
13.003700 0.634003 73.400000 -11.277600 9.950000
-14.043500 -4.923940 73.484900 -11.100000 7.820000
-14.124200 -4.952240 73.907200 -11.100000 5.360000
-17.862800 1.126720 74.582700 -11.011200 5.540000
-20.203600 0.904519 75.325200 -11.011200 7.140000
-17.234700 0.909516 76.501200 -11.011200 5.970000
22.633400 1.941490 77.758900 -11.100000 5.960000
22.753800 1.951820 78.172500 -11.100000 7.080000
22.267900 1.962150 78.760100 -11.100000 6.430000
22.381800 2.417750 79.163200 -11.100000 6.530000
22.499000 2.430410 79.577700 -11.100000 6.230000
22.609100 3.214230 79.966900 -11.100000 5.250000
22.386200 2.013780 80.963500 -11.100000 5.790000
-0.990588 3.314150 85.679300 -11.366400 11.950000
-0.995566 3.330810 86.109900 -11.366400 11.960000
-0.502928 2.557000 87.002800 -11.366400 10.320000
-0.505418 2.569650 87.433500 -11.366400 10.220000
-4.569520 2.310560 87.754300 -11.366400 10.530000
-55.296900 -9.137100 108.302000 -9.945600 7.390000
-55.492300 -9.169390 108.684000 -9.945600 6.600000
-55.712500 -8.444030 109.116000 -9.945600 5.050000
-61.725900 -4.032150 140.376000 -10.212000 12.720000
-6.191920 1.864010 160.596000 -11.366400 7.610000
-6.208520 1.869010 161.026000 -11.366400 5.850000
-4.980690 1.374280 161.505000 -11.366400 7.050000
-7.196950 0.376808 162.289000 -11.366400 6.890000
-6.324910 1.396270 164.045000 -11.366400 6.760000
-6.341520 1.399940 164.476000 -11.366400 5.590000
-6.358120 1.403600 164.906000 -11.366400 6.090000
-6.374720 1.407270 165.337000 -11.366400 6.060000
-5.113510 1.410930 165.812000 -11.366400 7.290000
-48.027000 -14.225400 169.869000 -10.833600 4.770000
-48.175200 -12.754500 170.393000 -10.833600 5.030000
6.718540 0.055971 7.861730 -8.968800 12.060000
6.998480 0.058303 8.189300 -8.968800 16.170000
7.212650 0.025987 8.572820 -9.057600 6.290000
7.490050 0.026986 8.902540 -9.057600 15.720000
5.517520 -0.897768 11.176000 -10.389600 4.620000
6.279580 -0.928726 11.261100 -10.212000 8.260000
6.399020 -0.959683 11.686100 -10.212000 5.760000
5.133770 -2.034410 14.034100 -10.744800 4.340000
3.781340 -2.092530 14.898200 -11.011200 4.760000
3.892630 -1.955070 15.336700 -11.011200 8.240000
4.626610 -1.955070 15.131500 -11.011200 8.240000
5.708010 -1.819310 15.238900 -10.922400 7.870000
5.858220 -1.867180 15.639900 -10.922400 5.330000
-7.415300 1.349860 15.020100 -10.123200 6.880000
6.021570 -1.543810 16.076000 -10.922400 4.740000
-7.247230 1.384470 15.576900 -10.212000 9.360000
6.741630 -1.527980 16.258400 -10.744800 11.190000
-7.673640 1.419080 15.849900 -10.212000 12.040000
6.781000 -1.453690 16.716300 -10.744800 6.760000
7.528550 -0.965050 16.429200 -10.567200 9.100000
-7.856730 1.565240 16.228100 -10.212000 6.070000
-8.667660 1.356040 15.829200 -9.945600 7.000000
-7.130060 1.565240 16.560300 -10.212000 4.590000
6.955040 -0.988028 17.145400 -10.744800 7.420000
-7.414580 2.001730 16.862100 -10.300800 8.660000
7.116790 -1.011010 17.544100 -10.656000 8.560000
-7.219620 2.048280 17.411100 -10.389600 7.940000
6.401380 -1.273430 18.259000 -11.011200 3.510000
7.174690 -1.033980 17.984600 -10.744800 9.360000
-7.386150 2.035210 17.812800 -10.389600 5.650000
6.292540 -1.240560 18.755100 -11.011200 9.070000
-7.690400 2.080430 18.149900 -10.389600 8.680000
6.439740 -0.532334 19.193800 -11.011200 8.300000
-7.227760 1.579920 18.852600 -10.567200 7.490000
7.401550 -0.543660 19.305900 -10.922400 10.800000
-8.590060 1.613540 18.745700 -10.300800 9.640000
8.081330 -0.816048 19.489300 -10.744800 8.830000
-8.795830 0.000000 19.194800 -10.300800 9.490000
-8.975200 -0.116607 19.586200 -10.300800 5.740000
6.308110 1.958680 22.311400 -11.100000 5.760000
-7.222860 1.115000 22.091100 -10.833600 5.560000
6.293460 1.994950 22.761300 -11.188800 7.830000
-7.529810 1.135650 22.442800 -10.833600 5.960000
-7.844790 1.007190 22.797400 -10.744800 5.360000
6.349160 1.613020 23.671600 -11.188800 6.910000
7.487160 1.309710 23.355600 -11.011200 7.210000
6.460550 1.641310 24.086900 -11.188800 6.740000
-7.113120 1.332690 23.921500 -10.922400 4.760000
18.305300 1.795540 16.920500 -8.169600 9.190000
7.611720 4.960760 23.744200 -11.100000 7.200000
8.746240 4.960760 23.350100 -10.922400 4.160000
17.929300 1.857450 18.534200 -8.524800 7.890000
-7.675660 1.340730 25.103400 -10.833600 5.130000
18.228200 1.888410 18.843100 -8.524800 7.180000
-7.948850 1.362710 25.469400 -10.922400 8.720000
18.527000 1.919370 19.152000 -8.524800 6.500000
-7.920520 1.782810 25.904300 -10.922400 10.500000
18.241400 1.725990 20.610600 -8.880000 8.060000
18.526400 1.752960 20.932600 -8.880000 5.990000
18.811400 1.779930 21.254700 -8.880000 8.940000
-6.936150 1.026590 28.005900 -11.011200 6.960000
-7.205310 0.860771 28.388400 -11.011200 9.100000
7.295530 -2.136070 28.743900 -11.100000 4.700000
8.429770 0.000000 28.961100 -11.100000 7.400000
-7.437530 2.324630 30.030300 -11.100000 5.010000
18.324900 2.324630 24.926600 -9.501600 10.770000
18.583600 2.259900 25.278500 -9.501600 12.780000
18.838200 2.290860 25.624800 -9.501600 10.330000
18.585700 1.838190 28.974300 -9.856800 15.920000
18.818100 1.861170 29.336500 -9.856800 7.220000
19.050400 1.884150 29.698700 -9.856800 8.540000
19.206500 1.817040 32.644700 -10.123200 17.700000
19.424700 1.837690 33.015600 -10.123200 5.990000
19.643000 1.858340 33.386600 -10.123200 16.410000
8.395740 0.576019 38.298200 -11.277600 10.060000
19.858200 2.000110 33.752400 -10.123200 7.180000
9.232440 0.582349 38.548300 -11.277600 5.580000
9.632850 0.588679 38.894300 -11.277600 7.830000
19.494700 1.920290 34.959600 -10.212000 5.780000
9.736430 0.595009 39.312500 -11.277600 8.390000
19.428400 2.066050 35.480900 -10.300800 7.990000
9.819820 -2.688360 39.649200 -11.188800 4.700000
6.966930 -2.588990 40.693200 -11.277600 7.040000
19.067100 2.205830 36.643700 -10.389600 6.310000
8.929090 -2.873930 40.731100 -11.277600 6.420000
19.265700 2.228810 37.025400 -10.389600 10.390000
9.021150 -2.903560 41.151100 -11.277600 14.910000
19.461000 2.382190 37.400800 -10.389600 14.660000
6.861000 -2.669890 42.019000 -11.277600 6.600000
19.367800 2.406500 37.932800 -10.389600 7.850000
6.930300 -2.696860 42.443400 -11.188800 9.420000
19.253800 1.547550 38.999600 -10.478400 9.890000
9.985510 1.291160 42.783000 -11.277600 12.450000
19.439800 1.834530 39.376300 -10.478400 8.920000
9.165530 1.303810 43.406400 -11.277600 8.230000
19.627700 1.989650 39.757000 -10.478400 14.650000
9.001010 1.316470 43.880600 -11.277600 16.090000
19.395700 1.084340 40.861900 -10.567200 10.840000
19.580400 1.094670 41.251100 -10.567200 13.360000
19.765100 1.105000 41.640200 -10.567200 6.740000
19.951200 0.971435 42.032300 -10.567200 6.410000
19.907900 1.996400 43.444100 -10.656000 10.320000
20.087200 2.014390 43.835500 -10.656000 10.350000
19.931500 1.915210 45.327900 -10.656000 7.410000
20.456600 1.931870 45.565700 -10.656000 10.080000
-23.267400 -0.896496 44.716100 -10.034400 5.610000
19.992600 1.823350 47.183800 -10.744800 13.480000
20.160600 1.838680 47.580300 -10.744800 8.150000
20.328600 1.854000 47.976800 -10.744800 6.980000
-24.623900 -0.284520 46.445300 -10.034400 5.420000
19.903000 2.375990 49.064200 -10.744800 8.230000
-5.096110 1.556980 52.732200 -11.366400 6.480000
20.067500 2.230220 49.469800 -10.744800 5.920000
-5.137540 1.569640 53.160900 -11.366400 9.790000
20.229300 2.248200 49.868700 -10.744800 6.890000
20.775200 2.433940 50.102300 -10.744800 8.740000
20.262300 2.115060 50.790900 -10.833600 11.110000
20.421800 2.131720 51.190800 -10.833600 12.500000
20.581400 2.148370 51.590800 -10.833600 8.300000
20.740900 2.165020 51.990700 -10.833600 9.350000
20.498400 2.007220 52.556200 -10.833600 7.660000
20.348400 2.022540 53.075900 -10.833600 6.850000
20.502600 2.037870 53.478000 -10.833600 8.250000
20.656700 2.053190 53.880100 -10.833600 6.570000
20.547100 1.721540 54.855200 -10.922400 10.870000
-21.286900 -1.540370 54.577800 -10.567200 7.130000
20.698200 1.734200 55.258600 -10.922400 6.130000
-21.125300 -1.551700 55.102100 -10.567200 13.780000
-22.727500 -3.905200 54.810600 -10.478400 8.460000
-20.532000 -3.933500 56.128300 -10.567200 10.460000
20.815600 2.571940 57.939300 -10.922400 9.070000
20.961100 2.589930 58.344500 -10.922400 9.480000
21.109300 2.414830 58.756900 -10.922400 8.050000
21.254900 2.431490 59.162200 -10.922400 6.240000
-7.748300 2.598030 66.721800 -11.366400 5.200000
21.515500 1.202990 64.127500 -11.011200 5.780000
-20.647400 1.412180 64.408000 -10.833600 6.690000
-7.798860 2.405600 67.157200 -11.366400 12.230000
21.652600 1.210650 64.535900 -11.011200 13.020000
21.789600 1.218320 64.944400 -11.011200 9.400000
21.552100 1.823530 65.917000 -11.100000 7.990000
21.304000 1.714300 68.261700 -11.100000 6.670000
21.435100 1.279610 68.681700 -11.100000 9.100000
21.818900 1.529110 69.911400 -11.100000 5.650000
21.947200 1.538100 70.322600 -11.100000 6.790000
12.927600 1.088740 72.970500 -11.366400 7.020000
13.002800 1.095070 73.394800 -11.366400 7.330000
-14.397400 0.000000 75.336800 -11.188800 8.780000
-16.113300 0.180908 76.310000 -11.100000 7.700000
-16.202300 0.181907 76.731600 -11.100000 4.930000
-16.291400 0.182907 77.153200 -11.100000 6.240000
22.153400 1.655040 76.109700 -11.100000 6.690000
22.275100 1.417540 76.528000 -11.100000 8.230000
21.466600 2.118010 77.637400 -11.100000 10.760000
21.581400 2.129340 78.052600 -11.100000 9.680000
21.696100 2.140660 78.467700 -11.100000 11.080000
21.916900 3.180920 79.266200 -11.188800 11.420000
22.031700 3.197570 79.681200 -11.188800 7.790000
21.296000 1.234330 81.272600 -11.188800 5.590000
23.601800 0.979479 81.085600 -11.188800 6.540000
24.194200 0.459430 81.365100 -11.188800 6.460000
20.775800 0.979479 81.855300 -11.188800 6.260000
22.275400 1.228000 80.562700 -11.188800 10.280000
22.146400 3.214230 80.096200 -11.188800 9.520000
-1.005980 2.086070 87.011000 -11.455200 9.750000
-1.684630 2.569650 87.418700 -11.455200 8.180000
30.302700 1.599150 134.508000 -11.277600 10.820000
30.397400 1.604150 134.928000 -11.277600 10.570000
30.492100 1.609140 135.348000 -11.277600 7.800000
-61.874400 -5.945490 140.713000 -10.300800 6.270000
-61.904900 -12.034300 140.783000 -10.300800 7.220000
-60.168000 -12.067900 142.000000 -10.389600 6.460000
-7.081670 2.348390 159.690000 -11.455200 7.400000
-7.101050 1.859010 160.127000 -11.455200 5.630000
-7.120510 0.869886 160.566000 -11.455200 4.950000
-6.208710 1.370620 161.031000 -11.455200 5.010000
-6.225120 1.874000 161.457000 -11.455200 7.270000
-6.241720 1.879000 161.887000 -11.455200 8.250000
-6.325050 0.888543 164.049000 -11.455200 4.880000
-6.341650 0.890875 164.479000 -11.455200 6.040000
-6.358250 0.893207 164.910000 -11.455200 8.590000
-6.374930 0.383804 165.342000 -11.455200 7.290000
6.188470 0.022988 7.741080 -9.324000 3.220000
6.384920 -0.583393 8.114250 -9.412800 7.060000
6.657830 0.023988 7.913370 -9.235200 8.420000
5.485760 -1.420130 9.161680 -10.034400 5.020000
6.935150 0.058303 8.243000 -9.235200 13.950000
7.212560 0.060636 8.572720 -9.235200 14.430000
7.421130 0.062968 8.959900 -9.235200 10.390000
7.122290 -0.392410 11.293900 -10.212000 7.070000
-1.714860 1.000880 13.209500 2.664000 9.520000
-1.688810 1.277510 13.625200 2.664000 13.140000
4.663440 -1.874570 13.301800 -10.922400 6.000000
-2.731890 1.623620 13.860000 2.664000 14.000000
4.804760 -1.931370 13.704900 -10.922400 6.680000
-2.809620 1.886450 14.254400 2.664000 10.440000
-0.948324 2.172970 14.894000 2.664000 6.920000
4.266940 -2.744080 14.659400 -11.100000 4.440000
-2.881460 2.235050 15.077700 2.664000 7.190000
5.797580 -3.062610 14.532600 -10.922400 7.650000
-1.652660 0.997839 15.826000 2.664000 4.940000
5.931730 -1.277380 15.208500 -10.922400 10.350000
-1.164090 1.024810 16.300600 2.752800 5.310000
5.997500 -1.311000 15.643600 -10.922400 10.370000
6.006330 -1.968030 16.035300 -11.011200 9.470000
-8.148040 1.756050 15.086600 -10.034400 5.310000
6.191610 -0.737410 16.530000 -11.011200 9.080000
6.984470 -0.423410 16.222100 -10.744800 7.900000
-7.198120 1.799950 16.033300 -10.300800 5.680000
-8.351740 1.799950 15.463800 -10.034400 3.750000
6.342630 -0.755396 16.933100 -11.011200 7.910000
7.282690 -0.433738 16.562100 -10.744800 7.150000
4.662860 -2.215220 17.795000 -11.277600 5.470000
7.095040 -0.444065 17.110700 -10.833600 10.950000
9.009670 -1.045250 16.156900 -10.300800 5.930000
5.849800 -2.266740 17.891600 -11.188800 5.050000
-7.085220 2.048280 17.466300 -10.567200 6.030000
9.346350 -1.069550 16.461100 -10.300800 6.910000
5.876880 -2.318260 18.332500 -11.188800 7.050000
-7.246240 2.094830 17.863200 -10.567200 9.930000
9.558770 -1.093860 16.835200 -10.300800 7.860000
6.049140 -0.475046 18.869800 -11.188800 9.840000
-7.407270 2.141390 18.260200 -10.567200 8.730000
6.440120 -0.485373 19.194900 -11.100000 11.750000
-7.711870 2.187940 18.598300 -10.567200 7.060000
6.577140 -0.495700 19.603300 -11.100000 10.830000
8.063310 -0.799394 19.029900 -10.833600 7.310000
-7.900050 1.549760 19.052100 -10.567200 7.850000
8.231300 -0.816048 19.426400 -10.833600 7.530000
-7.650630 1.582040 19.615600 -10.656000 7.620000
-13.704400 1.614330 16.546000 -12.698400 4.070000
8.117110 1.748000 20.811600 -10.922400 4.960000
8.150450 1.781610 21.259300 -10.922400 4.430000
17.784700 2.084140 14.858900 -7.725600 5.300000
18.253900 2.195730 14.954700 -7.725600 8.320000
18.585700 2.235650 15.226600 -7.725600 8.690000
6.681220 -0.436754 23.631100 -11.188800 6.310000
17.993600 1.688810 16.632400 -8.258400 5.710000
6.647320 1.564180 24.041100 -11.277600 5.810000
18.309300 1.718430 16.924200 -8.258400 10.350000
6.919130 7.550450 23.269100 -11.277600 6.810000
7.699140 -0.759504 24.669300 -11.188800 7.120000
7.683010 -0.690902 25.127500 -11.188800 8.060000
-8.286170 1.672050 25.343200 -10.922400 6.150000
18.085400 1.640860 20.754500 -9.057600 6.530000
18.368000 1.666500 21.078800 -9.057600 4.470000
18.647100 1.779930 21.399000 -9.057600 4.170000
18.087400 1.743410 22.986300 -9.412800 10.610000
9.206860 0.443092 28.720100 -11.188800 7.280000
18.615800 1.887800 23.657900 -9.412800 5.260000
-6.953700 0.000000 29.793200 -11.188800 6.980000
18.878000 2.009200 23.991100 -9.412800 6.420000
18.333000 2.133230 24.937700 -9.590400 8.880000
-7.321900 1.118530 30.571200 -11.188800 12.010000
18.587600 2.162860 25.284000 -9.590400 8.580000
-7.241200 1.330940 31.025000 -11.188800 6.370000
-7.339060 1.348920 31.444200 -11.188800 6.210000
18.729800 2.076580 27.308400 -9.856800 10.730000
18.973100 2.103550 27.663000 -9.856800 6.050000
19.216300 2.130520 28.017700 -9.856800 12.510000
18.358800 1.944640 29.111700 -10.034400 8.490000
18.814900 1.968950 29.331500 -10.034400 5.960000
-12.671600 1.456830 32.488800 -14.208000 16.190000
19.047200 1.993260 29.693600 -10.034400 6.370000
-12.828000 1.474820 32.889900 -14.208000 5.570000
-17.157500 1.713800 31.333600 -13.675200 15.430000
18.808700 1.846260 30.869800 -10.123200 9.970000
-17.359500 1.930100 31.702400 -13.675200 5.890000
19.032600 1.868240 31.237300 -10.123200 5.270000
19.256500 1.890220 31.604800 -10.123200 9.490000
19.480500 1.912200 31.972300 -10.123200 8.410000
18.957000 1.699900 32.796500 -10.300800 5.680000
19.169700 1.837690 33.164400 -10.300800 7.860000
19.385100 1.858340 33.537000 -10.300800 6.700000
9.426070 0.454758 38.059400 -11.366400 4.410000
9.529660 0.459756 38.477600 -11.366400 5.840000
9.632850 0.588679 38.894300 -11.366400 7.470000
9.433140 0.595009 39.386300 -11.366400 8.280000
9.532450 0.854503 39.801000 -11.366400 14.080000
19.069400 2.110010 36.648100 -10.478400 6.040000
19.271000 2.002880 37.035600 -10.478400 6.270000
19.469600 2.023530 37.417400 -10.478400 10.480000
7.196270 -1.121300 42.032800 -11.366400 7.530000
19.668300 2.044180 37.799200 -10.478400 15.910000
10.033500 -1.032710 41.892900 -11.366400 18.860000
19.439800 1.834530 39.376300 -10.567200 17.560000
19.630400 1.852520 39.762300 -10.567200 7.620000
-23.767600 12.646000 35.825100 1.953600 14.110000
19.398200 0.804548 40.867200 -10.656000 15.400000
19.581800 0.953445 41.253900 -10.656000 10.090000
19.765100 1.105000 41.640200 -10.656000 7.370000
19.737200 1.392420 43.071700 -10.744800 12.230000
19.916600 1.405080 43.463200 -10.744800 7.650000
20.097800 1.268540 43.858600 -10.744800 9.200000
19.576500 2.221460 45.468400 -10.833600 11.030000
19.746700 2.240770 45.863800 -10.833600 7.040000
-22.917800 -1.325170 44.885700 -10.123200 6.660000
19.822300 1.965180 46.781900 -10.833600 9.350000
-23.113600 -1.336500 45.269300 -10.123200 6.370000
17.188800 0.904158 47.844200 -9.856800 6.140000
19.990300 1.981830 47.178400 -10.833600 5.990000
-22.957000 -1.347820 45.831200 -10.212000 7.400000
16.682100 0.911821 48.479000 -9.945600 11.360000
20.158300 1.998480 47.574900 -10.833600 10.300000
19.158500 0.599681 48.024100 -9.945600 7.890000
20.326300 2.015140 47.971300 -10.833600 10.210000
19.908100 2.048450 49.076900 -10.922400 6.310000
-5.503170 1.270230 52.698900 -11.455200 6.630000
20.070000 2.065100 49.475900 -10.922400 8.470000
-5.547590 1.404460 53.124300 -11.455200 8.170000
20.231800 2.081750 49.874900 -10.922400 8.750000
20.393700 2.098410 50.273900 -10.922400 8.660000
19.867700 2.284170 50.939200 -10.922400 15.840000
20.026700 2.131720 51.346700 -10.922400 7.510000
20.183100 2.148370 51.747900 -10.922400 8.720000
20.339600 2.165020 52.149000 -10.922400 17.060000
20.196400 1.832740 52.679300 -11.011200 6.440000
20.350600 1.846730 53.081500 -11.011200 13.830000
20.504700 1.860720 53.483600 -11.011200 5.850000
20.656700 2.053190 53.880100 -11.011200 5.120000
20.547100 1.721540 54.855200 -11.011200 13.740000
-31.259200 0.317170 49.568200 -9.590400 6.090000
-12.188600 2.099150 57.723200 -11.277600 16.380000
20.698200 1.734200 55.258600 -11.011200 6.390000
-21.426200 -2.828810 54.934900 -10.656000 14.650000
-31.487400 0.684636 49.930000 -9.590400 7.430000
-12.277600 2.114480 58.144500 -11.277600 8.080000
-20.079100 -3.033140 55.889400 -10.833600 6.670000
-31.717200 0.689633 50.294500 -9.590400 10.370000
-12.366500 2.129800 58.565800 -11.277600 15.010000
-20.224600 -3.055120 56.294400 -10.744800 15.080000
20.720000 1.259270 56.642100 -11.100000 10.590000
-21.159100 0.699628 56.489200 -10.744800 10.190000
20.537900 1.268260 57.166300 -11.100000 15.110000
-21.309400 0.892513 56.890400 -10.744800 15.150000
20.377400 1.810150 58.123600 -11.100000 10.510000
20.519900 1.822810 58.530000 -11.100000 7.480000
