VERSION .7
FIELDS x y z velocity intensity
SIZE 4 4 4 4 4
TYPE F F F F F
COUNT 1 1 1 1 1
WIDTH 873
HEIGHT 1
VIEWPOINT 0 0 0 1 0 0 0
POINTS 873
DATA ascii
-6.357020 1.157860 11.196200 -12.432000 4.200000
-6.456610 1.638030 11.578500 -12.609600 4.790000
-6.568920 1.196450 11.569400 -12.432000 5.610000
-10.358400 1.362410 8.998820 -9.679200 3.730000
-5.893660 1.107570 12.416500 -12.876000 4.570000
-6.664890 1.690870 11.952000 -12.609600 6.690000
-10.682100 1.404990 9.280030 -9.679200 3.660000
-5.955110 1.796550 13.264600 -13.142400 3.260000
-5.557400 1.582940 13.930600 -13.408800 4.180000
-6.235320 1.849390 13.607100 -13.053600 4.240000
-5.716190 1.628160 14.328600 -13.408800 6.950000
-6.288580 1.145430 14.605800 -13.231200 7.630000
-5.505660 1.718620 15.324800 -13.586400 5.170000
-6.573960 1.176390 14.950400 -13.142400 8.750000
-5.532660 1.660440 15.781100 -13.586400 5.620000
-6.076560 1.660440 15.579800 -13.408800 5.480000
-6.234250 1.649960 15.984100 -13.408800 5.180000
8.169490 -1.238300 15.126300 -13.053600 5.780000
8.373730 -1.269260 15.504500 -13.053600 7.970000
9.533370 0.377780 15.378600 -12.787200 10.910000
9.760360 0.386775 15.744800 -12.787200 14.950000
9.987340 0.395770 16.111000 -12.787200 14.150000
-6.536330 6.526630 17.049100 -13.586400 6.410000
0.760804 1.714310 19.732500 0.888000 4.870000
-5.517300 1.775380 18.955100 -13.852800 6.160000
0.505345 1.751580 20.170100 0.888000 12.260000
-5.637240 1.813970 19.367200 -13.852800 5.400000
9.611500 1.033030 17.796300 -13.142400 6.950000
0.238386 1.613540 20.618800 0.888000 17.630000
9.816000 1.055000 18.174900 -13.142400 8.480000
0.243352 1.647150 21.048300 0.888000 18.060000
0.248488 1.481410 21.492600 0.888000 13.950000
0.253458 1.511040 21.922400 0.888000 7.370000
0.862902 0.658237 22.380500 0.888000 7.340000
0.878317 1.358840 22.780300 0.888000 7.920000
-0.134266 1.384480 23.227000 0.888000 6.580000
0.000000 1.410110 23.657500 0.888000 6.470000
18.140200 1.702660 15.155900 -9.768000 9.100000
9.527180 1.208860 21.666500 -13.497600 5.660000
2.034560 2.235650 23.940300 0.888000 5.610000
18.470000 1.733620 15.431500 -9.768000 9.450000
-5.469190 1.808050 23.432800 -14.119200 5.020000
9.870140 1.230840 21.985000 -13.497600 8.470000
0.612525 2.275570 24.448000 0.888000 7.210000
18.799800 1.764580 15.707000 -9.768000 5.340000
10.221600 1.101070 22.306100 -13.497600 12.410000
0.623089 2.392440 24.869600 0.888000 6.500000
10.400900 1.120390 22.697500 -13.497600 12.190000
-4.930830 1.782810 26.635500 -14.296800 9.660000
-4.800410 1.811110 27.096100 -14.296800 7.910000
-5.617030 1.752960 27.383400 -14.208000 4.320000
-5.703440 1.779930 27.804700 -14.208000 6.150000
-3.928820 1.896000 28.538800 -14.385600 4.490000
10.124600 -0.602649 27.030000 -13.852800 4.500000
-5.877390 1.743410 28.652700 -14.296800 6.290000
10.488400 -0.339819 27.357600 -13.852800 6.710000
-5.965900 1.585440 29.084200 -14.208000 11.050000
10.803000 -0.344817 27.697900 -13.852800 7.570000
-6.222820 1.608420 29.470300 -14.208000 13.490000
18.419100 0.629634 23.877700 -11.899200 12.580000
19.606400 -5.885650 22.152900 -0.355200 7.740000
19.967700 -3.493250 22.914500 -0.355200 7.790000
19.558600 -0.167914 24.082600 -11.810400 11.260000
-17.990900 -0.170246 25.802300 -11.721600 11.350000
-7.815880 1.896030 32.633800 -14.119200 8.650000
-7.913170 2.130520 33.040000 -14.119200 6.520000
-18.149200 -1.332320 29.277100 -12.254400 7.680000
-3.824590 0.836494 34.682600 -14.474400 5.570000
-17.220300 -1.348980 30.329100 -12.343200 5.340000
-17.647600 -1.271750 31.081500 -12.520800 6.210000
-19.035100 0.544370 31.790200 -12.254400 8.050000
-4.599360 2.693300 37.107500 -14.385600 6.450000
-3.938300 0.205228 37.713600 -14.474400 7.240000
23.531100 -4.213130 29.434700 -0.710400 6.730000
-4.203470 0.207560 38.118500 -14.474400 8.340000
-7.699400 1.600720 37.535100 -14.208000 5.120000
-17.681600 -1.837690 33.981100 -12.698400 6.870000
-7.785910 1.618700 37.956900 -14.208000 5.210000
-17.877500 -1.978130 34.357600 -12.787200 11.220000
-7.872420 1.636690 38.378600 -14.208000 6.530000
20.376100 -2.000110 33.442300 -12.787200 8.150000
-18.076200 -2.000110 34.739400 -12.787200 7.660000
-8.183080 1.654680 38.753700 -14.208000 6.050000
-7.515700 1.672660 39.327100 -14.296800 7.030000
-15.996900 -2.066050 37.154400 -13.231200 10.780000
-17.061900 -2.159870 36.672200 -13.053600 9.340000
-15.956700 -1.708630 37.658700 -13.231200 9.210000
-15.828700 -1.854430 38.173200 -13.320000 9.230000
-15.695800 -1.873750 38.692900 -13.320000 7.850000
12.894700 0.524721 43.364900 -14.119200 8.210000
12.764200 0.529718 43.852400 -14.208000 10.300000
-2.555450 13.010800 44.158600 -14.563200 7.480000
12.885000 0.392129 44.267500 -14.208000 5.540000
13.005700 0.251870 44.682200 -14.208000 5.260000
-4.056040 13.949100 44.665100 -14.563200 10.170000
12.158500 -1.815290 45.330700 -14.208000 6.260000
-2.353600 14.077100 45.199100 -14.563200 9.910000
11.998800 -2.417720 45.791400 -14.208000 6.510000
12.374800 -2.439700 46.136900 -14.208000 7.030000
-16.544300 -0.275192 48.078600 -13.675200 6.120000
14.301500 0.609676 50.583400 -14.208000 5.680000
14.419100 0.450765 50.999600 -14.208000 6.970000
14.927400 -0.649655 53.987500 -14.208000 21.720000
15.042300 -0.654652 54.402800 -14.208000 6.610000
15.156500 -0.835544 54.815900 -14.208000 7.660000
14.525600 0.664647 55.434400 -14.208000 6.550000
14.957400 0.669644 55.765600 -14.208000 7.820000
15.069000 0.674641 56.181800 -14.208000 14.730000
15.180000 0.860864 56.595600 -14.208000 16.130000
15.072400 0.321835 57.521400 -14.296800 21.620000
15.181600 0.324167 57.938200 -14.296800 21.800000
15.509500 0.141928 59.189400 -14.296800 18.430000
15.519200 -16.170800 57.860300 -14.296800 19.160000
15.837200 0.000000 60.440000 -14.296800 15.770000
15.473500 1.313240 60.964700 -14.296800 8.910000
15.581200 0.930493 61.389000 -14.296800 14.300000
15.687200 0.936822 61.806600 -14.296800 10.330000
15.793200 0.943152 62.224200 -14.296800 10.920000
15.536100 1.149350 62.729500 -14.296800 13.250000
15.633900 2.112550 63.124400 -14.296800 21.030000
16.102800 2.328990 63.443700 -14.296800 23.090000
16.369300 -13.264000 62.470600 -14.296800 21.100000
15.692500 -11.940500 63.361100 -14.296800 15.790000
13.796600 1.187670 65.338200 -14.385600 13.090000
16.510600 3.792050 65.050800 -14.296800 9.720000
15.843100 1.009460 85.581800 -14.474400 11.700000
15.921500 1.014460 86.005500 -14.474400 6.790000
16.000000 1.019460 86.429200 -14.474400 6.640000
-14.302900 1.303960 87.595800 -14.296800 6.320000
-14.371600 1.586110 88.016600 -14.296800 6.250000
-14.440200 1.870910 88.436500 -14.385600 8.860000
-14.508600 2.158360 88.855500 -14.385600 9.620000
-13.692500 0.000000 99.461600 -14.385600 6.620000
-13.751200 0.000000 99.888500 -14.385600 7.510000
-13.809800 -0.548051 100.314000 -14.385600 13.290000
-13.867800 1.179370 100.735000 -14.385600 13.600000
-13.927300 0.552716 101.168000 -14.385600 8.560000
-12.614700 0.237879 101.775000 -14.474400 10.770000
-12.667700 0.238878 102.203000 -14.474400 14.300000
-12.719900 1.199360 102.624000 -14.474400 13.220000
-12.376700 0.248873 106.578000 -14.474400 9.520000
-12.426200 0.583034 107.004000 -14.474400 8.930000
-12.476000 0.585366 107.432000 -14.474400 8.670000
14.588000 2.697150 150.950000 -14.563200 8.610000
14.629400 2.704810 151.378000 -14.563200 12.820000
14.671600 2.240780 151.815000 -14.563200 13.050000
-6.613570 1.083240 5.418230 -9.057600 5.270000
-6.392960 0.253168 5.773730 -9.501600 5.320000
-6.886470 -0.188890 5.867150 -9.146400 5.820000
-6.772150 -0.188890 5.998740 -9.324000 6.520000
-6.782340 0.278485 6.617320 -9.945600 6.520000
-6.960260 0.168572 6.433730 -9.590400 5.580000
-6.833650 0.237523 7.174030 -10.300800 7.190000
-6.850340 0.335770 7.740070 -10.656000 11.230000
-7.074710 0.283156 8.118810 -10.744800 11.060000
8.526000 -1.442580 7.123380 -9.590400 5.250000
8.803420 0.571461 6.905750 -9.146400 7.000000
-7.276010 0.294483 8.514060 -10.833600 6.820000
8.586380 0.571461 7.173830 -9.501600 7.850000
9.072500 0.593440 7.259090 -9.235200 8.800000
8.844430 0.593440 7.535300 -9.590400 8.430000
9.320870 0.615419 7.636210 -9.324000 7.180000
-6.508600 0.503597 10.146600 -11.988000 7.550000
-6.660690 0.482967 10.561900 -12.076800 5.890000
8.847430 0.474991 9.996540 -11.011200 5.300000
9.053030 0.490313 10.389100 -11.100000 7.950000
-5.795930 1.160700 12.457600 -12.964800 9.360000
9.148750 0.505636 10.874000 -11.277600 6.880000
9.593430 1.196970 10.427500 -10.922400 5.170000
-5.982850 1.021600 12.859300 -12.964800 10.600000
-10.080900 1.007360 10.583000 -10.389600 5.910000
-5.987440 0.962150 13.336600 -13.053600 8.630000
-6.944070 1.052560 12.857400 -12.609600 7.060000
-5.951190 0.990448 13.822200 -13.142400 6.380000
-9.367700 1.349860 13.886500 -12.076800 10.280000
-6.377510 0.919096 15.986300 -13.320000 5.730000
9.302100 -0.506336 14.501500 -12.432000 7.800000
-9.607900 1.384470 14.242600 -12.076800 8.990000
-5.912860 0.919096 16.163900 -13.497600 8.610000
9.648930 -0.518994 14.790100 -12.343200 9.340000
-6.059650 0.996629 16.565200 -13.497600 8.640000
8.690720 -0.321819 15.871300 -12.698400 9.030000
-6.099230 1.453690 16.976900 -13.497600 4.870000
9.147050 -0.329481 16.110100 -12.787200 8.770000
9.762340 0.100282 15.748000 -12.520800 8.330000
10.408700 -2.158320 15.176100 -12.165600 7.300000
-5.874670 1.488300 17.509600 -13.586400 5.320000
9.485330 0.454392 16.410000 -12.698400 8.520000
10.530800 -2.208510 15.610600 -12.254400 9.520000
9.829970 0.464719 16.707700 -12.698400 14.710000
-9.553340 1.273430 16.825700 -12.432000 9.170000
10.048400 0.475046 17.079000 -12.698400 16.930000
-9.897910 1.301730 17.123800 -12.432000 10.130000
10.132800 0.422754 17.530100 -12.698400 14.710000
-9.973690 1.455000 17.566000 -12.432000 9.560000
10.487600 0.239872 17.825500 -12.698400 6.390000
-10.190200 1.358330 17.947400 -12.432000 6.580000
-5.000360 1.813590 20.878100 -13.941600 5.830000
-5.264350 1.849860 21.255700 -13.941600 6.990000
9.972950 2.489580 19.910000 -13.053600 7.740000
-5.494510 1.799810 21.648000 -13.941600 7.120000
-5.771130 1.781610 22.024500 -13.941600 6.950000
18.345900 1.613020 16.250700 -9.856800 5.310000
-4.792650 1.815230 22.697200 -14.030400 11.440000
9.987190 -1.062440 21.466100 -13.320000 5.460000
12.164300 -0.989209 20.315400 -12.876000 7.250000
18.671400 1.564180 16.539100 -9.856800 5.790000
10.170100 -1.007190 21.859300 -13.320000 13.070000
10.797600 -1.007190 21.556300 -13.142400 8.860000
18.989600 1.669610 16.820900 -9.856800 7.920000
10.170100 -1.007190 21.859300 -13.320000 10.190000
9.774190 5.914320 22.228300 -13.497600 6.480000
10.592000 6.016290 22.314700 -13.320000 5.380000
-21.193400 0.482729 16.957300 -8.880000 12.350000
-21.529800 0.490391 17.226400 -8.880000 3.620000
-21.866200 0.498053 17.495600 -8.880000 7.520000
18.797600 1.887800 23.513700 -11.632800 9.890000
19.066100 1.914770 23.849600 -11.632800 13.580000
18.912400 1.941740 24.517100 -11.721600 11.900000
19.020100 0.072963 25.053700 -11.810400 4.820000
19.020100 0.072963 25.053700 -11.810400 5.710000
9.588820 1.677350 29.911600 -13.941600 9.440000
19.541300 0.000000 25.740200 -11.810400 6.770000
-17.912300 -1.564680 29.915100 -12.254400 6.510000
-16.274400 -2.320480 31.276800 -12.609600 7.870000
-18.371100 -1.365630 30.151500 -12.165600 6.280000
-16.472900 -2.348780 31.658200 -12.609600 5.800000
-18.829800 -1.382280 30.375000 -12.076800 5.900000
-16.433300 -2.041870 32.185400 -12.609600 7.120000
19.762300 -1.398940 30.292200 -12.343200 11.350000
-16.188100 -2.066180 32.789900 -12.787200 6.210000
20.233200 -1.415590 30.497800 -12.343200 8.080000
20.471300 -1.432250 30.856600 -12.254400 5.420000
11.506300 1.546760 35.191800 -13.852800 6.710000
19.007100 -0.666625 32.305700 -12.698400 8.130000
11.645200 1.101280 35.616700 -13.852800 6.260000
19.225500 -0.674288 32.677100 -12.698400 9.580000
11.780100 0.996711 36.029200 -13.852800 7.110000
-17.846300 -3.025380 34.297600 -12.698400 6.970000
22.421800 -0.689612 31.634700 -12.076800 8.990000
-17.776800 -3.059000 34.816700 -12.698400 8.410000
22.918000 -0.576019 31.812100 -11.988000 9.700000
-18.242900 -3.092610 35.059700 -12.698400 9.400000
23.733800 -0.588679 32.284100 -11.899200 9.040000
-7.208910 1.777170 38.941300 -14.119200 6.480000
-7.514690 1.796480 39.321800 -14.119200 8.460000
-7.596510 1.690650 39.749900 -14.119200 8.820000
-16.757000 -1.329090 37.325000 -13.053600 7.560000
-9.728990 1.690650 39.282500 -14.030400 7.500000
-6.902740 1.582130 40.318300 -14.119200 9.520000
-16.933400 -1.343080 37.717900 -13.053600 5.440000
-6.977600 1.215210 40.755600 -14.208000 4.590000
-16.815500 -1.357070 38.241500 -13.053600 7.950000
-8.080650 1.001730 40.996500 -14.119200 6.820000
-8.163960 1.012050 41.419200 -14.119200 6.910000
-8.247260 1.022380 41.841800 -14.119200 5.950000
-8.086120 1.032710 42.311900 -14.119200 5.890000
-17.363500 -1.970340 40.328500 -13.142400 7.330000
12.052500 1.115330 44.935500 -14.119200 10.970000
13.122600 1.125650 45.083600 -14.030400 11.540000
12.892800 0.989424 45.601100 -14.119200 11.370000
-15.071700 -1.245890 44.921700 -13.586400 11.140000
-2.763240 0.258867 47.749300 -14.385600 6.140000
-15.818800 -1.257210 45.120800 -13.497600 5.590000
-2.788140 0.261199 48.179500 -14.385600 9.250000
-15.952900 -2.014390 45.503300 -13.497600 10.310000
-2.532000 0.263531 48.625100 -14.385600 8.280000
13.228500 -2.596440 46.788300 -14.030400 6.300000
-15.118700 -2.032370 46.240400 -13.586400 7.990000
13.706600 -2.771120 47.090100 -14.030400 9.510000
-14.348900 -2.202140 46.928500 -13.675200 5.490000
-14.474800 -2.221460 47.340200 -13.675200 8.040000
34.713000 0.000000 40.619500 -11.277600 5.210000
14.653100 0.624668 51.827300 -14.119200 7.250000
14.770800 0.461759 52.243500 -14.119200 7.150000
14.887600 0.634663 52.656500 -14.119200 8.220000
14.827900 3.486830 56.588100 -14.119200 9.860000
14.961100 1.049740 57.096400 -14.119200 7.730000
15.180200 0.879853 57.932800 -14.119200 7.260000
14.946300 0.516731 58.887500 -14.119200 8.450000
15.052300 0.520395 59.305200 -14.119200 6.130000
16.055600 0.000000 61.273700 -14.119200 6.690000
15.433300 0.943152 62.314500 -14.119200 5.870000
15.537500 0.749601 62.735200 -14.119200 6.590000
16.005900 0.754599 63.062000 -14.119200 6.490000
15.848700 0.560708 63.991900 -14.119200 6.950000
16.574200 -0.373141 66.921100 -14.208000 12.370000
17.196000 0.000000 69.431600 -14.208000 8.850000
25.254900 0.703633 78.780800 -13.941600 16.970000
25.386500 0.707298 79.191100 -13.941600 20.980000
25.518000 0.710963 79.601400 -13.941600 15.540000
26.112200 0.454766 79.863800 -13.941600 15.890000
16.156800 1.029450 87.276500 -14.296800 18.970000
15.558900 1.034450 87.822700 -14.296800 11.260000
15.634000 1.039450 88.247000 -14.208000 10.180000
15.709200 1.044440 88.671300 -14.208000 18.190000
-14.064800 1.049440 89.383100 -14.208000 24.740000
-14.131800 1.054440 89.808700 -14.208000 26.110000
-13.091900 0.235880 100.846000 -14.296800 14.810000
-13.147300 0.236879 101.273000 -14.296800 10.770000
-13.202400 0.872212 101.697000 -14.296800 11.250000
-13.258100 0.557380 102.127000 -14.296800 9.940000
-13.313800 0.239878 102.555000 -14.296800 8.060000
-11.979000 0.240877 103.153000 -14.296800 12.930000
-12.028600 0.564376 103.580000 -14.296800 8.490000
-12.078100 0.890536 104.006000 -14.296800 9.250000
-12.932300 0.894200 104.337000 -14.296800 8.560000
-12.984900 1.224350 104.762000 -14.296800 7.150000
-11.854700 0.585366 107.503000 -14.296800 11.080000
-11.902000 0.587698 107.931000 -14.296800 6.530000
-11.949200 0.590030 108.359000 -14.296800 10.070000
-11.996400 0.592362 108.788000 -14.296800 12.140000
14.752900 3.202140 152.656000 -14.385600 11.960000
14.794300 3.211130 153.085000 -14.385600 9.060000
-6.779620 0.153247 5.318190 -8.791200 3.960000
-7.064470 0.160910 5.652430 -8.880000 6.390000
-7.331920 0.168572 6.006750 -8.968800 6.960000
-7.604340 0.176234 6.353340 -9.057600 3.420000
-6.586910 1.245730 7.299500 -10.744800 5.280000
-6.760270 0.413669 7.235310 -10.389600 5.980000
-6.742790 1.268150 7.737910 -10.833600 6.830000
-6.995790 0.431655 7.604030 -10.478400 9.870000
-6.332580 1.320990 8.613950 -11.544000 4.340000
-6.882910 1.320990 8.180910 -10.922400 5.410000
-7.213120 0.349760 7.993460 -10.567200 8.990000
-6.499270 1.373830 9.021540 -11.544000 5.090000
8.926830 0.206884 7.458270 -9.590400 6.250000
-6.398360 1.185330 9.644320 -11.899200 7.380000
-6.728370 0.904024 9.974010 -11.810400 8.840000
-6.968660 0.936311 10.330200 -11.810400 7.770000
8.766850 0.598827 10.060700 -11.188800 6.210000
8.949180 0.618144 10.471900 -11.277600 6.880000
-5.791560 1.277510 12.448200 -12.964800 8.370000
-9.571250 1.536210 10.403400 -10.744800 4.930000
-5.972550 1.317440 12.837200 -12.964800 8.830000
-9.763940 1.492640 10.820200 -10.833600 9.470000
-9.943340 1.536550 11.234800 -10.833600 9.080000
-9.224220 1.466620 13.449100 -12.165600 5.560000
-9.360300 1.505210 13.875500 -12.076800 10.260000
-9.490330 1.543810 14.304900 -12.165600 10.360000
-6.145290 1.543810 16.029100 -13.408800 6.880000
-6.172100 1.582400 16.477900 -13.408800 6.900000
8.948470 -0.846578 15.209500 -12.698400 10.720000
8.591550 -0.811315 15.907800 -12.964800 7.700000
9.286540 -0.867226 15.509300 -12.609600 10.010000
8.796110 -0.830632 16.286500 -12.964800 11.170000
11.009900 -2.164830 15.282700 -11.988000 6.880000
9.612190 0.395770 16.337600 -12.698400 11.700000
-5.402620 1.512690 18.561100 -13.852800 5.380000
9.830650 0.404764 16.708900 -12.698400 16.090000
-5.637280 1.301730 18.958200 -13.675200 8.930000
10.048400 0.475046 17.079000 -12.698400 15.870000
10.131500 0.532334 17.527900 -12.787200 11.360000
-5.771210 1.166790 19.827400 -13.764000 5.540000
-4.909980 1.191090 20.500700 -13.941600 7.360000
9.643020 0.766115 19.251300 -13.142400 8.680000
10.507500 -1.834420 20.193700 -13.053600 7.420000
10.387400 -1.869030 20.737300 -12.964800 5.760000
18.349500 1.537210 16.253900 -9.945600 11.010000
18.667700 1.641310 16.535800 -9.945600 11.990000
18.993300 1.591150 16.824200 -9.945600 8.590000
-20.520600 0.467404 16.419000 -8.880000 11.460000
-20.857000 0.475066 16.688100 -8.880000 14.730000
-21.193400 0.482729 16.957300 -8.880000 13.490000
18.619300 1.794690 23.662300 -11.632800 6.950000
-17.677900 -1.182440 24.941500 -11.632800 10.680000
-17.926900 -1.199090 25.292800 -11.632800 11.510000
19.212700 0.072963 24.906400 -11.810400 13.620000
19.475900 0.073962 25.247600 -11.810400 15.150000
19.739000 0.074962 25.588800 -11.810400 12.070000
-17.913600 -0.282186 27.926500 -12.076800 6.460000
-18.146700 -0.181906 28.289800 -11.988000 7.470000
-17.222300 -1.241110 30.332600 -12.432000 6.440000
-17.197800 -1.256430 30.840500 -12.432000 10.140000
20.212500 -2.179270 30.466500 -12.254400 9.830000
20.450300 -2.204910 30.824900 -12.343200 7.500000
11.301100 1.661260 35.253000 -13.941600 9.640000
11.432500 1.680580 35.662900 -13.941600 6.170000
11.775300 1.465550 36.014700 -13.941600 7.630000
-17.625900 -1.259140 34.521200 -12.698400 8.800000
22.672100 -0.576019 31.987800 -12.076800 10.650000
-16.764000 -0.601339 37.340600 -13.053600 6.240000
-16.809700 -1.744600 38.228300 -12.964800 11.470000
-8.484040 0.750911 41.360300 -14.119200 8.900000
-8.569510 1.022380 41.777000 -14.119200 7.700000
-16.472500 -2.696860 39.725700 -13.142400 5.140000
-17.176800 -2.723830 39.894900 -13.053600 8.060000
12.414200 2.047600 43.908300 -14.119200 8.450000
12.531300 2.066920 44.322500 -14.119200 6.030000
12.648400 2.086240 44.736700 -14.119200 8.190000
-2.713490 0.108944 46.889500 -14.385600 8.620000
13.121800 1.234560 45.081000 -14.119200 9.760000
13.244700 0.842860 45.503100 -14.119200 9.180000
-15.076400 -0.403123 44.935600 -13.586400 7.630000
13.365100 0.850522 45.916800 -14.119200 8.590000
14.352000 0.957795 51.906400 -14.119200 7.720000
14.467500 0.797565 52.324300 -14.119200 9.490000
14.583000 0.634663 52.741700 -14.119200 7.150000
15.402500 1.057410 57.425100 -14.119200 9.950000
15.514100 1.065070 57.841200 -14.119200 14.480000
15.400100 0.328831 58.771800 -14.208000 11.260000
15.400100 0.328831 58.771800 -14.119200 21.080000
15.617700 0.714620 59.602400 -14.119200 17.770000
15.793200 0.943152 62.224200 -14.208000 13.390000
15.897500 1.349210 62.634900 -14.208000 13.390000
16.003500 1.358210 63.052500 -14.208000 20.360000
16.109400 1.367200 63.470100 -14.208000 9.470000
16.216400 1.172340 63.891400 -14.208000 13.610000
16.536900 -0.155920 65.154300 -14.208000 24.400000
16.571400 6.267800 65.290100 -14.119200 22.180000
16.055600 -1.225980 67.037200 -14.208000 10.540000
15.962400 1.031770 68.391000 -14.208000 7.950000
16.530600 4.230340 69.020600 -14.208000 13.710000
25.843800 0.707298 79.043000 -13.941600 11.770000
25.976900 0.969484 79.450100 -13.941600 11.610000
26.111600 0.714627 79.862100 -13.941600 8.960000
16.157700 0.480420 87.281100 -14.296800 8.720000
16.236100 0.482752 87.704800 -14.296800 9.340000
-13.373500 1.888900 89.475400 -14.296800 10.620000
-13.437900 1.616760 89.906800 -14.296800 13.070000
-13.091900 0.235880 100.846000 -14.296800 12.610000
-13.147300 0.236879 101.273000 -14.296800 10.540000
-13.202800 0.237879 101.701000 -14.296800 10.110000
-11.878900 1.194360 102.291000 -14.296800 9.080000
-12.719900 1.199360 102.624000 -14.296800 12.600000
-12.772900 1.204360 103.051000 -14.296800 14.900000
-12.826300 0.886871 103.482000 -14.296800 12.610000
-12.878900 1.214350 103.907000 -14.296800 5.420000
-12.125600 2.194720 104.415000 -14.296800 7.360000
-12.174400 2.530140 104.836000 -14.296800 4.890000
-11.854700 0.585366 107.503000 -14.296800 10.600000
-11.901700 0.923518 107.929000 -14.296800 11.010000
-11.948900 0.927183 108.357000 -14.296800 7.780000
-11.995800 1.269330 108.782000 -14.296800 7.140000
14.751800 3.676440 152.645000 -14.474400 12.610000
14.793300 3.686770 153.074000 -14.474400 5.630000
13.947100 3.697100 153.586000 -14.474400 6.990000
-6.706610 0.321780 7.289710 -10.567200 2.370000
-6.850340 0.335770 7.740070 -10.656000 6.580000
-7.187210 0.303802 7.429690 -10.212000 4.520000
-7.073420 0.349760 8.117330 -10.744800 6.690000
-7.486680 0.316460 7.739270 -10.212000 5.760000
8.309180 -0.398380 7.504340 -9.945600 5.790000
8.538090 -0.413702 7.892200 -10.034400 5.230000
-6.500690 0.485611 9.636500 -11.899200 5.850000
-6.665060 0.466313 10.046300 -11.988000 8.190000
-6.903100 0.482967 10.405100 -11.988000 6.270000
-5.926320 1.505810 11.389400 -12.698400 3.960000
-6.034600 1.525220 11.819100 -12.787200 5.460000
8.509590 0.681357 10.274100 -11.544000 5.900000
-5.977330 1.404840 12.346200 -12.876000 5.210000
-10.067000 1.267100 10.568400 -10.567200 6.990000
-5.862690 1.582760 13.332800 -13.142400 8.270000
-10.363000 1.304370 10.879200 -10.567200 9.200000
-6.660520 1.036990 13.491200 -12.876000 4.580000
-5.529200 1.437200 14.422100 -13.408800 7.640000
-6.740670 1.162320 13.922900 -12.964800 7.800000
-5.717200 1.567460 15.263400 -13.497600 5.270000
-9.218910 1.567460 13.441300 -12.165600 6.220000
-9.461510 1.608710 13.795000 -12.165600 5.090000
-6.245410 1.291460 16.012700 -13.408800 7.420000
9.190050 -0.506336 14.572800 -12.609600 9.910000
-6.182350 1.214750 16.505200 -13.497600 9.210000
9.304400 -0.518994 15.009300 -12.609600 9.360000
-6.463260 1.244380 16.858500 -13.497600 12.420000
9.412550 -0.531653 15.448400 -12.609600 15.160000
9.636660 -0.544311 15.816200 -12.609600 12.350000
-5.384670 1.595960 18.108700 -13.852800 9.340000
8.606350 -1.128090 16.856000 -13.231200 13.180000
-5.507050 1.632230 18.520300 -13.852800 7.330000
9.830650 0.404764 16.708900 -12.876000 11.000000
-5.629430 1.668510 18.931800 -13.852800 8.590000
9.916480 0.475046 17.155900 -12.876000 15.280000
-5.751810 1.704780 19.343400 -13.852800 10.370000
10.132100 0.485373 17.528900 -12.876000 16.960000
-5.612640 1.485960 19.851600 -13.852800 14.310000
-5.885590 1.516920 20.220400 -13.852800 8.950000
9.972520 -0.755482 21.009700 -13.408800 9.950000
9.991970 -0.769473 21.476400 -13.408800 7.610000
10.047100 -0.783463 21.925300 -13.408800 3.610000
10.049400 -1.101070 22.384300 -13.408800 8.920000
10.405900 0.904015 23.178300 -13.497600 5.590000
-20.676600 0.548681 16.219500 -8.791200 7.530000
10.581000 0.999242 23.568500 -13.497600 7.460000
-21.016800 0.475066 16.486400 -8.791200 4.410000
10.757400 1.015900 23.961300 -13.497600 8.300000
-21.355800 0.482729 16.752300 -8.791200 6.030000
-3.598470 1.652950 29.032400 -14.385600 5.500000
-3.821620 1.677250 29.437700 -14.296800 7.960000
11.103700 -0.647623 28.962500 -13.852800 5.360000
18.949500 -0.071963 24.565200 -11.899200 4.130000
9.195590 -0.656618 30.074400 -13.852800 7.170000
19.019900 -0.170246 25.053400 -11.899200 8.100000
19.280500 -0.172578 25.396600 -11.899200 7.160000
-17.658100 -0.074962 27.066700 -11.988000 9.240000
-4.395060 2.421490 31.925500 -14.385600 10.720000
-17.893500 -0.075961 27.427600 -11.988000 8.790000
-3.826510 0.692597 32.950600 -14.385600 7.340000
-7.572920 1.012670 33.614600 -14.119200 7.530000
-7.666850 1.133220 34.031600 -14.119200 5.310000
-17.460600 -0.917427 30.207600 -12.343200 5.620000
-7.761500 1.147210 34.451700 -14.119200 9.560000
-18.133500 -1.584000 30.284400 -12.254400 7.660000
19.988400 -1.101280 31.695800 -12.609600 5.970000
20.709900 -1.113940 31.744700 -12.520800 6.130000
10.799600 1.465550 36.319200 -14.119200 8.430000
20.953500 -0.326163 32.118100 -12.520800 7.560000
10.922300 1.482210 36.731900 -14.119200 5.110000
20.137000 -1.030690 33.630500 -12.698400 5.940000
12.989300 0.096950 39.727600 -14.119200 6.350000
-15.999600 -1.486260 38.585200 -13.231200 6.700000
-8.396390 1.001730 40.933000 -14.208000 7.810000
-16.164500 -1.501590 38.983000 -13.231200 6.000000
-8.484040 0.750911 41.360300 -14.208000 8.610000
-8.570610 0.758574 41.782400 -14.208000 6.480000
-9.402170 1.970340 42.889100 -14.119200 7.990000
12.777500 0.544710 45.193400 -14.119200 5.900000
12.777500 0.544710 45.193400 -14.119200 8.770000
13.012000 0.554705 46.022600 -14.119200 8.760000
12.122800 0.554705 46.264800 -14.208000 5.420000
14.652500 0.791235 51.825100 -14.208000 7.240000
14.769800 0.797565 52.239700 -14.208000 13.550000
14.887000 0.803895 52.654400 -14.208000 6.690000
14.687300 4.811030 57.866800 -14.208000 8.960000
15.290900 0.326499 58.355000 -14.208000 8.100000
15.051300 0.898843 59.300900 -14.208000 6.990000
15.157300 0.905173 59.718500 -14.208000 7.250000
15.724600 1.295250 60.010100 -14.208000 17.520000
15.833800 1.304240 60.426800 -14.208000 13.490000
15.679000 2.267700 61.774200 -14.208000 7.250000
15.536900 0.949482 62.732700 -14.208000 10.840000
15.640400 0.955812 63.150900 -14.208000 7.920000
15.744600 0.759596 63.571700 -14.208000 10.700000
16.956100 -1.652330 66.805900 -14.208000 10.000000
17.062100 -1.662660 67.223500 -14.208000 20.270000
25.385700 0.964487 79.188600 -14.030400 9.700000
25.517200 0.969484 79.598900 -14.030400 16.690000
25.648700 0.974482 80.009200 -14.030400 10.700000
16.079400 0.204895 86.858500 -14.385600 13.080000
16.157900 0.205895 87.282200 -14.385600 25.090000
16.236100 0.482752 87.704800 -14.385600 24.000000
-14.061700 2.168690 89.363400 -14.296800 13.480000
-13.810000 0.000000 100.315000 -14.385600 12.050000
-13.868700 0.235880 100.742000 -14.385600 9.880000
-13.927300 0.552716 101.168000 -14.385600 6.050000
-13.202400 0.872212 101.697000 -14.385600 6.500000
-13.257800 0.875877 102.124000 -14.385600 5.780000
-12.720300 0.879541 102.627000 -14.385600 8.510000
-12.773300 0.883206 103.055000 -14.385600 7.030000
-13.424500 0.564376 103.409000 -14.385600 11.090000
-12.077200 1.538160 103.998000 -14.385600 14.020000
-12.126900 1.544490 104.426000 -14.385600 12.950000
-12.176600 1.550820 104.854000 -14.385600 8.400000
-12.226300 1.557150 105.282000 -14.385600 7.470000
-11.807200 0.916189 107.072000 -14.385600 7.420000
-11.854500 0.919854 107.500000 -14.385600 4.730000
-11.901700 0.923518 107.929000 -14.385600 9.230000
-11.948900 0.927183 108.357000 -14.385600 12.380000
-11.995800 1.269330 108.782000 -14.385600 11.270000
-55.599000 -14.425800 96.188700 -12.254400 8.930000
14.712300 2.720140 152.236000 -14.474400 9.570000
14.751800 3.676440 152.645000 -14.474400 5.200000
14.792400 4.043470 153.065000 -14.474400 10.820000
8.507780 0.770332 7.248480 -9.768000 2.580000
-6.627510 1.042070 9.505110 -11.721600 3.810000
9.162230 0.829589 7.806050 -9.768000 3.560000
-6.872970 1.080670 9.857150 -11.810400 7.920000
-7.116420 1.157750 10.206300 -11.810400 8.640000
-7.280220 1.197670 10.614700 -11.810400 5.200000
-5.320650 1.361220 13.116300 -13.320000 3.430000
-5.478520 1.492640 13.505500 -13.320000 5.700000
-5.643110 1.443720 13.911200 -13.320000 5.570000
-9.471430 1.414600 13.809500 -12.254400 3.650000
-5.450430 1.349860 15.839300 -13.586400 8.070000
-9.714290 1.450870 14.163600 -12.254400 4.810000
-6.031560 1.185130 16.102700 -13.497600 3.560000
8.736490 -0.506336 14.849100 -12.787200 9.520000
-9.960320 1.419080 14.522300 -12.165600 5.330000
-6.178130 1.378230 16.494000 -13.497600 9.780000
8.954900 -0.518994 15.220400 -12.787200 7.240000
9.514470 -0.544311 15.890000 -12.698400 5.300000
8.898090 0.272185 16.250000 -12.964800 4.620000
-5.275920 1.756580 18.125800 -13.852800 9.460000
9.487030 0.278515 16.413000 -12.876000 18.050000
-5.148170 1.677050 18.619200 -13.941600 12.880000
9.702640 0.284845 16.786000 -12.876000 18.990000
-5.115730 1.714310 19.073000 -13.852800 16.590000
9.918260 0.291175 17.159000 -12.876000 15.430000
-6.009340 1.813970 19.254900 -13.852800 9.000000
10.133400 0.360131 17.531100 -12.876000 16.090000
-5.063400 2.043620 19.949400 -14.030400 11.020000
-9.528390 1.294490 18.312000 -12.698400 6.350000
-5.170450 2.021200 20.371200 -14.030400 7.700000
-5.158690 1.929760 20.829100 -14.030400 6.950000
-5.261860 1.968350 21.245700 -14.030400 7.300000
-5.074780 1.886140 21.742900 -14.119200 8.740000
9.852880 1.882460 21.946600 -13.497600 10.550000
-5.386380 1.613020 23.909000 -14.119200 9.790000
9.849440 2.124260 22.399400 -13.497600 8.910000
-21.190700 0.650606 16.955100 -8.880000 7.400000
-21.527000 0.660933 17.224200 -8.880000 7.560000
10.214100 0.810137 25.603500 -13.764000 5.270000
-4.859300 2.074150 28.382700 -14.296800 5.220000
-4.709660 2.105110 28.843500 -14.296800 4.900000
-4.043450 2.227770 29.371500 -14.385600 5.860000
-4.446260 2.260060 29.747800 -14.296800 5.110000
10.724600 -1.087880 28.631900 -13.852800 13.560000
10.875700 -1.103210 29.035200 -13.852800 5.690000
19.210600 -0.462081 24.903800 -11.899200 7.730000
11.026700 -1.118530 29.438400 -13.852800 10.330000
19.474600 -0.369803 25.246000 -11.899200 6.340000
19.737800 -0.374801 25.587100 -11.899200 7.320000
-4.590850 0.849469 31.978500 -14.296800 8.380000
-18.313900 -0.177242 27.148200 -11.899200 9.840000
-4.464670 0.860796 32.431200 -14.385600 6.520000
10.825200 1.366910 30.877300 -13.941600 7.240000
-4.521030 1.384890 32.840600 -14.385600 9.070000
-7.969490 1.384890 32.178200 -14.030400 6.050000
-4.579750 1.402880 33.267200 -14.385600 10.210000
-8.074920 1.195140 32.603900 -14.030400 7.800000
-9.066160 1.210460 32.789300 -13.941600 8.890000
-17.232600 -0.296845 30.350600 -12.432000 6.070000
-7.666040 1.241110 34.028000 -14.119200 8.400000
-17.445300 -0.300510 30.725300 -12.432000 5.200000
-17.657500 -0.414779 31.099100 -12.432000 4.800000
-18.112300 -0.419777 31.335100 -12.343200 8.160000
-16.164500 -2.857300 32.742100 -12.787200 5.760000
-18.778900 -2.292330 31.362400 -12.254400 9.450000
11.782300 1.088620 35.117500 -14.030400 5.970000
11.645200 1.101280 35.616700 -14.030400 4.500000
11.667200 -0.221553 39.237000 -14.119200 7.450000
-15.956700 -1.708630 37.658700 -13.320000 6.670000
-17.250600 -1.835120 37.077800 -13.053600 7.530000
11.784000 1.343080 39.629700 -14.119200 13.150000
-16.124600 -1.726620 38.055200 -13.320000 7.400000
-8.395170 1.227860 40.927100 -14.208000 14.740000
-15.993600 -1.873750 38.570800 -13.320000 12.220000
-8.481720 1.240520 41.349000 -14.208000 8.550000
11.598700 1.516910 41.024000 -14.208000 7.640000
-17.020600 -2.064820 39.532100 -13.231200 7.400000
-9.549710 2.455110 42.389200 -14.119200 8.020000
-9.644260 2.479420 42.808900 -14.119200 6.300000
12.424700 0.812210 43.945500 -14.208000 5.610000
12.541900 0.819872 44.360100 -14.208000 6.040000
12.660300 0.539713 44.778700 -14.208000 6.890000
12.777900 0.399458 45.194800 -14.208000 6.800000
12.895200 0.403123 45.609400 -14.208000 6.380000
12.230900 0.858184 46.677300 -14.208000 6.520000
-1.874560 1.881910 48.619200 -14.563200 13.600000
12.334300 -1.731420 47.071700 -14.208000 8.000000
-2.174650 1.898560 49.037700 -14.474400 12.930000
-2.574600 2.068350 49.443300 -14.474400 7.630000
-2.597610 1.777390 49.885200 -14.474400 7.900000
14.239400 0.123937 51.499100 -14.208000 8.800000
14.583000 0.634663 52.741700 -14.208000 5.630000
15.071000 0.873524 57.516000 -14.208000 7.560000
15.398700 0.892513 58.766400 -14.208000 9.800000
15.836100 0.724615 60.436000 -14.208000 7.860000
16.296800 0.729612 60.759600 -14.208000 16.700000
15.793200 0.943152 62.224200 -14.296800 6.530000
15.899200 0.949482 62.641800 -14.296800 10.620000
16.005200 0.955812 63.059400 -14.296800 21.980000
16.111200 0.962142 63.477000 -14.296800 20.180000
16.215400 1.376200 63.887600 -14.296800 19.250000
17.676800 1.949390 63.931200 -14.208000 13.540000
15.857400 -0.157919 66.209500 -14.208000 19.080000
15.957200 -0.582696 66.626400 -14.296800 23.180000
25.844300 0.450102 79.044700 -14.030400 10.740000
25.977700 0.710963 79.452600 -14.030400 8.250000
15.409300 0.478087 86.978800 -14.385600 9.030000
15.484200 0.754940 87.401200 -14.385600 8.320000
15.558900 1.034450 87.822700 -14.385600 7.410000
-13.311800 1.044440 89.062700 -14.296800 6.910000
-13.374900 1.329280 89.485200 -14.296800 7.480000
-14.131200 1.335600 89.805100 -14.296800 5.680000
-18.782100 1.335600 88.948700 -14.296800 4.600000
-20.070000 2.401170 89.086500 -14.296800 8.450000
-13.036400 0.234880 100.419000 -14.385600 8.170000
-13.091900 -0.235880 100.846000 -14.385600 10.540000
-13.147300 -0.236879 101.273000 -14.385600 14.000000
-12.614700 -0.237879 101.775000 -14.385600 12.880000
-12.667700 0.238878 102.203000 -14.385600 9.050000
-12.773300 0.883206 103.055000 -14.385600 9.290000
-12.028300 0.886871 103.578000 -14.385600 10.330000
-12.078100 0.890536 104.006000 -14.385600 6.980000
-12.128200 0.243876 104.437000 -14.385600 5.260000
-12.177900 0.244875 104.865000 -14.385600 6.090000
-11.807500 0.583034 107.074000 -14.385600 6.930000
-11.854700 0.585366 107.503000 -14.385600 5.700000
-11.902000 0.587698 107.931000 -14.385600 5.080000
-11.949200 0.590030 108.359000 -14.385600 5.820000
-11.996600 0.253870 108.789000 -14.385600 4.950000
14.711400 3.193140 152.227000 -14.563200 7.300000
14.752900 3.202140 152.656000 -14.563200 11.820000
14.793300 3.686770 153.074000 -14.563200 11.730000
-6.923070 0.399697 7.672030 -10.567200 3.750000
-7.288190 0.416351 7.921850 -10.567200 4.600000
-6.146550 1.553550 10.265300 -12.254400 2.970000
-6.882870 0.866811 9.871360 -11.721600 6.020000
-6.366070 1.609030 10.631900 -12.254400 3.140000
-7.131730 0.820657 10.228300 -11.721600 6.700000
-6.116940 1.679020 11.755700 -12.787200 2.950000
-6.070350 1.447260 12.295800 -12.876000 6.330000
-5.891000 1.492480 12.855700 -13.053600 5.760000
-6.260050 1.492480 12.680100 -12.876000 5.780000
-6.063310 1.672820 13.231700 -13.053600 6.290000
-6.468810 1.052560 13.102900 -12.876000 6.480000
-5.856870 1.443720 13.822600 -13.231200 6.960000
-6.554920 1.083510 13.539200 -12.964800 8.890000
-6.022390 1.532710 14.213200 -13.231200 7.050000
-6.742200 1.114470 13.926100 -12.964800 5.900000
-6.198040 1.342060 14.627800 -13.231200 3.990000
-5.594150 1.718620 15.292700 -13.497600 6.680000
-9.535300 1.416170 13.235800 -11.988000 6.570000
-5.982610 1.763850 15.604800 -13.497600 7.320000
-9.788180 1.414600 13.586800 -11.988000 7.510000
-5.672750 1.756050 16.180700 -13.586400 8.250000
-6.353360 1.756050 15.925800 -13.408800 9.060000
-10.039200 1.450870 13.935200 -11.988000 4.830000
-5.959170 1.214750 16.587100 -13.586400 8.990000
-6.530760 1.214750 16.370500 -13.408800 7.560000
-5.378960 1.244380 17.235100 -13.675200 7.360000
9.485830 -1.843850 15.301900 -12.787200 9.800000
-5.619260 2.115630 17.528900 -13.764000 5.770000
8.186260 -1.159650 16.581700 -13.320000 6.940000
-5.370390 2.106570 18.060700 -13.852800 5.550000
8.606350 -1.128090 16.856000 -13.231200 7.370000
9.359220 0.395770 16.483800 -12.964800 9.350000
9.701580 0.404764 16.784100 -12.964800 14.410000
-5.531680 1.056960 19.004500 -13.852800 10.580000
-6.296700 1.011050 18.767500 -13.675200 7.140000
9.917170 0.413759 17.157100 -12.964800 15.890000
-5.764080 1.079940 19.384700 -13.852800 6.510000
-6.433580 1.033030 19.175400 -13.675200 5.370000
10.132800 0.422754 17.530100 -12.964800 12.680000
-10.034000 5.353510 16.757500 -12.520800 13.340000
0.793209 1.979950 20.572900 0.888000 17.470000
-10.115200 5.467420 17.192600 -12.520800 8.380000
0.809734 2.021200 21.001500 0.888000 14.570000
-5.452180 1.695970 20.327400 -13.941600 6.150000
0.000000 2.062450 21.446100 0.888000 9.550000
-5.162770 1.730580 20.845600 -14.030400 6.970000
10.127600 1.239710 19.463700 -13.231200 8.590000
-5.377150 1.333200 21.711100 -14.030400 6.870000
10.165100 1.540660 19.908800 -13.231200 7.840000
0.878865 1.094360 22.794500 0.888000 6.350000
-5.308830 1.429340 22.166100 -14.030400 6.110000
10.203900 1.570290 20.371000 -13.231200 5.390000
-5.278360 1.456310 22.615200 -14.119200 5.610000
0.592534 1.410110 23.650100 0.888000 6.340000
9.527180 1.208860 21.666500 -13.586400 8.200000
0.602114 2.086990 24.032400 0.888000 6.030000
17.861700 1.733620 16.131600 -10.212000 5.710000
9.870140 1.230840 21.985000 -13.497600 8.140000
10.671400 1.081750 21.615400 -13.320000 7.570000
18.180700 1.764580 16.419700 -10.212000 10.310000
18.499700 1.795540 16.707700 -10.212000 10.420000
9.718950 2.007480 22.937400 -13.586400 6.970000
10.377700 2.007480 22.646900 -13.408800 7.210000
10.209200 1.748060 23.217500 -13.586400 6.060000
10.384400 1.697910 23.615900 -13.586400 11.320000
-5.270320 1.726210 25.693200 -14.208000 13.300000
10.552900 1.888410 23.999300 -13.586400 5.000000
10.725900 1.919370 24.392700 -13.675200 12.200000
-4.725400 1.782810 26.672700 -14.296800 6.710000
-8.824200 1.216970 25.643600 -13.675200 4.090000
-4.643700 1.811110 27.123400 -14.296800 6.050000
-4.716260 1.839400 27.547200 -14.296800 4.830000
-10.171000 0.995949 26.077500 -13.497600 8.280000
-10.327400 1.011270 26.478700 -13.497600 6.010000
-10.483900 1.026590 26.879900 -13.497600 8.880000
-4.323720 1.743410 28.927900 -14.385600 4.340000
-4.217560 1.769050 29.378200 -14.385600 6.590000
-4.280180 1.608420 29.814400 -14.385600 5.790000
-4.925220 1.371510 30.163700 -14.385600 8.900000
11.105700 1.371510 28.474000 -13.764000 8.560000
-4.995260 1.294960 30.592600 -14.385600 12.350000
11.079900 -2.133230 28.900200 -13.852800 11.010000
-16.684400 -5.488160 25.574400 -0.444000 9.230000
-5.482530 1.312950 30.946400 -14.385600 7.790000
11.233800 -2.162860 29.301600 -13.852800 10.590000
19.018900 -0.364806 25.052100 -11.988000 10.570000
10.120800 -2.094090 30.165200 -14.030400 14.090000
12.184700 -2.192480 29.385100 -13.764000 10.580000
19.279400 -0.369803 25.395300 -11.988000 8.920000
-3.722620 1.723300 32.056100 -14.474400 14.640000
12.144000 -0.849469 29.937000 -13.764000 10.750000
-2.329440 1.746280 32.618700 -14.385600 11.390000
12.539300 -0.860796 30.240400 -13.675200 9.900000
-17.888400 -0.784858 27.419800 -11.988000 9.390000
-4.518540 1.769260 32.822500 -14.385600 9.310000
12.940100 -0.872122 30.539500 -13.675200 8.770000
-18.123800 -0.795185 27.780600 -11.988000 7.440000
-18.359100 -0.805513 28.141400 -11.988000 7.390000
-8.358070 2.130520 32.930200 -14.030400 9.860000
-7.561340 2.157490 33.563200 -14.119200 5.550000
-7.921810 1.861170 33.941000 -14.119200 6.610000
-8.020580 1.802300 34.364200 -14.119200 8.600000
-18.076400 -1.075960 31.836900 -12.432000 7.270000
-18.783400 -1.088620 31.925700 -12.343200 7.770000
-16.518900 -0.908783 34.119900 -12.876000 4.930000
22.307300 -4.417030 30.343700 -1.065600 5.900000
-16.706600 -0.919110 34.507600 -12.876000 6.490000
23.793500 -4.477260 30.844700 -0.799200 8.930000
24.354200 -4.526460 30.950500 -0.799200 6.520000
-7.133840 1.835120 40.267300 -14.296800 8.990000
11.964300 1.202550 39.129600 -14.119200 8.690000
-16.749000 -1.835120 37.307100 -13.142400 9.270000
10.711800 1.215210 39.936900 -14.208000 7.440000
-16.925300 -1.854430 37.699800 -13.142400 9.220000
-17.713000 -2.205830 37.317000 -12.964800 7.520000
-8.395900 1.098650 40.930600 -14.208000 9.700000
-18.187600 -2.228810 37.566700 -12.964800 9.480000
-8.482450 1.109970 41.352600 -14.208000 6.770000
-18.375100 -2.251780 37.954000 -12.964800 9.000000
-8.569010 1.121300 41.774600 -14.208000 8.750000
-9.558890 1.547550 42.430000 -14.119200 7.710000
-9.651230 1.834530 42.839800 -14.119200 5.190000
-9.741650 2.263860 43.241200 -14.119200 7.970000
12.538500 1.354450 44.348000 -14.208000 8.390000
12.655700 1.367110 44.762400 -14.208000 6.410000
12.778200 0.254203 45.195700 -14.208000 7.090000
-2.463250 1.685450 47.304900 -14.563200 6.400000
12.895600 0.109944 45.610900 -14.208000 10.680000
12.746600 0.110943 46.100000 -14.208000 11.460000
13.121800 -1.716100 46.411000 -14.208000 8.610000
14.238900 0.454430 51.497400 -14.208000 7.420000
14.353700 0.458094 51.912700 -14.208000 7.270000
14.468600 0.461759 52.328000 -14.208000 7.310000
14.583400 0.465424 52.743300 -14.208000 7.680000
14.697800 0.639660 53.157000 -14.208000 7.340000
-26.253600 0.483748 50.455100 -12.787200 18.630000
14.846700 0.132932 55.353000 -14.208000 21.800000
15.069000 -0.674641 56.181800 -14.208000 20.470000
14.851000 1.223290 56.676200 -14.296800 14.200000
14.962400 0.684636 57.101600 -14.296800 7.850000
15.071600 0.689633 57.518400 -14.296800 7.230000
15.180800 0.694631 57.935200 -14.296800 8.320000
15.051900 0.709623 59.303300 -14.296800 14.410000
15.434700 0.347488 62.320300 -14.296800 17.710000
15.538300 0.349820 62.738500 -14.296800 20.210000
15.641900 0.352152 63.156800 -14.296800 17.670000
16.040300 2.994140 64.765600 -14.296800 14.610000
16.261100 -1.202990 65.656900 -14.296800 24.640000
16.355000 2.631340 66.036200 -14.385600 25.770000
16.359200 -0.162917 68.304800 -14.296800 10.240000
25.385700 0.964487 79.188600 -14.119200 7.190000
25.977700 0.710963 79.452600 -14.119200 13.190000
16.079300 0.478087 86.857400 -14.474400 13.470000
16.157700 0.480420 87.281100 -14.474400 11.820000
16.236100 0.482752 87.704800 -14.474400 9.290000
14.443300 0.207894 88.455500 -14.385600 7.600000
-13.993900 2.367190 88.932700 -14.385600 8.150000
-14.063500 1.609100 89.375000 -14.385600 9.400000
-13.438600 1.335600 89.911300 -14.385600 13.540000
-13.036200 0.548051 100.417000 -14.474400 8.840000
-13.091900 0.000000 100.846000 -14.474400 9.920000
-13.147400 0.000000 101.273000 -14.474400 12.010000
-13.202800 0.237879 101.701000 -14.474400 10.020000
-13.257800 -0.875877 102.124000 -14.474400 5.850000
-12.720600 -0.559712 102.629000 -14.474400 7.910000
-13.369100 -0.562044 102.981000 -14.474400 13.600000
-13.424700 0.000000 103.410000 -14.474400 14.450000
-12.078500 -0.242876 104.009000 -14.474400 12.250000
-12.128200 -0.243876 104.437000 -14.474400 10.290000
-12.177900 -0.244875 104.865000 -14.474400 8.650000
-11.854700 0.585366 107.503000 -14.474400 6.380000
-11.902000 0.587698 107.931000 -14.474400 6.080000
-11.949200 0.590030 108.359000 -14.474400 6.650000
-11.996200 0.930848 108.785000 -14.474400 8.990000
14.711400 3.193140 152.227000 -14.563200 6.880000
14.752900 3.202140 152.656000 -14.563200 10.570000
14.794300 3.211130 153.085000 -14.563200 14.570000
