VERSION .7
FIELDS x y z velocity intensity
SIZE 4 4 4 4 4
TYPE F F F F F
COUNT 1 1 1 1 1
WIDTH 842
HEIGHT 1
VIEWPOINT 0 0 0 1 0 0 0
POINTS 842
DATA ascii
-5.727360 1.488580 7.950060 -11.632800 0.000000
-5.667280 1.363320 8.542360 -11.899200 1.860000
-5.912260 1.553310 8.341530 -11.721600 0.880000
-5.628620 1.387100 9.079730 -12.165600 3.960000
-5.974250 1.387100 8.856130 -11.899200 3.390000
-5.926370 1.442580 9.397520 -12.254400 4.330000
-6.142050 1.442580 9.257990 -11.988000 5.680000
-6.154300 1.498060 9.758960 -12.254400 4.850000
-5.497070 1.664520 11.581000 -13.053600 5.570000
-5.592280 1.638030 12.019800 -13.053600 2.840000
-5.510500 1.648540 12.531900 -13.231200 3.430000
-5.872510 1.606190 12.371900 -12.964800 5.360000
-5.682700 1.700060 12.923500 -13.231200 5.030000
9.057500 0.758254 10.935600 -11.544000 3.280000
-5.469680 1.706580 13.483700 -13.408800 6.910000
-5.957360 1.751570 13.269600 -13.142400 3.930000
9.418530 0.781231 11.194700 -11.544000 5.320000
9.706570 0.361448 11.537100 -11.544000 6.150000
9.892830 0.323812 11.944100 -11.632800 3.190000
-5.443270 1.771430 14.880200 -13.586400 6.320000
-5.955990 1.771430 14.682500 -13.408800 6.530000
-9.677780 1.075340 13.164300 -11.632800 5.960000
-5.371490 1.582400 16.756000 -13.852800 5.000000
-5.504010 1.565240 17.169300 -13.852800 5.110000
-9.383190 1.523420 15.400200 -12.343200 4.780000
-5.503270 1.445460 17.633400 -13.852800 6.400000
-9.369360 1.388320 15.924800 -12.432000 4.510000
-5.542550 -0.395770 18.127100 -13.941600 3.660000
-9.587260 1.420610 16.295200 -12.432000 3.790000
-5.917630 -0.464719 18.459600 -13.852800 6.170000
9.566860 0.749431 16.849500 -13.053600 7.320000
-6.158110 -0.475046 18.834500 -13.852800 6.870000
9.493150 1.485180 17.336700 -13.142400 9.630000
-5.373990 1.876350 19.435900 -14.030400 5.100000
1.193030 1.166790 20.615800 1.065600 9.450000
-5.597900 2.107260 19.799400 -14.030400 6.920000
-8.302060 1.549760 18.880400 -12.964800 8.710000
1.217880 1.191090 21.045300 1.065600 9.130000
-5.345730 1.011760 20.401100 -14.119200 8.020000
-9.718610 1.582040 18.677600 -12.876000 8.460000
1.242520 1.281920 21.470900 1.065600 12.370000
-5.853310 1.148870 20.702800 -14.030400 7.620000
1.266610 1.511040 21.887300 0.976800 8.880000
1.422160 1.073710 22.335800 0.976800 17.830000
1.449510 1.094360 22.765400 0.976800 7.620000
-8.425060 1.958680 21.601100 -13.497600 12.300000
-8.581080 1.994950 22.001200 -13.497600 4.520000
-8.737100 2.031220 22.401200 -13.497600 5.690000
-4.680190 1.718430 24.489900 -14.385600 10.450000
-12.137800 1.872620 21.766500 -12.609600 8.350000
-3.750010 1.669610 25.089500 -14.385600 10.650000
10.716300 0.982588 23.033200 -13.586400 7.490000
-12.352500 1.748060 22.151600 -12.609600 10.110000
-12.561900 1.777690 22.527100 -12.609600 5.830000
-3.879990 1.401620 25.959100 -14.385600 7.580000
-5.159090 1.424600 26.174200 -14.385600 4.060000
-5.242300 1.447580 26.596400 -14.296800 7.250000
-4.808260 0.895386 27.140400 -14.385600 9.140000
-4.883390 0.909377 27.564500 -14.385600 9.010000
10.924100 -0.671260 25.781600 -13.764000 6.450000
-4.958510 0.923367 27.988600 -14.385600 7.940000
-9.251050 -0.681588 26.884100 -13.764000 11.630000
-4.860360 1.985090 28.388900 -14.385600 12.060000
-9.391220 -0.691915 27.291400 -13.764000 7.450000
-5.015880 0.712569 29.297300 -14.385600 6.640000
-4.224410 1.750180 30.686000 -14.474400 7.380000
-10.607900 2.259900 29.526700 -13.675200 7.590000
-16.328200 -2.162860 26.798700 -12.254400 6.940000
-10.753200 2.290860 29.931200 -13.675200 6.810000
-16.551900 -2.192480 27.165800 -12.254400 7.780000
-11.541500 2.222110 30.104400 -13.586400 7.170000
-11.697900 2.150690 30.512200 -13.586400 8.350000
-11.851800 2.178990 30.913600 -13.586400 11.160000
-18.028200 -3.837650 28.105200 -0.444000 6.530000
11.690500 0.894774 31.958200 -13.941600 6.710000
-4.285650 2.076710 34.576500 -14.474400 13.790000
-17.685500 -5.748740 29.536200 -0.799200 9.130000
-18.817700 -1.993260 29.839500 -12.165600 6.610000
12.092100 0.193567 33.657900 -14.030400 8.980000
20.872200 -2.017570 28.972300 -12.254400 6.750000
12.434500 0.195899 33.992100 -14.030400 7.990000
11.376400 1.189190 34.794600 -14.030400 7.770000
-17.143400 -1.415590 32.335700 -12.787200 9.010000
11.011700 -2.662350 35.283200 -14.208000 11.980000
-17.345100 -1.432250 32.716100 -12.787200 8.040000
-16.405800 -1.177230 36.542700 -13.231200 7.080000
-16.866300 -1.189890 36.806700 -13.231200 6.360000
-17.262000 -1.075990 37.102300 -13.142400 6.790000
13.295100 0.096950 39.626300 -14.119200 7.240000
13.403700 1.970340 41.811700 -14.119200 6.570000
14.249000 0.406788 45.656300 -14.208000 6.730000
14.109900 -0.708947 46.146700 -14.119200 8.500000
14.301500 0.609676 50.583400 -14.296800 7.040000
14.418700 0.614673 50.998000 -14.296800 7.490000
14.535900 0.619670 51.412600 -14.296800 17.160000
14.650900 1.124350 51.819400 -14.296800 15.090000
14.769000 0.965457 52.237100 -14.296800 18.410000
14.886200 0.973120 52.651700 -14.296800 12.200000
12.606900 -3.650510 54.014400 -14.385600 7.820000
13.673900 -0.131933 55.210600 -14.385600 6.250000
13.340200 2.897550 63.176900 -14.474400 7.060000
13.430900 2.715830 63.606700 -14.474400 13.720000
14.316500 0.000000 74.913600 -14.563200 7.940000
14.397400 0.177909 75.336600 -14.563200 9.250000
14.478300 0.000000 75.760000 -14.563200 7.990000
14.559200 0.000000 76.183300 -14.474400 10.430000
-15.081600 0.904519 76.515500 -14.296800 11.570000
-15.165400 0.666986 76.940600 -14.296800 10.810000
-15.248800 0.670650 77.363400 -14.296800 8.660000
-15.931200 0.674315 77.665600 -14.296800 9.230000
-14.373900 0.000000 88.030500 -14.385600 7.500000
-15.124700 0.000000 88.341800 -14.385600 8.740000
-14.512800 0.000000 88.881100 -14.385600 12.750000
-15.270100 0.209893 89.191000 -14.385600 12.130000
-14.333100 0.784258 91.088500 -14.474400 14.840000
-13.694400 0.787923 91.622400 -14.474400 8.620000
-13.757600 1.079430 92.045700 -14.474400 7.380000
-13.820800 1.373580 92.468100 -14.474400 6.540000
-14.600000 1.379910 92.784400 -14.474400 5.380000
-13.654600 0.520066 95.114200 -14.474400 5.630000
-13.716000 0.223886 95.541800 -14.474400 6.370000
-13.777300 0.224885 95.968300 -14.474400 5.570000
-13.838500 0.000000 96.395100 -14.474400 12.710000
11.929800 2.505590 140.376000 -14.652000 18.690000
11.965600 2.950280 140.797000 -14.652000 19.630000
12.002100 2.959280 141.226000 -14.652000 16.050000
-5.686050 0.972251 3.775750 -7.548000 2.370000
-6.041430 1.033020 4.011730 -7.992000 3.020000
-6.022770 0.814082 4.818940 -8.968800 3.950000
-6.347280 1.093780 4.321380 -8.169600 5.210000
-6.248130 0.859309 5.220250 -9.146400 3.760000
-6.634250 0.708086 4.744890 -8.258400 6.770000
-5.899150 1.056790 6.192990 -10.478400 2.910000
-6.122700 1.024140 7.164510 -11.011200 3.880000
-6.163620 0.887689 7.709980 -11.188800 7.460000
-5.757210 1.101160 7.991500 -11.721600 9.360000
-6.431600 0.926285 8.045200 -11.277600 10.130000
-6.013490 1.053630 8.347240 -11.632800 9.060000
-6.652090 0.574435 8.453780 -11.277600 8.990000
-5.282690 1.254840 9.304050 -12.432000 6.150000
-6.007790 1.305030 9.365870 -12.165600 6.640000
-5.419530 1.221120 10.222300 -12.698400 5.990000
-6.115430 0.799961 9.865020 -12.165600 5.850000
-5.457940 1.229240 10.689700 -12.787200 6.030000
-6.262890 0.829589 10.279000 -12.254400 3.960000
-5.508020 1.157750 11.156800 -12.964800 3.700000
-6.156600 0.820657 10.843200 -12.520800 5.600000
-5.539150 1.278720 12.087900 -13.053600 4.910000
-5.524820 1.319970 12.564400 -13.231200 5.490000
9.678390 1.109310 10.358500 -10.922400 6.150000
-5.522190 1.361220 13.032700 -13.320000 4.490000
9.974040 1.097740 10.674900 -11.011200 9.380000
-5.481880 1.402470 13.513800 -13.320000 5.560000
10.072900 1.176540 11.162600 -11.100000 11.120000
-5.405250 1.357360 13.549200 -13.408800 5.190000
10.160000 1.210150 11.659500 -11.188800 9.700000
-5.916180 1.437200 14.267700 -13.320000 5.100000
9.467690 0.599545 12.273500 -11.810400 5.170000
-9.875330 1.176390 13.008000 -11.455200 7.260000
-9.928220 1.207340 13.505000 -11.544000 11.340000
-4.808330 1.411840 17.390100 -13.941600 5.300000
-4.785450 1.445460 17.841600 -14.030400 4.020000
-5.142530 1.479070 18.188800 -13.941600 5.930000
10.568600 0.582286 16.758700 -12.698400 7.630000
10.130600 0.594945 17.526300 -12.787200 6.470000
-5.357870 -0.239872 19.975700 -13.941600 10.170000
-5.343360 1.191090 20.392000 -13.941600 13.320000
-5.572600 1.215400 20.776300 -13.941600 11.350000
-5.110380 1.239710 21.337500 -14.208000 5.160000
-5.376130 1.402370 21.707000 -14.208000 11.310000
-8.728680 1.499820 21.050400 -13.320000 6.560000
12.181300 -0.264859 19.316000 -12.609600 11.320000
9.775660 1.358840 20.594900 -13.408800 10.490000
12.411100 -0.269856 19.680400 -12.609600 10.700000
-8.447240 1.358840 21.174500 -13.497600 10.420000
-8.606620 1.384480 21.574000 -13.497600 10.500000
-10.044900 0.932626 21.920500 -13.231200 7.780000
-10.053100 0.873371 22.392600 -13.231200 8.570000
-4.136620 1.537210 24.161600 -14.385600 5.300000
-8.288070 1.537210 23.069500 -13.586400 5.710000
-10.229500 0.888693 22.785500 -13.142400 5.430000
-4.021060 1.409870 24.626300 -14.385600 8.950000
-3.947260 1.218250 25.085200 -14.385600 7.810000
-3.877130 1.726210 25.940000 -14.385600 9.040000
-3.940690 1.754510 26.365300 -14.385600 5.250000
-4.437780 1.470550 27.178400 -14.385600 6.800000
-6.052330 1.470550 26.865000 -14.296800 5.400000
-5.620050 1.493530 27.398200 -14.296800 9.460000
-5.169450 1.516510 27.924500 -14.296800 7.590000
-4.871360 -0.424102 28.453200 -14.385600 8.610000
10.489400 0.424102 26.894000 -13.852800 5.230000
-4.721350 -0.430432 28.915100 -14.385600 6.960000
-8.350500 0.430432 28.082800 -13.852800 7.510000
-4.790780 -0.436762 29.340300 -14.385600 5.220000
-18.485300 -1.182440 24.349200 -11.366400 7.210000
-8.427930 0.629634 28.954800 -13.941600 10.140000
12.263600 -0.911405 28.483500 -13.586400 9.670000
-16.340900 -1.774490 26.819500 -12.343200 13.330000
-17.162800 -1.677350 26.307500 -12.076800 5.610000
-16.773800 -1.798790 27.058400 -12.165600 13.610000
-17.397900 -1.700330 26.667900 -11.988000 6.340000
-17.003400 -1.723300 27.428800 -12.165600 10.070000
-17.230100 -1.746280 27.794500 -12.165600 5.560000
-10.636900 1.948520 30.911400 -13.675200 7.330000
-19.413000 -1.610560 27.389600 -11.721600 7.290000
-10.778800 1.871720 31.323800 -13.675200 7.610000
-10.920600 1.792240 31.736000 -13.675200 8.080000
-17.034200 -0.394790 29.469900 -12.432000 7.250000
-17.479900 -0.293180 29.710000 -12.432000 8.830000
-17.929700 -0.296845 29.944100 -12.343200 7.630000
11.545600 0.620651 32.932200 -14.030400 6.830000
11.685900 0.928753 33.332500 -14.030400 5.750000
12.088100 0.940080 33.646800 -14.030400 10.100000
12.237200 0.419777 34.061700 -14.030400 11.510000
12.116800 0.424774 34.561600 -14.030400 8.970000
19.236000 -2.548020 31.571100 -12.609600 5.590000
12.259800 0.315169 34.969300 -14.030400 5.990000
11.907500 1.999030 35.490700 -14.030400 7.540000
18.860700 -2.067960 33.822600 -12.876000 6.350000
13.706100 0.233213 40.851400 -14.030400 10.220000
13.842900 0.370140 41.259000 -14.030400 9.910000
13.980200 0.237878 41.668400 -14.030400 9.180000
14.117300 0.240210 42.076900 -14.030400 6.740000
-16.717700 -3.390090 41.905700 -13.408800 6.410000
13.472200 1.468990 43.167200 -14.119200 7.830000
14.237200 0.263531 46.563000 -14.208000 6.550000
14.245000 0.734266 47.906000 -14.208000 7.590000
30.174000 0.000000 40.388500 -12.076800 7.470000
14.611800 1.070380 49.139500 -14.208000 17.110000
14.736800 0.599681 49.559900 -14.208000 22.020000
14.860100 0.443435 49.974500 -14.208000 17.470000
14.810000 0.942470 50.880800 -14.208000 5.870000
14.931700 0.619670 51.299100 -14.208000 8.530000
14.654100 -0.124936 51.830600 -14.208000 8.130000
14.771300 0.000000 52.245400 -14.208000 16.590000
14.888600 0.000000 52.660000 -14.208000 21.420000
15.305200 14.361800 51.471400 -14.208000 11.680000
15.398000 14.807600 51.783600 -14.208000 9.070000
12.271800 0.310174 55.979500 -14.385600 7.570000
16.883000 0.312506 55.216300 -14.296800 15.130000
13.549100 0.000000 56.571600 -14.296800 8.720000
15.826400 0.000000 55.977200 -14.296800 7.630000
13.319600 -0.317170 57.067800 -14.296800 8.470000
12.974200 0.136930 57.589800 -14.385600 10.880000
15.400500 1.425140 57.417600 -14.296800 7.890000
15.514900 0.879853 57.844100 -14.296800 12.520000
16.076800 0.000000 58.144300 -14.296800 18.900000
16.191600 0.000000 58.559700 -14.296800 20.770000
15.960500 1.095720 59.505700 -14.296800 14.660000
16.073600 0.719617 59.927200 -14.208000 15.210000
15.837200 0.000000 60.440000 -14.296800 11.530000
16.409600 0.000000 61.179800 -14.296800 8.290000
14.999300 0.000000 76.097900 -14.474400 9.390000
15.082600 0.180908 76.520400 -14.474400 10.020000
15.166000 0.181907 76.943200 -14.474400 10.850000
15.249300 0.182907 77.365900 -14.385600 6.920000
-14.881700 0.919511 77.871000 -14.296800 9.560000
-14.962600 0.924508 78.294200 -14.296800 8.330000
-15.043500 0.929506 78.717400 -14.296800 6.870000
-15.581600 0.934503 79.051900 -14.296800 7.020000
-14.065700 0.209893 89.388900 -14.385600 6.340000
-14.651600 0.210892 89.731300 -14.385600 5.940000
-14.721100 0.211892 90.156600 -14.385600 5.950000
-14.790500 0.000000 90.582100 -14.385600 7.290000
-14.534600 0.000000 92.368800 -14.385600 5.740000
-13.886000 0.000000 92.904200 -14.385600 7.660000
-13.281100 0.225885 96.473300 -14.474400 6.550000
-13.339800 0.226884 96.900100 -14.385600 7.420000
-13.398600 0.000000 97.327300 -14.385600 11.490000
-13.457400 0.000000 97.754100 -14.385600 10.780000
-13.516200 0.000000 98.181000 -14.385600 6.070000
12.857200 2.968270 141.583000 -14.563200 12.950000
12.896200 2.977270 142.012000 -14.563200 15.760000
12.934200 3.428590 142.432000 -14.563200 14.070000
-5.749150 1.129480 5.718410 -10.123200 2.620000
-5.934640 1.188920 6.134860 -10.212000 4.150000
-6.014140 1.137400 6.664760 -10.656000 2.860000
-5.679720 1.278770 7.481450 -11.455200 4.780000
-6.178500 1.191560 7.090340 -10.922400 4.700000
-5.874930 1.367260 7.863700 -11.544000 6.600000
-6.377130 0.774878 8.104350 -11.277600 12.240000
-6.707710 0.807165 8.390580 -11.188800 7.230000
-5.733860 0.968960 9.576020 -12.432000 13.470000
-5.877570 1.006230 9.989930 -12.343200 6.270000
-6.178120 0.969127 10.318000 -12.343200 6.430000
-5.551150 0.969127 10.668400 -12.787200 6.580000
-6.398770 1.003740 10.686500 -12.343200 7.070000
-5.339420 1.051880 11.248800 -12.964800 5.650000
-5.366090 1.088160 11.710200 -13.142400 5.790000
-5.590620 1.267100 13.482600 -13.320000 4.860000
-5.861850 1.304370 13.834300 -13.320000 5.690000
-5.304680 1.484970 14.501400 -13.586400 7.560000
9.933900 1.047050 12.426200 -11.721600 8.430000
10.097100 1.226890 12.831900 -11.810400 5.240000
-10.198000 1.176390 12.756600 -11.188800 4.980000
-5.304980 1.517050 15.416600 -13.675200 5.020000
10.235500 1.259180 13.268800 -11.899200 9.850000
-10.466400 1.207340 13.092300 -11.188800 10.280000
-10.838000 1.238300 13.344900 -11.100000 5.280000
10.463500 1.422150 17.784500 -12.876000 5.070000
-5.455720 1.516920 20.340600 -14.030400 11.670000
10.266800 1.191090 18.411400 -13.053600 6.510000
10.689800 1.191090 18.169100 -12.876000 12.620000
-8.801310 1.547880 19.604300 -13.231200 7.240000
-8.977330 1.578830 19.996400 -13.231200 12.490000
-9.153360 1.609790 20.388500 -13.231200 12.900000
-9.015300 1.358840 20.938900 -13.231200 11.170000
-10.282400 1.384480 20.827500 -12.964800 9.410000
-8.461950 1.702660 22.071800 -13.497600 4.810000
-4.279030 1.252820 24.153200 -14.385600 13.180000
-8.291130 1.385560 23.078000 -13.675200 7.610000
-4.543400 1.274800 24.542700 -14.385600 9.880000
-8.428210 1.795540 23.459600 -13.675200 7.900000
-4.621170 1.355670 24.962800 -14.385600 5.400000
-4.846160 1.378640 25.358300 -14.385600 4.350000
-3.729870 1.401620 25.981100 -14.385600 6.610000
-3.936450 2.145920 26.336900 -14.385600 8.340000
10.924500 1.507100 24.333500 -13.497600 8.170000
-3.750450 2.066340 27.243100 -14.474400 7.760000
-5.176460 -0.329825 27.962400 -14.385600 6.320000
-4.871560 -0.334822 28.454300 -14.385600 6.260000
-4.944270 -0.339819 28.879000 -14.385600 5.700000
-7.960500 1.562460 28.155800 -13.941600 7.530000
-5.017300 0.068965 29.305600 -14.385600 7.990000
-8.078540 1.516570 28.573300 -13.941600 6.040000
-8.196880 1.445380 28.991900 -13.941600 6.760000
10.489000 -0.359809 29.195700 -13.941600 8.040000
-17.560100 -1.871610 26.030800 -11.899200 13.060000
11.654700 -0.364806 29.214600 -13.764000 10.900000
-16.773800 -1.798790 27.058400 -12.165600 9.890000
-18.003500 -1.897250 26.249400 -11.810400 5.960000
10.953600 -0.369803 29.943900 -13.941600 5.600000
-16.358900 -1.922880 27.804800 -12.343200 8.510000
-18.451300 -1.922880 26.462700 -11.721600 8.150000
-16.563600 -2.352770 28.152600 -12.343200 7.160000
-10.389900 2.352770 30.967300 -13.764000 8.050000
-16.781500 -2.383730 28.523100 -12.343200 6.090000
-10.533200 2.076580 31.394400 -13.764000 6.010000
-10.426500 1.999800 31.889400 -13.764000 6.850000
-10.558200 2.130520 32.292100 -13.852800 6.990000
10.842100 1.025330 33.160400 -14.030400 7.300000
11.234300 1.037990 33.484200 -14.030400 6.220000
-18.839800 -0.746565 30.391100 -12.254400 9.320000
11.829100 0.857148 33.740900 -14.030400 7.280000
11.971700 0.867475 34.147500 -14.030400 13.050000
12.117200 0.311504 34.562600 -14.030400 6.180000
12.259400 0.429771 34.968200 -14.030400 5.370000
10.679300 -1.217170 35.914400 -14.208000 6.550000
11.082700 -1.113940 36.246400 -14.208000 6.020000
-16.973500 -1.231160 33.885800 -12.787200 6.630000
11.208700 -1.126600 36.658200 -14.208000 8.050000
11.887200 -2.755220 36.357000 -13.941600 10.480000
19.694400 -1.008040 32.891400 -12.787200 5.650000
12.020800 -2.786180 36.765500 -13.941600 12.810000
19.400700 -1.019360 33.564000 -12.787200 10.920000
12.154400 -2.817130 37.174000 -14.030400 7.590000
-17.081000 -1.030690 35.281000 -12.964800 10.380000
13.705800 0.366476 40.850500 -14.030400 9.930000
13.842900 0.370140 41.259000 -14.030400 7.210000
-14.841100 -2.241880 41.309500 -13.586400 8.840000
-14.993000 -1.852520 41.732500 -13.586400 7.030000
13.680000 0.242542 42.673800 -14.030400 6.780000
-5.821720 1.468990 44.844300 -14.474400 5.960000
-16.570600 -2.576650 42.485500 -13.497600 5.840000
14.601000 -0.110943 45.546700 -14.030400 6.370000
14.505300 0.564700 46.477500 -14.119200 19.260000
14.367800 0.740596 48.319000 -14.208000 10.050000
14.691300 0.447100 50.473200 -14.208000 7.870000
14.536800 0.123937 51.416000 -14.296800 6.970000
14.654100 0.124936 51.830600 -14.208000 16.820000
14.771300 0.125936 52.245200 -14.208000 11.390000
14.888500 0.126935 52.659900 -14.208000 22.670000
15.414400 0.127935 52.957300 -14.208000 12.810000
14.813400 -0.300845 53.575100 -14.296800 11.550000
15.240100 -0.303177 53.903200 -14.296800 20.640000
15.775500 -0.305510 54.197800 -14.208000 10.930000
-17.648100 6.463330 55.051800 -13.675200 11.420000
12.196100 -0.319502 57.758800 -14.385600 21.270000
15.732200 0.136930 56.898200 -14.208000 19.830000
14.628800 0.137930 57.636500 -14.296800 12.290000
17.071000 0.324167 57.409900 -14.208000 11.750000
15.627600 0.513066 58.264400 -14.296800 10.870000
13.635700 0.911503 60.525900 -14.385600 7.330000
16.996900 0.917833 60.117200 -14.296800 7.240000
17.114200 0.924163 60.531800 -14.296800 8.240000
-24.878600 0.145926 57.783000 -13.320000 10.340000
-25.049000 0.146925 58.178800 -13.320000 8.870000
14.559000 0.419784 76.182200 -14.474400 7.950000
14.639900 0.422116 76.605400 -14.474400 8.300000
14.720800 0.424448 77.028600 -14.474400 8.450000
15.248300 0.914514 77.361000 -14.474400 6.060000
-15.331600 0.919511 77.783700 -14.296800 7.540000
-15.414900 0.924508 78.206400 -14.296800 8.140000
-15.498300 0.929506 78.629200 -14.296800 6.860000
-15.581600 0.934503 79.051900 -14.296800 7.860000
-14.065500 0.489748 89.387800 -14.385600 5.670000
-14.132500 0.492080 89.813500 -14.385600 7.860000
-14.199700 0.211892 90.240200 -14.385600 5.490000
-14.266600 0.212891 90.665900 -14.385600 8.110000
-14.333600 -0.213891 91.091500 -14.385600 13.870000
-14.400400 -0.501409 91.516100 -14.385600 14.600000
-14.467400 -0.503741 91.941700 -14.385600 10.530000
-13.885900 0.217889 92.903900 -14.385600 13.540000
-13.409900 0.218888 93.409200 -14.385600 17.720000
-14.013100 0.513070 93.755200 -14.385600 17.230000
-13.532200 0.515402 94.261100 -14.385600 11.760000
-13.716000 0.223886 95.541800 -14.385600 4.920000
-13.222300 0.224885 96.046400 -14.385600 6.600000
-13.280900 0.527062 96.472100 -14.385600 5.380000
-13.339700 0.529394 96.899000 -14.385600 12.580000
-13.398400 0.531727 97.325800 -14.385600 14.460000
-13.457400 0.228883 97.753900 -14.385600 11.370000
12.857200 2.968270 141.583000 -14.563200 7.380000
12.896200 2.977270 142.012000 -14.563200 8.980000
12.896200 2.977270 142.012000 -14.563200 6.590000
-6.059250 1.133370 7.201910 -11.100000 4.450000
-5.748600 1.133370 7.452220 -11.366400 5.530000
-6.003560 1.133370 7.248400 -11.100000 5.490000
-5.898880 1.040220 7.895770 -11.455200 5.390000
-6.286880 1.040220 7.590460 -11.100000 4.690000
-5.705300 1.355220 10.048400 -12.609600 5.070000
-5.837690 1.377620 10.468600 -12.609600 4.570000
-5.980380 1.051880 10.921600 -12.698400 6.770000
-5.341700 1.525220 12.148000 -13.231200 2.500000
9.005210 1.237590 9.788160 -11.100000 4.590000
-5.423170 1.317440 13.078700 -13.320000 4.040000
-5.405250 1.357360 13.549200 -13.408800 3.850000
9.517040 0.215216 11.136400 -11.366400 8.020000
-5.564230 1.397280 13.947700 -13.408800 7.070000
9.166500 1.490140 11.883000 -11.810400 3.770000
-5.800780 1.580450 14.299900 -13.408800 8.880000
9.324920 1.675870 12.283000 -12.076800 4.190000
9.731580 1.532710 11.982600 -11.632800 6.490000
-5.252050 1.477130 14.980700 -13.586400 6.310000
9.527020 0.899397 12.752100 -12.076800 4.900000
9.849210 0.714730 12.516800 -11.810400 5.960000
-5.182910 1.617860 15.447800 -13.764000 5.650000
10.115400 0.734047 12.855100 -11.810400 5.170000
9.706490 0.805281 13.694800 -12.254400 3.960000
10.381600 0.753364 13.193400 -11.810400 6.800000
-10.812900 1.703010 13.314000 -11.188800 7.660000
-5.109850 1.703010 16.372800 -13.941600 4.200000
9.955380 0.825929 14.045900 -12.254400 7.830000
-5.242190 1.582400 16.796900 -13.941600 4.980000
-9.639990 0.965050 15.286300 -12.254400 4.850000
9.776930 -0.888583 17.219500 -12.964800 10.920000
-5.383260 1.455000 19.469400 -14.030400 16.880000
10.379400 1.392520 17.334500 -12.787200 13.460000
10.340200 -0.927217 17.889000 -12.964800 8.560000
10.736400 1.422150 17.621100 -12.787200 7.070000
9.737510 -0.881295 18.713900 -13.142400 11.140000
10.538900 1.516920 18.232800 -12.876000 10.380000
-8.806810 1.348430 19.616500 -13.231200 6.280000
-8.982950 1.375400 20.008900 -13.231200 6.680000
10.534000 1.375400 19.237600 -12.964800 4.890000
-8.841770 1.471520 20.535900 -13.320000 8.800000
-9.899670 1.402370 20.052300 -12.964800 10.020000
-9.007960 1.640750 20.921900 -13.320000 12.410000
-10.092000 1.358840 20.441800 -12.964800 9.160000
12.085600 1.384480 19.835500 -12.876000 8.510000
-8.771480 1.135650 21.987200 -13.497600 8.640000
11.366300 1.263760 20.757600 -13.053600 10.890000
-8.454490 1.156300 22.571200 -13.675200 7.630000
-8.428140 1.176950 23.039900 -13.675200 8.540000
-4.209190 1.564180 24.585500 -14.385600 5.600000
-4.283340 1.434170 25.018600 -14.385600 6.800000
10.210800 1.318760 23.715600 -13.675200 4.390000
-4.159710 1.458480 25.475500 -14.385600 8.540000
-4.077750 1.645090 25.914500 -14.385600 10.220000
-4.144600 1.672050 26.339300 -14.474400 6.030000
-4.936530 1.216970 26.666300 -14.474400 7.030000
-5.321580 1.811110 26.998600 -14.385600 6.450000
-5.404730 1.839400 27.420500 -14.296800 4.840000
-5.499740 0.065966 27.902500 -14.296800 5.460000
-4.871880 0.066966 28.456200 -14.385600 4.950000
-7.960500 1.562460 28.155800 -14.030400 7.880000
-8.077560 1.585440 28.569900 -14.030400 8.990000
-16.345700 -1.604490 26.827300 -12.343200 7.070000
-16.359500 -1.626470 27.321700 -12.343200 12.230000
-16.782400 -2.022650 27.544100 -12.254400 12.560000
-19.644200 -0.974697 26.721200 -11.632800 7.980000
-10.922000 1.714380 31.739800 -13.764000 5.210000
-10.813900 1.736360 32.231100 -13.764000 6.890000
-4.431620 1.838190 34.136500 -14.474400 6.920000
-3.152050 1.861170 34.710400 -14.563200 12.260000
11.685900 0.928753 33.332500 -14.030400 5.710000
11.829100 0.857148 33.740900 -14.030400 6.490000
11.971700 0.867475 34.147500 -13.941600 13.340000
12.115000 0.764555 34.556400 -14.030400 6.540000
12.257500 0.773550 34.962900 -14.030400 4.920000
12.055200 0.773550 35.033200 -14.030400 9.990000
20.237600 -0.666625 31.549500 -12.609600 6.400000
11.768800 1.934170 35.994700 -14.119200 6.150000
-16.981300 -0.439766 33.901400 -12.964800 5.800000
20.715600 -0.674288 31.753400 -12.609600 9.260000
-18.880300 -0.890482 38.243100 -12.964800 10.850000
13.256900 0.230881 40.546300 -14.208000 11.040000
13.524800 0.235546 41.365400 -14.119200 11.330000
-5.930190 1.816550 43.076700 -14.474400 9.320000
13.658700 0.237878 41.774900 -14.119200 8.020000
-5.988900 1.834530 43.503200 -14.474400 8.190000
13.658700 0.237878 41.774900 -14.119200 8.630000
-15.550200 -2.126770 41.515000 -13.586400 7.590000
-2.817370 1.989650 44.248500 -14.563200 6.930000
13.545700 0.926461 42.254900 -14.208000 6.500000
-2.847580 -0.103947 44.722900 -14.563200 6.970000
-5.219090 -0.104946 44.942400 -14.474400 8.180000
-15.385000 -1.798640 43.883700 -13.675200 10.400000
-15.527500 -1.815290 44.290000 -13.675200 4.640000
-15.422300 0.403123 44.818000 -13.675200 8.160000
14.506100 0.263531 46.479900 -14.208000 6.040000
14.362900 -0.417782 46.974100 -14.208000 6.320000
14.123200 -0.421447 47.496400 -14.208000 16.570000
-26.780600 0.927146 44.725900 -12.432000 19.600000
15.242900 0.927146 49.852400 -14.208000 10.290000
-27.001900 0.934808 45.095500 -12.432000 7.250000
-2.733400 0.772246 52.493000 -14.652000 9.690000
15.659200 0.934808 50.174700 -14.296800 12.910000
-2.755810 0.778575 52.923300 -14.652000 8.610000
14.238500 0.619670 51.495800 -14.296800 11.380000
14.352000 0.957795 51.906400 -14.296800 6.190000
14.466800 0.965457 52.321600 -14.296800 9.000000
14.579700 1.311540 52.730100 -14.296800 8.360000
15.005800 0.000000 53.074700 -14.296800 7.180000
15.534900 0.000000 53.371200 -14.296800 8.190000
12.731900 -0.303177 54.550100 -14.385600 5.720000
12.405800 -0.305510 55.066900 -14.385600 8.930000
12.492800 -2.022540 55.453000 -14.385600 13.280000
13.339900 -2.037870 55.698300 -14.385600 9.280000
12.682100 -2.053190 56.293200 -14.296800 16.910000
12.823900 15.840300 54.944300 -14.385600 7.480000
15.501100 10.083200 56.062300 -14.296800 6.480000
15.289900 1.232280 57.005500 -14.208000 21.300000
15.843700 1.241280 57.301200 -14.296800 15.700000
15.515500 0.694631 57.846400 -14.296800 12.440000
15.627900 0.326499 58.265700 -14.296800 7.490000
15.851200 0.331163 59.098000 -14.385600 8.770000
-24.544200 0.145926 57.925900 -13.408800 9.920000
16.294400 1.313240 60.750400 -14.296800 7.090000
16.052100 1.322230 61.260300 -14.296800 6.520000
14.039900 0.417452 75.841400 -14.474400 9.450000
14.118400 0.419784 76.265100 -14.474400 7.140000
14.196500 0.663321 76.687100 -14.474400 7.640000
14.720400 0.666986 77.027000 -14.474400 10.920000
-15.247700 1.158370 77.357800 -14.296800 8.070000
-15.331000 1.164700 77.780500 -14.296800 11.690000
-15.414300 1.171030 78.203200 -14.296800 7.500000
-15.496900 1.425200 78.622000 -14.296800 10.460000
-14.582200 0.000000 89.306300 -14.385600 8.770000
-14.651700 0.000000 89.731600 -14.385600 7.860000
-14.199700 0.000000 90.240400 -14.385600 9.170000
-14.266700 0.000000 90.666100 -14.385600 8.400000
-14.333600 -0.213891 91.091500 -14.385600 8.930000
-13.694800 -0.214890 91.625500 -14.385600 10.630000
-13.758500 -0.215890 92.051600 -14.474400 8.690000
-14.534100 0.795252 92.365400 -14.385600 7.780000
-15.851200 0.798917 92.585700 -14.385600 8.190000
-15.924000 0.802581 93.010400 -14.385600 7.390000
-14.076500 0.809911 94.179300 -14.474400 5.370000
-13.593100 0.813576 94.685600 -14.474400 5.230000
-13.715200 1.119400 95.535700 -14.474400 7.080000
-13.221400 1.124400 96.040200 -14.474400 7.860000
-13.280600 0.828235 96.470000 -14.474400 6.880000
-13.339400 0.831900 96.896900 -14.474400 5.090000
-13.398200 0.835564 97.323700 -14.474400 6.210000
12.817300 3.397610 141.145000 -14.652000 7.800000
12.856300 3.407940 141.574000 -14.652000 7.520000
12.895300 3.418260 142.003000 -14.652000 8.060000
-5.710590 0.834253 8.057000 -11.632800 3.800000
-5.828570 0.870525 8.498150 -11.810400 7.130000
-6.371140 0.894425 8.096740 -11.366400 5.250000
-5.638290 1.373830 9.583240 -12.432000 4.910000
-5.857360 1.390950 9.955580 -12.432000 7.620000
-5.914440 1.442470 10.416700 -12.520800 2.430000
-6.029100 1.197670 11.372000 -12.698400 3.100000
-6.230070 1.237590 11.751100 -12.698400 4.710000
-5.526820 1.556000 12.061000 -13.142400 3.600000
9.215800 0.948101 10.212800 -11.188800 2.170000
-5.708650 1.532050 12.457700 -13.142400 5.020000
-5.215610 1.537710 13.604200 -13.497600 6.900000
-5.448060 1.629320 13.968400 -13.497600 6.330000
9.579010 0.827186 12.173400 -11.810400 4.780000
-5.719810 1.532710 14.337700 -13.497600 6.470000
9.626650 0.850163 12.680400 -11.988000 5.680000
-5.050950 1.428020 15.054500 -13.764000 4.540000
9.885150 0.923705 13.020900 -11.988000 7.250000
-5.187470 1.466620 15.461400 -13.764000 3.560000
10.145300 0.948013 13.363600 -11.988000 4.720000
-4.986480 1.505210 15.977500 -13.852800 5.640000
-9.405390 0.879170 14.416800 -12.076800 3.970000
-5.114330 1.543810 16.387200 -13.852800 5.730000
-9.640530 0.901150 14.777300 -12.076800 6.150000
-5.372960 1.527980 16.760500 -13.764000 6.320000
-5.504010 1.565240 17.169300 -13.764000 6.510000
-4.678950 1.602510 17.856400 -14.119200 6.480000
-5.635060 1.602510 17.578100 -13.764000 4.110000
-3.903160 1.595960 18.484700 -14.030400 2.850000
-9.061230 1.333270 17.091200 -12.698400 5.690000
-5.651430 1.557530 18.483200 -13.852800 6.270000
-6.033870 1.485180 18.822200 -13.852800 6.940000
-5.389520 1.079940 19.492100 -14.030400 7.810000
9.376750 1.613540 18.364900 -13.320000 14.460000
-5.462070 1.125890 20.364300 -14.119200 9.000000
-5.573550 1.148870 20.779900 -14.119200 8.630000
-8.797220 1.680770 19.595200 -13.231200 9.220000
-5.398630 1.171850 21.270200 -14.119200 8.740000
-8.977330 1.578830 19.996400 -13.231200 11.680000
-8.838000 1.609790 20.527100 -13.320000 13.540000
-8.886870 1.640750 20.973600 -13.320000 13.510000
9.679230 1.775760 21.559800 -13.586400 8.180000
-8.440420 1.808050 22.533700 -13.586400 9.760000
-4.135790 1.613020 24.156800 -14.385600 8.760000
-8.591140 1.840340 22.936100 -13.586400 3.970000
-4.625320 0.825434 24.985200 -14.385600 5.360000
-4.850970 0.759504 25.383500 -14.296800 5.270000
-4.076940 1.726210 25.909400 -14.385600 6.090000
10.764300 0.386123 23.976600 -13.586400 6.930000
10.563800 0.392453 24.535400 -13.764000 8.280000
-4.581010 -0.835454 28.055600 -14.385600 7.010000
-4.871560 -0.334822 28.454300 -14.385600 5.310000
10.113600 1.472610 27.000700 -13.941600 6.130000
10.053100 1.494590 27.482000 -14.030400 6.900000
-5.822740 1.794690 29.541200 -14.474400 7.750000
-8.406070 2.260060 28.879700 -13.586400 10.410000
-8.526160 2.292350 29.292300 -13.586400 10.830000
-16.723400 -3.052430 26.977100 -12.254400 6.450000
-18.186300 -2.389210 26.082700 -11.810400 6.190000
-16.335000 -2.595880 27.764200 -12.432000 6.990000
-16.949400 -3.093680 27.341700 -12.254400 5.150000
-18.418400 -2.720390 26.415600 -11.721600 9.700000
-17.175400 -3.134930 27.706200 -12.254400 8.360000
-10.957700 1.974160 31.255400 -13.764000 6.480000
-11.100000 1.999800 31.661300 -13.764000 11.710000
-11.242300 2.025440 32.067200 -13.764000 6.170000
-16.992900 -0.917427 30.473100 -12.609600 11.360000
11.974900 0.195899 34.156800 -14.030400 6.910000
19.997600 -1.415590 30.652800 -12.609600 9.360000
12.117600 0.084957 34.563800 -14.030400 9.400000
20.232800 -1.432250 31.013400 -12.609600 12.840000
12.057900 0.000000 35.040800 -14.030400 7.680000
12.265600 -11.037500 34.140800 -14.030400 9.760000
12.369400 -11.502900 34.429800 -14.030400 7.220000
-3.317550 1.636690 39.037000 -14.563200 8.890000
-3.049730 1.654680 39.490700 -14.563200 8.420000
13.256900 0.230881 40.546300 -14.119200 8.580000
13.390900 0.233213 40.955800 -14.119200 7.180000
-17.142400 -1.053360 40.457200 -13.408800 5.140000
-6.050800 1.166600 43.952800 -14.474400 7.440000
13.792700 0.102947 42.185000 -14.119200 7.040000
-5.615910 1.341790 45.309000 -14.474400 6.500000
14.237300 0.112942 46.563600 -14.208000 6.630000
14.362900 -0.417782 46.974100 -14.208000 8.380000
14.611800 1.070380 49.139500 -14.208000 8.110000
14.571400 0.120938 50.061200 -14.208000 7.660000
-27.001900 0.934808 45.095500 -12.432000 9.380000
14.688700 1.097360 50.464100 -14.208000 22.200000
14.654100 0.124936 51.830600 -14.296800 18.770000
14.771300 0.125936 52.245200 -14.296800 16.000000
14.888600 0.000000 52.660000 -14.296800 10.400000
13.448700 -0.133932 56.152400 -14.296800 9.750000
15.826200 -0.314838 55.976400 -14.296800 10.940000
15.840300 1.746860 57.289000 -14.296800 20.480000
15.955100 1.759520 57.704100 -14.296800 8.900000
15.507100 1.088060 59.180200 -14.296800 10.070000
15.158800 -0.142927 59.724800 -14.385600 10.140000
17.341200 -0.143927 59.577000 -14.296800 10.440000
16.297900 0.000000 60.763700 -14.296800 9.670000
24.865500 1.287280 67.974500 -14.030400 8.660000
25.013500 1.294940 68.379100 -14.030400 8.550000
25.161500 1.302600 68.783800 -14.030400 8.310000
14.558200 0.899522 76.178200 -14.474400 6.990000
14.638500 1.145710 76.598300 -14.474400 6.350000
-15.249100 0.426781 77.365000 -14.296800 7.950000
-15.332100 0.674315 77.786100 -14.296800 6.970000
-15.415400 0.677980 78.208900 -14.296800 9.420000
-15.498800 0.681645 78.631600 -14.296800 10.930000
-15.582600 0.186905 79.057000 -14.296800 8.560000
-14.582000 0.489748 89.305000 -14.385600 5.270000
-14.651600 0.210892 89.731300 -14.385600 12.010000
-14.199700 0.000000 90.240400 -14.385600 14.490000
-13.567500 0.000000 90.773400 -14.385600 12.820000
-14.333600 0.213891 91.091500 -14.385600 10.440000
-14.929400 0.214890 91.432400 -14.385600 17.440000
-13.758500 -0.215890 92.051600 -14.474400 18.990000
-14.013100 0.513070 93.755200 -14.474400 16.160000
-13.532200 0.515402 94.261100 -14.474400 7.950000
-13.593400 0.517734 94.687600 -14.474400 9.980000
-13.222300 0.224885 96.046400 -14.474400 13.870000
-12.537100 0.225885 96.572700 -14.474400 12.950000
-12.592600 0.226884 97.000100 -14.474400 6.550000
-12.648100 0.227884 97.427400 -14.474400 10.060000
12.857200 2.968270 141.583000 -14.652000 4.540000
12.896900 2.536240 142.021000 -14.652000 7.340000
12.935900 2.543900 142.450000 -14.652000 7.040000
-5.591130 0.712023 8.151950 -11.810400 2.720000
-5.882270 1.276130 7.873530 -11.455200 3.370000
-6.495190 0.894425 7.997580 -11.100000 4.410000
-6.691630 0.926285 7.830250 -10.922400 2.200000
-5.899610 0.742981 8.461170 -11.810400 5.020000
-6.765820 0.931693 8.330810 -11.100000 3.190000
-5.693740 1.453150 9.028640 -12.165600 2.950000
-6.145420 0.773938 8.813710 -11.810400 3.820000
-5.568410 1.305030 9.633580 -12.432000 3.190000
-5.859510 1.355220 9.959240 -12.432000 3.930000
-6.248940 1.185330 9.741800 -12.165600 4.420000
-6.480380 1.229240 10.102600 -12.165600 4.620000
-6.710060 1.266350 9.946880 -11.899200 5.150000
-5.635130 1.609030 11.036700 -12.876000 2.270000
-5.817070 1.388420 10.972100 -12.698400 2.780000
-6.711820 1.273140 10.463400 -12.165600 4.660000
-5.829450 1.664520 11.417300 -12.876000 3.190000
-6.026150 1.679020 11.802500 -12.876000 3.700000
-5.514010 1.574420 12.539900 -13.231200 5.280000
-6.102550 1.580450 14.173800 -13.320000 2.920000
9.632830 1.628160 12.049600 -11.899200 5.060000
-5.766680 1.526210 14.785300 -13.497600 6.010000
9.900410 1.673390 12.384300 -11.899200 4.920000
-5.599390 1.567460 15.307000 -13.675200 3.400000
10.072900 1.668250 12.801100 -11.988000 6.950000
-5.746740 1.608710 15.709800 -13.675200 3.840000
10.210900 1.712150 13.237000 -11.988000 9.400000
-9.287870 1.078740 14.479300 -12.165600 5.100000
-5.010770 1.745590 16.851200 -13.941600 9.180000
-9.408860 0.996629 14.919800 -12.254400 6.070000
-5.134530 1.732460 17.267500 -13.941600 6.050000
-9.638350 1.020940 15.283700 -12.254400 4.700000
-5.017870 1.773710 17.747900 -14.030400 5.160000
-5.033770 1.639780 18.205500 -14.030400 3.100000
-5.255710 1.677050 18.589100 -14.030400 4.880000
-4.614280 0.643559 19.266100 -14.208000 4.560000
-5.536640 0.643559 19.021500 -14.030400 2.790000
-9.396970 1.362900 17.399100 -12.698400 6.130000
-5.655050 0.845324 19.428400 -14.030400 6.240000
0.913958 1.485960 20.609500 0.976800 7.330000
1.095120 1.516920 21.031000 0.976800 10.500000
-5.180880 1.516920 20.412300 -14.208000 9.530000
1.364610 1.730580 21.432000 0.976800 10.060000
-5.286610 1.547880 20.828900 -14.208000 13.770000
10.074000 1.281920 19.001500 -13.231200 8.970000
1.390800 1.968350 21.843300 0.976800 8.660000
-5.691480 0.526681 21.219600 -14.119200 15.040000
-9.138620 1.307560 19.942800 -13.231200 9.720000
1.589680 2.006950 22.260000 0.976800 7.990000
-5.676550 0.727502 21.663600 -14.119200 12.580000
-9.317810 1.333200 20.333900 -13.231200 10.310000
-9.333360 1.499820 20.789400 -13.231200 8.450000
10.654500 1.733620 21.581300 -13.497600 4.930000
-10.049500 0.578317 21.930600 -13.231200 6.100000
-10.228900 0.588644 22.322200 -13.231200 5.390000
-3.786610 1.919370 26.376300 -14.474400 11.260000
10.409300 1.362710 24.566700 -13.764000 6.220000
-3.848520 1.866570 26.807600 -14.474400 9.920000
11.081000 1.640860 25.200100 -13.675200 4.800000
-5.098380 0.000000 27.540600 -14.385600 5.840000
10.361700 1.580020 25.973400 -13.852800 8.920000
-5.176800 -0.065966 27.964200 -14.474400 7.730000
10.164400 1.604330 26.512400 -13.941600 9.050000
-5.036280 -0.066966 28.427500 -14.385600 9.290000
-4.554610 -0.067965 28.945000 -14.474400 6.000000
-9.075330 0.436762 28.309800 -13.852800 6.450000
-4.452990 1.538550 29.792800 -14.474400 7.540000
11.175300 0.443092 28.012900 -13.852800 6.030000
-8.798740 2.073970 28.776500 -13.497600 8.590000
-4.516600 1.560530 30.218400 -14.474400 6.520000
11.115700 0.449422 28.499600 -13.852800 6.780000
-8.924440 2.103600 29.187600 -13.497600 5.140000
-4.580220 1.582510 30.644000 -14.474400 9.210000
-17.080800 -3.494980 26.181900 -12.165600 8.260000
-16.279400 -3.542860 27.188000 -12.343200 9.000000
-16.639900 -4.399010 26.842500 -0.710400 10.130000
-17.350000 -5.640600 26.151800 -0.444000 8.720000
-16.510500 -3.392010 27.573900 -12.343200 8.070000
-16.864800 -4.458460 27.205200 -0.710400 9.030000
-11.064200 1.265710 30.796700 -13.675200 8.040000
-16.297900 -3.437240 28.196100 -12.432000 7.290000
-16.945500 -3.437240 27.811800 -12.254400 5.130000
-17.788800 -3.537940 27.267200 -12.076800 8.590000
-11.209800 1.282360 31.202000 -13.675200 10.160000
-18.182500 -4.374000 27.406700 -0.444000 7.920000
-18.811300 -4.374000 26.979000 -0.266400 9.170000
-18.411000 -4.533820 27.751100 -0.444000 6.670000
-19.047700 -4.533820 27.318000 -0.266400 7.500000
-19.165600 -3.258670 27.943800 -0.266400 5.850000
-17.361500 -4.015480 29.508900 -0.976800 5.540000
-19.408200 -3.299920 28.297500 -0.266400 12.490000
11.686600 0.846821 33.334400 -14.030400 6.860000
12.081800 1.492810 33.629100 -14.030400 13.520000
11.975100 -0.083957 34.157200 -14.119200 7.830000
19.764600 -1.287070 30.295700 -12.609600 10.740000
12.117500 0.198231 34.563400 -14.119200 6.350000
19.997600 -1.415590 30.652800 -12.698400 6.580000
-5.256670 2.204910 36.616300 -14.563200 8.080000
12.057800 0.085956 35.040700 -14.119200 5.680000
13.391000 -0.099949 40.956300 -14.119200 7.490000
-15.728300 -1.155280 41.025000 -13.586400 9.330000
13.921900 1.177930 42.580000 -14.119200 9.460000
13.807000 1.189260 43.069900 -14.208000 7.920000
20.206900 1.624160 40.930200 -13.408800 10.490000
14.488800 -0.421447 47.386100 -14.296800 7.350000
14.614700 0.277524 49.149500 -14.296800 8.960000
14.450100 0.599681 49.644300 -14.296800 7.670000
-26.433500 1.088370 44.928300 -12.432000 6.390000
14.237900 0.784905 51.493700 -14.296800 8.420000
14.653100 0.624668 51.827300 -14.296800 10.620000
14.770400 0.629665 52.241900 -14.296800 9.580000
14.887600 0.634663 52.656500 -14.296800 10.100000
14.585100 -14.693700 51.586700 -14.296800 9.550000
15.240200 -0.129934 53.903800 -14.296800 18.840000
13.765500 -2.392090 55.580500 -14.385600 12.390000
14.204800 -0.133932 55.965900 -14.385600 7.820000
12.291800 1.367200 64.318500 -14.474400 9.760000
14.486300 1.376200 64.301800 -14.474400 10.570000
14.205600 1.590370 64.800700 -14.474400 12.050000
14.558700 0.659656 76.180500 -14.563200 9.160000
14.639600 0.663321 76.603800 -14.563200 7.350000
14.720400 0.666986 77.027000 -14.563200 7.160000
-15.332400 0.429113 77.787800 -14.385600 7.280000
-15.415800 0.431445 78.210500 -14.385600 7.490000
-15.499100 0.433777 78.633300 -14.385600 7.000000
-15.582600 0.186905 79.057000 -14.385600 7.000000
-14.582200 0.209893 89.306100 -14.474400 9.310000
-14.651600 0.210892 89.731300 -14.474400 8.540000
-14.721100 0.211892 90.156600 -14.474400 7.990000
-14.790500 0.212891 90.581900 -14.474400 6.910000
-14.859800 0.499077 91.006100 -14.474400 5.480000
-14.929400 0.214890 91.432400 -14.474400 5.550000
-14.467600 0.000000 91.943100 -14.474400 9.900000
-14.534600 0.000000 92.368800 -14.474400 13.340000
-13.348500 -0.508405 92.981600 -14.474400 12.020000
-16.461700 -0.510737 92.918800 -14.474400 13.350000
-12.869600 -0.510737 93.484000 -14.474400 12.110000
-15.997200 -0.219888 93.438200 -14.474400 15.900000
-14.077000 0.000000 94.182700 -14.474400 14.210000
-14.140700 0.000000 94.608900 -14.474400 7.620000
-13.716000 -0.223886 95.541800 -14.474400 5.640000
-13.777300 0.224885 95.968300 -14.474400 6.620000
-13.838500 0.225885 96.394900 -14.474400 6.530000
-13.899600 0.529394 96.820200 -14.563200 12.460000
-13.960800 0.531727 97.246800 -14.563200 17.120000
12.856300 3.407940 141.574000 -14.740800 10.070000
12.075000 2.977270 142.085000 -14.740800 7.970000
12.935900 2.543900 142.450000 -14.740800 9.790000
