VERSION .7
FIELDS x y z velocity SNR
SIZE 4 4 4 4 4
TYPE F F F F F
COUNT 1 1 1 1 1
WIDTH 216
HEIGHT 1
VIEWPOINT 0 0 0 1 0 0 0
POINTS 216
DATA ascii
7.35459356369408 5.83446218278954 -0.730378065363474 -3.403723560418 78.2616940013633
7.59974668248388 6.02894425554919 -0.75472400087559 -3.403723560418 26.0873415751592
5.81110912499187 7.803606935867 2.49302379644066 3.86786768229318 5.72910067626344
5.66573849221886 8.41545981795246 2.08888126693954 2.47543531666763 6.50305146477603
5.66573849221886 8.41545981795246 2.08888126693954 2.63015002395936 5.22980413796337
6.34221023992345 8.17917976107377 0.401707935949911 3.403723560418 5.66109128259885
6.68976368851418 7.7888134292897 -1.3658069822297 3.403723560418 5.66109128259885
6.48292999592461 9.24862884559604 2.70239884184486 2.78486473125109 5.52156593231632
6.19928972149493 9.02406553230933 -3.87343833997762 2.93957943854282 5.04389012806049
0.869597457925174 11.1772477458276 4.07064041762576 1.39243236562554 5.40803404801482
4.62350074563369 10.9883337266913 0.370058219784161 1.39243236562554 5.40803404801482
5.49026081351696 10.4414768180109 1.75777654397476 1.39243236562554 5.40803404801482
5.77960083662943 10.1065910807659 2.59040753848912 1.39243236562554 5.40803404801482
1.4990590099275 11.2690660788324 3.60806764289556 1.54714707291727 6.68683431863022
4.78623664350647 10.8582990272976 1.20268921429852 1.54714707291727 6.68683431863022
5.53063121368464 10.5182539715564 1.01766010440644 1.54714707291727 6.68683431863022
5.71778309331086 10.2085649099104 2.312863873651 1.54714707291727 6.68683431863022
7.28199776468478 9.39116908521358 -1.01766010440644 2.47543531666763 5.73642461296085
4.53321319235596 11.0320967396364 -0 2.78486473125109 5.33712064813853
6.36683809234615 9.26795919534472 -3.97812586267972 2.78486473125109 5.33712064813853
5.62086256609033 10.6898575813671 1.99393211844228 1.39243236562554 5.30673298947383
5.85888866808995 10.4604956662499 2.46867786092854 1.39243236562554 5.30673298947383
5.52718152332216 10.7385946708605 -1.99393211844228 1.701861780209 6.5416897093987
5.47898142085609 10.8765843160616 -1.23433893046427 1.85657648750073 7.43398104376867
5.7463301081291 10.4763819847634 2.65857615792304 1.85657648750073 7.43398104376867
6.87210833197183 9.22839876001809 4.17776253387907 1.85657648750073 7.43398104376867
7.50397296550963 9.48299371519896 -1.89898296994503 2.63015002395936 6.231975912192
-8.93984560040843 7.82677037618086 2.9434236034148 2.78486473125109 6.66368860268677
-8.80366694901598 8.45203114999655 -0.949491484972517 2.78486473125109 6.66368860268677
-4.84240657335983 11.2425092825412 -0 2.78486473125109 6.66368860268677
1.5125910962901 12.0936667512346 -1.13938978196702 2.78486473125109 6.66368860268677
7.60203918966331 8.85096509942446 3.70301679139281 2.78486473125109 6.66368860268677
-8.79430870456933 8.25467297057303 2.08888126693954 2.93957943854282 6.51241362501081
-9.20008772456042 8.05461047980123 0.56969489098351 3.403723560418 5.9490769918249
-9.20008772456042 8.05461047980123 0.56969489098351 3.55843826770973 7.13275222802372
-8.64011258413073 8.67077595042619 0.0949491484972513 3.55843826770973 7.13275222802372
5.2775447763373 11.188527453721 -2.14244232506619 1.701861780209 5.84422176655241
5.61485503650318 11.1463134360196 -1.36337238867849 1.701861780209 5.84422176655241
4.81023908045489 11.4321409748073 1.94767484096926 1.85657648750073 6.52016716085377
5.2012997180687 11.2760182980173 -1.8502910989208 1.85657648750073 6.52016716085377
5.61946812395496 11.1554710933965 -1.26598864663002 1.85657648750073 6.52016716085377
5.96469645976407 10.8744950881354 -1.94767484096926 1.85657648750073 6.52016716085377
7.04831623791983 9.46502436924932 4.28488465013238 1.85657648750073 6.52016716085377
-8.5380813639249 8.19705357631281 4.18750090808392 2.63015002395936 5.42593752899028
9.32511900930405 7.39769692758775 3.99273342398699 2.63015002395936 5.42593752899028
-8.92663283612258 8.76318412422946 -1.0712211625331 2.78486473125109 6.37836543756324
6.48903237244627 13.1644086197551 1.48753665979027 0.618858829166909 5.91464163196989
6.23406984826954 13.5149846174038 2.33720980916312 0.618858829166909 9.70190234833158
6.98606048044376 13.2862155430186 1.28546539503971 0.618858829166909 9.70190234833158
6.12597522350314 13.583941336658 -2.22034931870496 0.773573536458636 6.38814864605407
7.10249482178449 13.224338614785 -1.28546539503971 0.928288243750363 5.49553435714686
6.95742223891971 13.2317508199137 -1.86976784733049 1.08300295104209 6.48507961064448
6.37883743928333 13.8288296357096 -2.14731151216861 0.618858829166909 5.01638972511618
7.03258562152413 13.3746978935929 -2.86308201622482 0.618858829166909 5.01638972511618
7.93097819804632 13.0381521142022 -1.90872134414988 0.618858829166909 5.01638972511618
6.40383897697734 13.8830310491634 -1.67013117613114 0.773573536458636 6.08131611037614
7.08759715475925 13.4793198174883 -2.14731151216861 0.773573536458636 6.08131611037614
6.66039760355662 13.8113364652459 -1.19295084009367 0.928288243750363 7.10088220082916
6.5224285876621 13.8277123948229 -1.67013117613114 1.08300295104209 10.4342632740622
7.0331146158875 13.6644267634484 0.596475420046837 1.08300295104209 10.4342632740622
7.87347554461825 13.2115640916915 -0 1.08300295104209 10.4342632740622
6.52778732502527 13.8390730525995 -1.55083609212178 1.23771765833382 5.01913911648489
6.91828224149784 13.733808228575 -0.238590168018734 1.23771765833382 5.01913911648489
7.99060634288458 13.1361779570775 0.357885252028103 1.23771765833382 5.01913911648489
8.57269331872374 12.7332308496815 0.95436067207494 1.23771765833382 5.01913911648489
-4.12871170974841 15.1011126902792 1.09556709804521 0.154714707291727 5.07963485285116
-2.64563149425019 15.2762403872836 2.43459355121158 0.154714707291727 5.07963485285116
5.71699043491374 14.6025922233066 -0.608648387802895 0.154714707291727 5.07963485285116
6.19306756462261 14.3783093236564 -1.09556709804521 0.154714707291727 5.07963485285116
8.24168225542683 13.2752023434737 -1.46075613072695 0.154714707291727 5.07963485285116
6.68787767447559 14.1784686135679 -0.730378065363474 0.928288243750363 8.6881914762096
7.89312532746019 13.5199274196177 1.09556709804521 0.928288243750363 8.6881914762096
6.66100747451558 14.1215031148975 -1.58248580828753 1.08300295104209 7.17604512642971
7.91242904143763 13.552992245156 -0 1.08300295104209 7.17604512642971
6.03092332525142 14.6769469535857 2.11079260890044 0 5.89427193542259
6.80413182209887 14.4249303258634 1.3658069822297 0 5.89427193542259
6.05303915593252 14.7307683763158 1.61413552445328 0.154714707291727 15.7312863360557
6.81896114676122 14.4563688665364 0.869149897782533 0.154714707291727 15.7312863360557
6.15538606415535 14.9798413725783 2.02558183460803 0 9.45156808961704
6.94595028816497 14.72558903522 1.13938978196702 0 9.45156808961704
6.16665975560781 15.007277199979 1.77238410528203 0.154714707291727 18.3475106255775
6.69984203938464 14.8564527128191 0.886192052641014 0.154714707291727 18.3475106255775
6.13499118399815 17.80444706693 -0.146075613072694 -0.464144121875182 8.16490750590074
-6.2744452364171 17.7347386841854 0.876453678436169 -0.309429414583454 5.14117657317737
-4.78775608055201 18.0813194463082 2.19113419609042 -0.309429414583454 5.14117657317737
-2.26406849025657 18.1019773885291 -4.67441961832623 -0.309429414583454 5.14117657317737
6.2744452364171 17.7347386841854 0.876453678436169 -0.309429414583454 5.14117657317737
7.44425137482385 17.2831553722592 0.730378065363474 -0.309429414583454 5.14117657317737
-9.92566849976513 15.9876653388163 0.730378065363474 1.85657648750073 6.13157513716077
-0.726655360856245 18.7222761954304 -1.89898296994503 1.85657648750073 6.13157513716077
-0.725417587962426 18.6903849754193 -2.19113419609042 2.01129119479245 18.755886235968
-0.867869039358276 18.6276958894037 -2.62936103530851 2.16600590208418 7.33977475847813
-8.3103146066661 17.2326875956209 -0.742551033119532 -0.464144121875182 13.9048812496648
6.23667807977392 18.0995540848443 0.297020413247812 -0.464144121875182 13.9048812496648
6.38113443011861 18.0362960170538 0.742551033119532 -0.309429414583454 8.68180345634781
7.41455668364411 17.621630828608 1.03957144636734 -0.309429414583454 8.68180345634781
-0.736810341274483 18.9839192774073 -2.3761633059825 1.85657648750073 15.5898815987078
-0.736810341274483 18.9839192774073 -2.3761633059825 2.01129119479245 55.5140380757012
-0.885791785931105 19.0123846587005 -2.07914289273469 2.16600590208418 21.9489753976745
-8.45189160537667 17.5262688022275 -0.301889600350235 -0.618858829166909 6.3281834643404
-8.45061992765618 17.5236317871544 -0.452834400525355 -0.464144121875182 10.1738505571617
-9.05559814861786 17.2220995238013 0.301889600350235 -0.309429414583454 5.67761050261629
-0.746482829908009 19.2331309580046 -2.86795120332724 1.85657648750073 11.4388966577192
-0.748133745829509 19.2756668085918 -2.56606160297701 2.01129119479245 58.5122219466058
-0.149117411494101 19.223936591796 -3.01889600350236 2.01129119479245 58.5122219466058
-0.748889199328163 19.2951310688402 -2.41511680280189 2.16600590208418 26.7245153865085
-0.149117411494101 19.223936591796 -3.01889600350236 2.16600590208418 26.7245153865085
-8.87430152201217 17.616794315619 1.38041454353697 -0.464144121875182 5.51400416247725
-0.152193611476368 19.6205145152609 -2.45407029962127 2.01129119479245 22.5061600995376
-0.152193611476368 19.6205145152609 -2.45407029962127 2.16600590208418 10.0686401045843
-9.02741888278305 17.92075480695 0.934883923665246 -0.618858829166909 6.88664524563558
-9.03286040410118 17.9315570274502 0.623255949110165 -0.464144121875182 5.23354298681228
-0.310039620631997 19.9830589788381 -2.02558183460803 2.01129119479245 7.88472194195226
-9.02631113651494 23.0554069151958 -1.34633023382 -1.39243236562554 5.57958398429378
-9.22947890716367 23.0070093122092 -0.576998671637146 -1.23771765833382 5.62669268693954
-0.19471474487687 25.1022591627321 0.584302452290781 3.71315297500145 8.25229057440802
4.67315387704489 24.6642040566141 -0.584302452290781 3.71315297500145 8.25229057440802
-1.18317687119964 25.3953741181734 -0.197202077648137 3.55843826770973 9.13494117479758
15.3650949626679 20.22072421598 -1.18321246588883 3.55843826770973 9.13494117479758
15.5559830225045 20.0616467584669 -1.38041454353696 3.71315297500145 49.1170927398864
15.5672433161757 20.0761685044538 -0.98601038824069 3.86786768229318 24.164662534283
15.5599450305142 20.4771501928423 -0.998183355996748 3.55843826770973 11.9508991717437
15.7480321956218 20.309321409806 -1.39745669839545 3.71315297500145 72.2660618614044
15.7637041211658 20.3295325808926 -0.798546684797399 3.86786768229318 37.1432968567801
15.9559444153264 20.5774537099279 -0.808285059002246 3.71315297500145 14.1629969427376
15.9617088872278 20.584887814148 -0.404142529501121 3.86786768229318 8.21898943469096
-12.8497847632947 25.5087135154733 -0 -0.773573536458636 5.23893969130422
-13.9424009846431 24.8928480022686 1.32928807896152 -0.618858829166909 8.13818035098878
-12.6278568537295 25.6183446271822 0.221548013160253 -0.618858829166909 8.13818035098878
-14.0956141822766 25.1663957825133 1.34389564026879 -0.773573536458636 5.00641589420633
-12.990600380085 25.7882532348831 0.223982606711465 -0.773573536458636 5.00641589420633
-14.3279854685743 25.054860056129 0.895930426845863 -0.618858829166909 6.97312102236586
-12.7654722288581 25.8975272427977 0.447965213422929 -0.618858829166909 6.97312102236586
15.3374779599954 27.3836269676103 -0.243459355121157 1.54714707291727 7.84950935230936
16.9458660493621 27.8582003053425 1.51918637595603 1.23771765833382 5.73615767843235
15.1877081887698 28.8842567517606 -4.60138181178989 1.23771765833382 5.25224201597511
17.1144798764333 28.1353934423067 1.27816161438608 1.23771765833382 5.25224201597511
-17.760866748237 37.6534835110282 7.88808310592552 -0.464144121875182 7.23294097254076
-24.7130194636475 36.7068516420628 0.686555381441663 0.309429414583454 11.1293430234992
-24.7093011248749 36.7013287026308 1.0298330721625 0.464144121875182 18.3325223049912
-27.2446399764457 35.1358279626781 -3.1114105584484 0.309429414583454 15.190376627775
-24.8433153318117 36.9003832786689 -2.76569827417636 0.309429414583454 15.190376627775
-22.960465992974 37.7459174333761 5.87710883262475 0.309429414583454 15.190376627775
-27.6361750385617 34.9246559665638 -1.72856142136022 0.464144121875182 27.2350364752896
-24.8845443952641 36.961621813997 -1.03713685281614 0.464144121875182 27.2350364752896
-27.4738014867457 35.4313642372822 -2.08888126693954 0.464144121875182 5.90571616312668
14.1469975278624 44.5744967392547 0.362754439130524 -0.618858829166909 7.25480027789894
16.6741499748505 43.6559027215421 1.81377219565263 -0.618858829166909 7.25480027789894
14.2419438199957 44.8736544354913 0.365189032681736 -0.618858829166909 6.9362750046222
15.3083809262924 44.4266747429863 2.9215122614539 -0.618858829166909 6.9362750046222
16.7739151203752 43.9171056910844 2.55632322877216 -0.618858829166909 6.9362750046222
-21.7603733658473 46.1325379745942 3.96838748847488 -0.928288243750363 5.26424814923567
-17.4000873337777 46.7147562796651 11.5083237165771 -0.928288243750363 5.26424814923567
-13.7804323921487 47.386967236912 13.4925174608146 -0.928288243750363 5.26424814923567
-7.43923562700075 49.9267630015436 8.33361372579724 -0.928288243750363 5.26424814923567
-4.97626725272035 49.0984902523107 13.4925174608146 -0.928288243750363 5.26424814923567
-3.5504277321337 50.734615368888 5.55574248386483 -0.928288243750363 5.26424814923567
-21.9494614345347 46.5334094285257 1.5970933695948 -0.928288243750363 16.7365286604373
14.3734079167957 49.4260405373077 -0.399273342398698 -0.928288243750363 16.7365286604373
17.1356670305102 48.4340153614669 3.1941867391896 -0.928288243750363 16.7365286604373
-21.9540874848672 46.5432167713984 1.1978200271961 -0.773573536458636 5.80436635828534
13.9640532325127 49.5046209440183 1.9963667119935 -0.773573536458636 5.80436635828534
16.7447430940789 48.595162262903 2.79491339679089 -0.773573536458636 5.80436635828534
17.2401528050864 48.729344723427 3.21366348759929 -0.928288243750363 15.2248507460588
15.1986316886842 49.2733595307305 4.82049523139893 -0.773573536458636 5.48447192123364
16.830571852092 48.8442471487707 3.6153714235492 -0.773573536458636 5.48447192123364
44.2351276948713 27.0387238302512 7.72496533799435 2.01129119479245 5.56297770523986
-34.2316963541744 39.8555627201802 4.499128882639 2.01129119479245 12.052689712389
-32.6411090464815 41.2495398594345 3.68110544943191 2.01129119479245 12.052689712389
-38.2460848521709 36.7184608877203 1.64578524061903 2.01129119479245 5.35307938484694
-33.2267430011248 41.143307213494 4.11446310154757 2.01129119479245 5.35307938484694
7.19583131198617 7.86921054396719 -2.64153400306457 -0.10382171147208 21.5645520105841
8.06201456300649 7.74000182115852 -1.66526198902872 -0.20764342294416 13.867358662345
2.4350977836219 10.9444317071665 -1.40232588549787 0 6.24828732006113
7.21671831269282 8.22980617854785 -2.80465177099574 0.10382171147208 5.25127864584348
-9.19875202124438 6.55350883933963 -2.70239884184486 0.20764342294416 5.20738221754287
-8.10776673645247 8.13654083156491 -1.71151926650174 0.20764342294416 5.20738221754287
6.8262290288609 9.9366767585333 -3.50581471374468 -0.830573691776641 5.08821902646233
6.85733854551365 9.98196167496162 -3.31104722964775 -0.726751980304561 5.61019542491044
6.68607726028894 11.9373632385927 -3.50581471374468 -0.934395403248721 5.50132079488955
7.13879983115877 11.7358484397823 -3.28670129413563 -0.934395403248721 5.50132079488955
6.79533424836414 11.8827694933673 -4.59164343758504 -1.14203882619288 9.92619010288737
-1.32233633503632 14.1448453131167 2.57579997718185 -1.0382171147208 9.49976409449284
6.99060748933124 13.5818409462856 -1.78942626014051 -1.45350396060912 6.65468072326827
7.96868998996952 13.1001485120381 1.19295084009367 -1.45350396060912 6.65468072326827
-8.1242399269052 16.4817815637419 -2.29825631234373 0.726751980304561 9.24136075999335
-12.5943145883556 13.4841039075793 -1.58005121473632 0.830573691776641 12.9226525943608
-12.065482661863 14.0477000030554 0.143641019521483 0.830573691776641 12.9226525943608
-8.14580659519851 16.5255342247989 -1.86733325377928 0.830573691776641 12.9226525943608
-0.579200319351878 18.6589284465469 -2.48328542223581 0.726751980304561 72.672262450786
-0.579785186576643 18.677769934255 -2.33720980916312 0.830573691776641 108.959103526041
-12.7988477378393 13.7030873402095 -1.75290735687234 0.934395403248721 21.8336626131322
-0.580334070369942 18.6954522163299 -2.19113419609042 0.934395403248721 21.8336626131322
-0.586849167815498 18.9053359698384 -2.97020413247813 0.726751980304561 290.273637883497
-0.587554227411465 18.9280494527426 -2.82169392585422 0.830573691776641 521.078091962063
-0.587554227411465 18.9280494527426 -2.82169392585422 0.934395403248721 97.0001001099308
-0.595715348884788 19.1909598423375 -3.16984080367748 0.726751980304561 319.038326415085
-0.595715348884788 19.1909598423375 -3.16984080367748 0.830573691776641 617.186089444244
-0.596469645976408 19.2152595103276 -3.01889600350236 0.934395403248721 78.4328370590736
-1.22078100623849 19.6352780020114 -1.99393211844228 0.726751980304561 33.8793316758652
-1.22078100623849 19.6352780020114 -1.99393211844228 0.830573691776641 68.7293342657984
-0.601871904559038 19.3892931787756 -3.83448484315824 0.830573691776641 68.7293342657984
0.151129691322386 19.4833559274477 -3.37434666197925 0.830573691776641 68.7293342657984
-8.58980100914734 17.4262731261688 -3.68110544943191 0.934395403248721 9.09627521803942
-0.601871904559038 19.3892931787756 -3.83448484315824 0.934395403248721 9.09627521803942
0 19.6396801178113 -2.30069090589494 0.934395403248721 9.09627521803942
-0.619023008394604 19.9418156974185 -2.33720980916312 0.726751980304561 6.40057574376912
-0.620079241263997 19.9758422213592 -2.02558183460803 0.830573691776641 12.7145208717358
-0.630686015595618 20.3175392762294 -1.74073438911628 0.830573691776641 5.74740841033872
-8.02186806003269 22.0931718116255 4.07064041762576 -2.18025594091368 7.06201966674368
-39.6720698189821 16.5346513924321 1.33415726606395 -1.45350396060912 6.80981430924384
35.6712836041279 23.9750359478273 -5.37558256107517 -1.45350396060912 22.6171223504349
-22.4980810107845 36.9857784464104 -5.41453605789455 -1.45350396060912 23.157222787752
-20.6447364770706 37.6383084923377 -7.78339558322342 -1.45350396060912 23.157222787752
-22.5193799889802 37.0207929566838 -5.07612755427615 -1.34968224913704 16.4439723107477
-20.6735822193067 37.6908984077468 -7.44498707960501 -1.34968224913704 16.4439723107477
