VERSION .7
FIELDS x y z velocity intensity
SIZE 4 4 4 4 4
TYPE F F F F F
COUNT 1 1 1 1 1
WIDTH 821
HEIGHT 1
VIEWPOINT 0 0 0 1 0 0 0
POINTS 821
DATA ascii
7.695990 0.065300 9.291750 -10.744800 5.390000
7.970840 0.067632 9.623600 -10.744800 13.080000
8.245700 0.069964 9.955450 -10.744800 14.470000
6.516830 -1.396560 11.076500 -11.721600 3.730000
8.520370 0.113607 10.287100 -10.744800 11.370000
6.734050 -1.443110 11.445700 -11.721600 7.840000
7.035370 -1.606190 11.749700 -11.721600 8.330000
6.917470 -0.681392 12.405000 -11.988000 6.660000
7.533430 -1.656390 11.945900 -11.632800 7.540000
7.421750 -0.656779 12.614500 -11.899200 5.220000
7.831800 0.943902 12.853900 -11.810400 6.600000
7.089250 3.402370 13.371600 -12.076800 5.730000
7.953420 0.970870 13.282900 -11.810400 8.750000
8.175900 0.948623 13.654400 -11.810400 10.350000
-0.347195 1.676740 18.016600 1.420800 10.030000
-0.355461 1.716660 18.445600 1.420800 14.130000
6.230090 1.944750 17.341200 -12.343200 5.990000
-0.473089 1.639780 18.882600 1.509600 13.170000
8.383450 0.908522 16.981100 -12.254400 8.580000
-0.596024 1.452900 19.326800 1.420800 11.760000
8.572670 0.989067 17.364400 -12.254400 9.550000
-1.143510 1.056960 19.760100 1.420800 9.510000
7.722120 1.056960 18.224700 -12.520800 6.960000
-0.389651 1.079940 20.219700 1.420800 5.510000
8.147720 0.657549 18.529400 -12.520800 7.060000
-1.748660 1.166790 20.576100 1.509600 5.600000
8.465790 0.735470 18.856900 -12.432000 9.890000
-0.649798 1.191090 21.070500 1.509600 3.530000
8.635320 1.125890 19.234600 -12.432000 8.020000
6.949200 -2.840260 20.194800 -12.609600 6.630000
-15.820300 1.849860 15.140600 -10.922400 4.840000
-0.845571 1.120940 21.931000 1.509600 6.520000
-15.981000 1.886140 15.592100 -11.011200 4.720000
8.907910 0.755482 21.482700 -12.609600 5.570000
-6.135050 0.915972 22.873300 -12.876000 10.270000
-6.873280 0.858049 23.114900 -12.787200 7.180000
18.188400 1.613020 16.426700 -9.324000 6.720000
-7.177140 0.873371 23.473000 -12.787200 7.260000
18.671400 1.564180 16.539100 -9.324000 7.080000
-5.817400 0.888693 24.289500 -12.964800 8.500000
18.993300 1.591150 16.824200 -9.324000 7.720000
-6.418200 2.277120 24.494000 -12.876000 4.840000
18.290900 1.697910 18.193100 -9.856800 6.510000
18.595800 1.726210 18.496300 -9.856800 7.830000
15.272100 0.867406 21.903100 -10.212000 8.000000
18.900600 1.754510 18.799500 -9.856800 5.930000
-11.237900 2.001770 24.154400 -12.698400 7.420000
15.518400 0.881396 22.256400 -10.212000 9.420000
-5.799310 1.866570 26.454200 -12.964800 6.520000
-11.424300 1.866570 24.554900 -12.787200 4.930000
18.459200 1.151080 20.456200 -10.300800 6.520000
-10.875100 2.066340 25.258400 -12.964800 10.000000
18.941700 1.342140 20.588500 -10.300800 7.270000
-10.905800 1.752960 25.738400 -12.964800 9.610000
-10.873900 1.692140 26.223900 -13.053600 7.100000
-6.553400 1.472610 28.078100 -13.053600 7.050000
18.657400 1.743410 22.526000 -10.656000 7.400000
-10.464300 2.014720 27.294700 -13.231200 7.020000
-6.430600 1.562460 28.544100 -12.964800 8.570000
-12.342600 1.562460 26.528800 -12.787200 7.460000
18.931800 1.769050 22.857300 -10.656000 9.130000
-10.622500 1.860830 27.707300 -13.675200 7.330000
-10.618200 2.044340 27.696100 -13.231200 8.970000
-6.520360 1.952600 28.942500 -13.053600 8.370000
-12.524200 1.585440 26.918900 -12.787200 5.780000
-14.305100 1.820330 26.982100 -13.142400 6.620000
18.605600 1.897250 25.826100 -11.188800 5.150000
18.857000 1.922880 26.175100 -11.188800 4.270000
19.108400 1.948520 26.524100 -11.188800 5.280000
-9.982880 1.746280 31.140800 -12.787200 7.700000
-10.114200 1.769260 31.550600 -12.787200 5.730000
-10.245600 1.792240 31.960300 -12.787200 6.810000
-10.376900 1.815210 32.370100 -12.787200 7.970000
8.379880 -1.780320 33.835200 -13.142400 5.580000
9.521650 -1.603310 34.436600 -13.053600 5.550000
11.101800 -1.713800 33.954800 -12.876000 7.750000
9.636370 -1.622630 34.851500 -13.053600 5.810000
10.304600 -1.734450 34.654400 -12.876000 5.100000
10.427300 -1.755100 35.067000 -12.876000 6.900000
-19.673200 -2.044990 32.855900 -11.277600 9.950000
10.546400 1.139260 37.302000 -13.053600 5.680000
-5.040970 2.090940 38.830300 -13.231200 7.690000
-22.369400 -2.725790 32.614900 -10.922400 7.440000
-5.398780 2.113920 39.216500 -13.231200 6.170000
-5.458120 2.044070 39.647600 -13.231200 8.080000
-5.517650 1.940930 40.080100 -13.231200 6.860000
-10.067100 1.075990 39.663700 -12.964800 5.290000
-9.941220 1.087320 40.139400 -12.964800 4.840000
-10.045400 1.001730 40.559900 -12.964800 7.930000
-17.974400 -2.044180 38.633400 -11.988000 7.900000
-18.640700 -2.085470 39.271400 -11.899200 7.570000
-17.668600 -2.241880 40.181500 -12.165600 10.810000
-18.519000 -2.106120 39.804100 -11.899200 7.720000
-8.401030 2.285840 43.959700 -13.142400 8.560000
-8.484330 2.028290 44.395600 -13.142400 8.520000
-8.565130 2.047600 44.818400 -13.142400 7.040000
-19.582900 -0.812210 41.256400 -11.988000 7.620000
-8.647090 1.924460 45.247300 -13.142400 8.090000
-19.446100 -0.819872 41.796700 -11.988000 8.670000
-14.977600 -6.847550 43.525800 -12.520800 6.010000
-19.627800 -0.827535 42.187400 -11.988000 10.020000
-14.505900 -5.218540 44.366100 -12.520800 4.290000
11.381800 2.271310 45.956100 -13.142400 5.870000
11.127500 2.291950 46.461000 -13.231200 4.910000
-15.482100 -4.873040 44.991800 -12.520800 8.670000
-19.916600 1.405080 43.463200 -12.076800 7.490000
11.227800 2.312600 46.879600 -13.231200 9.630000
-19.757500 1.417740 44.008400 -12.076800 5.940000
-19.933900 1.430400 44.401300 -12.076800 9.250000
-20.110300 1.443060 44.794200 -12.076800 14.530000
-17.870200 -13.983500 44.053000 -12.343200 16.370000
-19.937800 1.455720 45.342200 -11.988000 14.280000
-16.817300 1.218600 47.969000 -12.520800 7.210000
-16.959800 1.228920 48.375600 -12.520800 5.700000
-7.765230 2.031790 51.953400 -13.231200 8.640000
-7.222810 2.048450 52.466300 -13.231200 8.430000
-7.283830 1.569640 52.909500 -13.231200 5.030000
20.197500 0.472753 51.784700 -12.698400 15.030000
20.352600 0.822885 52.182400 -12.698400 11.440000
11.660900 0.829214 55.224100 -13.231200 9.260000
20.509200 0.829214 52.583800 -12.698400 7.090000
11.428100 0.835544 55.712700 -13.320000 6.720000
11.332100 0.679639 57.492300 -13.320000 8.100000
21.313300 -1.103380 58.263900 -12.787200 10.320000
19.519800 -3.548970 59.701100 -12.876000 9.890000
20.116200 -3.573280 59.956800 -12.876000 8.130000
20.866900 -3.076590 60.640500 -12.787200 6.190000
-4.708120 1.776260 73.943800 -13.408800 8.240000
17.581400 1.054440 89.197600 -13.320000 6.110000
17.146300 1.059440 89.720900 -13.320000 6.520000
17.748000 1.064430 90.043100 -13.320000 5.330000
17.308100 1.069430 90.567400 -13.320000 6.190000
-16.411800 7.361760 92.637000 -13.142400 9.040000
-16.486700 7.395370 93.060000 -13.142400 7.000000
-17.281600 7.428990 93.352500 -13.142400 5.520000
17.463500 5.420690 94.334900 -13.320000 7.450000
18.112900 2.313270 94.778600 -13.320000 8.120000
14.329600 1.724030 95.872200 -13.320000 6.340000
16.983200 2.333920 95.862700 -13.320000 7.490000
17.795700 3.175820 96.129400 -13.320000 9.820000
18.521300 1.144390 96.915600 -13.320000 7.580000
18.601400 1.455870 97.334800 -13.320000 6.990000
27.630200 1.601460 105.446000 -13.142400 7.260000
27.739400 1.607790 105.863000 -13.142400 9.420000
27.848600 1.614120 106.280000 -13.142400 7.390000
27.956400 1.961560 106.691000 -13.142400 7.090000
17.882400 1.334290 113.644000 -13.320000 6.120000
17.949400 1.339290 114.070000 -13.320000 14.070000
18.015600 1.702740 114.491000 -13.320000 19.100000
18.081700 2.068840 114.911000 -13.320000 19.470000
17.259200 2.076500 115.473000 -13.320000 14.980000
-9.390950 2.344680 131.500000 -13.408800 6.150000
-10.184100 2.352340 131.873000 -13.408800 7.710000
-10.218200 1.539180 132.314000 -13.408800 8.580000
17.323200 3.202870 179.253000 -13.408800 8.000000
17.364700 3.210530 179.681000 -13.408800 5.700000
17.406100 3.218190 180.110000 -13.408800 5.410000
7.279600 1.236400 7.240680 -9.501600 3.320000
7.582920 1.287920 7.542370 -9.412800 4.150000
-7.784410 0.859217 9.737410 -10.034400 5.440000
7.929810 -4.496120 9.764040 -10.656000 8.430000
8.263620 -4.496120 9.483190 -10.478400 6.690000
8.158530 0.113607 10.576300 -10.567200 15.860000
8.670360 0.990641 10.675900 -10.212000 8.260000
8.252600 0.074628 11.046300 -10.744800 17.140000
8.510620 0.000000 11.391600 -10.744800 13.860000
7.968240 1.402470 12.213900 -11.188800 8.440000
8.202600 1.443720 12.573200 -11.188800 9.840000
8.173130 -0.083957 13.184400 -11.277600 8.690000
9.394050 3.581010 12.374000 -10.744800 5.440000
7.027850 3.916490 13.764400 -11.810400 4.670000
8.190290 -0.086289 13.678500 -11.366400 6.300000
9.641020 3.727130 12.699400 -10.744800 5.560000
6.116960 -1.819310 15.079400 -12.165600 6.380000
8.489560 1.378330 13.933500 -11.455200 6.830000
-8.189040 0.582247 14.167400 -11.277600 4.700000
6.116960 -1.819310 15.079400 -12.165600 7.170000
-7.505130 0.666161 15.501900 -11.632800 9.250000
7.898260 -1.051180 15.768100 -11.810400 9.640000
9.065430 0.846578 15.140000 -11.366400 7.570000
8.060490 1.899530 16.091900 -11.810400 8.820000
9.155550 1.244380 15.561400 -11.366400 3.980000
9.237670 1.602510 15.981600 -11.721600 5.120000
6.998930 1.639780 17.544000 -11.988000 3.650000
6.138950 1.873320 17.840100 -12.254400 4.720000
8.916880 1.677050 17.136800 -11.721600 6.480000
6.383840 1.915890 18.209000 -12.254400 3.870000
8.675640 0.907900 18.277400 -11.988000 6.560000
8.713510 1.055000 18.728500 -11.988000 8.400000
8.403150 -0.516354 19.832000 -12.165600 9.290000
5.954590 1.678900 21.535800 -12.520800 6.350000
18.493700 1.230840 15.451300 -8.702400 6.500000
8.438450 1.711190 21.152400 -12.343200 8.270000
18.821700 1.309710 15.725300 -8.702400 8.700000
19.148600 1.409870 15.998500 -8.702400 8.360000
18.326600 1.332690 16.940200 -9.146400 4.490000
-6.723260 1.882460 23.098300 -12.520800 7.550000
18.506000 1.434170 17.372500 -9.324000 5.180000
-6.979110 1.916070 23.470800 -12.520800 10.840000
18.822900 1.378640 17.669900 -9.324000 8.580000
19.136600 1.401620 17.964400 -9.324000 9.620000
-7.433400 0.216221 24.311100 -12.520800 4.630000
-6.010000 1.618120 25.093600 -12.609600 9.170000
-6.110170 1.645090 25.511900 -12.609600 5.170000
-6.763990 1.280190 25.813600 -12.609600 6.130000
-6.866140 1.782810 26.203500 -12.609600 6.030000
-5.686370 1.725990 26.929700 -12.698400 11.450000
19.106700 1.539480 21.588300 -10.123200 8.160000
8.683580 1.925830 26.558700 -12.609600 5.940000
-11.060400 1.493530 25.688800 -12.165600 6.800000
19.391900 1.562460 21.910600 -10.123200 7.380000
9.225500 2.218610 26.809800 -12.520800 5.680000
-11.230500 1.516510 26.084000 -12.165600 5.780000
-12.562600 1.539480 25.948100 -11.899200 5.250000
-12.546700 1.562460 26.432900 -11.988000 6.530000
18.818100 1.258990 23.539300 -10.389600 4.750000
8.722930 1.132470 27.949700 -12.609600 5.170000
19.084400 1.371510 23.872400 -10.389600 5.630000
19.350400 1.486670 24.205200 -10.478400 5.760000
-5.485770 1.258990 29.633200 -12.787200 5.960000
18.544500 1.582510 24.822100 -10.744800 7.450000
-5.737020 1.371510 30.019900 -12.787200 9.650000
18.804900 1.507320 25.170700 -10.744800 8.850000
19.062500 1.527970 25.515500 -10.744800 9.690000
9.359130 1.604490 29.988200 -12.609600 8.820000
19.320100 1.548620 25.860300 -10.744800 9.520000
-10.430200 1.792240 31.900600 -12.343200 5.040000
-5.480910 1.420860 33.566900 -12.876000 8.310000
-10.375200 1.920330 32.364600 -12.343200 6.900000
-5.553540 0.826167 34.011700 -12.876000 8.780000
-9.621480 1.758340 33.055300 -12.520800 7.970000
-9.741750 1.780320 33.468500 -12.520800 9.720000
-10.057700 1.802300 33.824100 -12.432000 7.720000
-19.018500 -2.044070 35.213900 -11.366400 7.220000
24.752200 0.094951 32.604200 -10.744800 4.280000
11.122300 -1.748670 43.821200 -12.787200 7.820000
11.182900 -1.367110 45.152900 -12.787200 7.550000
11.288100 -1.125650 45.577600 -12.876000 7.130000
19.974400 2.124870 42.932200 -11.988000 8.850000
12.077100 1.746740 47.582800 -12.787200 9.760000
-18.235200 -4.826140 46.753500 -12.076800 6.250000
-17.753400 -4.867390 47.396900 -12.076800 12.130000
-17.092400 -2.158270 48.753600 -12.254400 5.620000
-28.768800 1.342520 48.046400 -11.100000 5.120000
20.191200 1.461090 51.768700 -12.343200 6.840000
-28.990100 1.352850 48.416000 -11.100000 5.670000
20.352600 -0.822885 52.182400 -12.343200 8.100000
-29.209700 1.495070 48.782700 -11.100000 5.200000
20.204900 -0.829214 52.701400 -12.343200 5.610000
-29.428500 1.683570 49.148100 -11.100000 5.340000
20.360600 -0.483748 53.107500 -12.343200 7.750000
-29.652300 1.517720 49.521900 -11.100000 5.660000
20.823800 -0.487413 53.390400 -12.343200 7.980000
-15.949100 -2.571940 59.463200 -12.520800 10.150000
21.759300 -0.734609 59.483100 -12.432000 11.400000
20.532700 -3.296890 61.198200 -12.520800 7.050000
21.143800 -3.318870 61.445100 -12.520800 5.760000
20.336700 -2.733810 62.199500 -12.520800 7.350000
21.433100 -2.751800 62.285700 -12.432000 7.350000
-17.700100 6.618750 86.289500 -12.698400 6.280000
-17.786500 6.651040 86.710400 -12.698400 5.330000
-17.872800 6.683320 87.131400 -12.698400 5.660000
-17.954900 6.991990 87.531500 -12.698400 9.630000
-10.982300 1.504200 129.226000 -12.964800 5.540000
-11.018800 1.509200 129.656000 -12.964800 10.020000
-9.331050 0.000000 130.661000 -12.964800 10.000000
-10.185300 1.125080 131.889000 -12.964800 5.870000
-9.453480 1.128740 132.375000 -12.964800 5.430000
-9.483880 1.544180 132.801000 -12.964800 7.320000
-9.514570 1.549180 133.231000 -12.964800 7.370000
-9.729420 1.584160 136.239000 -12.964800 6.160000
-9.760110 1.589150 136.669000 -12.964800 11.500000
-9.790800 1.594150 137.099000 -12.964800 11.970000
24.789700 0.356818 151.820000 -12.964800 8.020000
24.859100 0.357817 152.246000 -12.964800 6.560000
17.444300 4.768350 180.505000 -13.053600 7.350000
17.486700 4.358030 180.945000 -13.053600 5.120000
7.490580 1.180820 7.031760 -9.235200 3.910000
7.316250 1.097530 7.830360 -9.856800 3.230000
7.608900 1.141430 8.143580 -9.856800 3.900000
-7.181250 1.266350 9.612240 -10.389600 3.540000
7.632340 0.067632 9.894210 -10.656000 6.460000
7.816400 0.069964 10.295900 -10.744800 5.730000
7.994710 0.072296 10.701100 -10.744800 12.510000
8.252600 0.074628 11.046300 -10.744800 16.900000
7.266950 1.448740 12.136400 -11.455200 6.900000
8.510600 0.032983 11.391600 -10.744800 5.830000
6.826790 1.492640 12.876600 -11.721600 11.550000
7.607930 1.536550 12.931000 -11.544000 14.550000
7.862840 0.455702 13.364200 -11.544000 7.460000
8.186870 0.468361 13.672800 -11.455200 7.550000
8.610360 5.300200 13.423100 -11.544000 6.480000
8.936990 5.436100 13.698900 -11.455200 8.170000
7.734750 -2.786290 15.148900 -11.899200 9.970000
7.717970 -2.855950 15.633200 -11.899200 8.830000
7.854580 1.621000 16.223700 -11.899200 5.050000
7.921060 1.445460 16.687700 -11.988000 5.500000
8.109040 1.362130 17.083700 -12.076800 5.250000
7.952790 1.592140 18.086100 -12.165600 4.850000
8.267860 1.626750 18.416100 -12.165600 5.410000
8.993430 1.358330 18.576000 -11.988000 7.820000
8.239870 -3.413210 19.137900 -12.343200 8.300000
8.885560 1.451780 19.098300 -12.076800 8.020000
8.519970 -0.116607 19.788500 -12.254400 6.910000
8.573360 -0.186903 20.233700 -12.254400 6.470000
18.485000 1.435750 15.444000 -8.702400 5.220000
18.811600 1.537210 15.716900 -8.702400 8.000000
19.141600 1.564180 15.992600 -8.702400 8.980000
18.192400 1.409870 17.078000 -9.324000 5.610000
18.337800 1.434170 17.550000 -9.412800 6.340000
-6.978580 1.043170 23.975400 -12.520800 10.640000
18.648600 1.458480 17.847400 -9.412800 10.020000
-7.102020 0.746845 24.399500 -12.520800 3.730000
18.783700 1.482790 18.326700 -9.412800 10.430000
-7.030940 0.759504 24.868000 -12.520800 9.020000
18.425200 0.309835 19.343000 -9.856800 11.380000
-7.141900 1.340730 25.260500 -12.520800 3.640000
18.722400 0.314833 19.654900 -9.856800 12.120000
-6.912030 1.362710 25.770200 -12.609600 8.240000
-7.225130 1.384690 26.130900 -12.609600 7.360000
-7.134140 1.470550 26.598200 -12.609600 7.520000
18.669700 1.099170 21.425000 -10.212000 6.530000
18.952600 1.115820 21.749700 -10.212000 9.410000
-10.669400 1.779930 26.302000 -12.609600 7.600000
-11.034400 1.896000 26.610900 -12.609600 6.120000
-5.479530 2.534200 28.672500 -12.876000 8.640000
-10.998700 1.562460 27.113600 -12.432000 6.690000
18.993700 1.445380 23.387100 -10.478400 5.210000
-5.743960 1.332870 29.141500 -12.876000 6.130000
19.259800 1.631390 23.714700 -10.478400 5.290000
-6.140010 0.873429 29.078100 -12.876000 4.570000
18.547300 1.486670 24.825900 -10.833600 5.420000
-5.488190 0.886088 29.646300 -12.876000 4.240000
18.804900 1.507320 25.170700 -10.833600 8.040000
-5.821170 0.911405 30.460200 -12.787200 5.720000
19.059600 1.626470 25.511600 -10.833600 6.850000
19.317100 1.648440 25.856400 -10.833600 4.660000
19.572300 1.746280 26.197900 -10.833600 13.150000
18.917900 1.468090 26.691100 -11.011200 15.810000
18.747700 1.487410 27.334500 -11.100000 6.230000
-10.238000 2.207290 31.936800 -12.432000 14.130000
-10.369300 2.235580 32.346200 -12.432000 7.780000
-10.238600 2.689230 32.806400 -12.432000 8.120000
-20.188500 -1.600720 32.566800 -11.011200 9.530000
-20.415300 -1.618700 32.932700 -11.011200 6.790000
-20.898200 -1.636690 33.138500 -11.011200 7.640000
10.791300 0.970746 39.028600 -12.787200 6.550000
10.535900 -0.944450 43.990500 -12.964800 7.490000
11.081700 -0.962440 44.744400 -12.876000 8.830000
10.836900 -0.971435 45.247400 -12.876000 7.100000
-19.933800 1.762060 45.333100 -11.899200 5.670000
-20.107100 1.777390 45.727300 -11.899200 7.670000
-17.634400 -3.777530 47.079300 -12.165600 6.150000
-17.785200 -3.809820 47.481700 -12.165600 6.560000
-18.353100 -0.911821 47.871400 -12.076800 9.090000
-19.156700 -0.919483 48.019700 -11.988000 6.720000
-16.186900 -2.337360 49.507400 -12.432000 8.660000
-16.704900 -2.356680 49.789300 -12.432000 7.530000
-17.234600 -1.884640 50.084800 -12.254400 8.260000
20.403100 1.301210 50.297100 -12.343200 6.190000
20.565000 1.311540 50.696200 -12.343200 6.530000
-30.231800 1.645590 47.130000 -10.922400 9.730000
-28.767200 1.472410 48.043600 -11.100000 9.920000
-29.207200 1.670910 48.778500 -11.100000 6.260000
-29.428500 1.683570 49.148100 -11.100000 8.270000
20.820000 1.196300 53.380700 -12.432000 5.600000
-29.649800 1.696230 49.517600 -11.100000 7.340000
12.690100 0.133932 56.328700 -12.964800 9.780000
-16.527400 -2.014620 59.774100 -12.609600 5.170000
-16.642200 -2.028610 60.189200 -12.609600 6.040000
-16.756900 -2.042600 60.604300 -12.609600 6.440000
23.484700 -0.749601 60.212900 -12.432000 5.810000
19.713900 -2.697840 61.496100 -12.698400 5.800000
20.448100 -4.126200 62.540500 -12.609600 6.690000
20.581800 -4.153170 62.949200 -12.609600 7.750000
22.900000 -4.180140 62.601600 -12.520800 8.150000
-15.138000 0.450102 81.773100 -12.876000 5.440000
-17.786500 6.651040 86.710400 -12.787200 4.740000
-17.872800 6.683320 87.131400 -12.787200 5.710000
-17.959200 6.715610 87.552300 -12.787200 5.860000
-62.460400 -12.333500 112.009000 -11.188800 8.160000
-10.982900 0.701972 129.233000 -13.053600 8.190000
-10.052600 1.110420 130.170000 -13.053600 6.370000
-10.086000 0.708969 130.603000 -13.053600 8.530000
-10.119000 1.117750 131.030000 -13.053600 10.470000
-10.152200 1.121420 131.459000 -13.053600 7.880000
-10.185300 1.125080 131.889000 -13.053600 5.460000
-11.237200 1.949600 132.226000 -13.053600 4.330000
-12.040800 1.544180 132.594000 -13.053600 9.770000
-9.514570 1.549180 133.231000 -13.053600 10.930000
-9.699030 1.158060 135.814000 -13.053600 7.240000
18.838500 3.225850 180.399000 -13.142400 5.600000
18.883200 3.233520 180.828000 -13.142400 6.100000
-6.924770 1.221120 9.268940 -10.478400 2.260000
-7.181250 1.266350 9.612240 -10.478400 5.850000
-7.577720 1.043500 9.330500 -10.034400 6.280000
-7.848350 1.080760 9.663740 -10.034400 6.850000
-7.645990 0.689322 10.400500 -10.389600 4.510000
6.700950 1.118030 10.997900 -11.366400 6.080000
8.076950 0.072296 10.639100 -10.833600 13.380000
7.237880 1.192570 11.675700 -11.366400 5.150000
8.337490 0.074628 10.982300 -10.833600 16.910000
8.422450 0.076960 11.456700 -10.922400 15.830000
7.017910 0.417727 12.360200 -11.632800 9.690000
8.677490 0.124602 11.803600 -10.922400 9.520000
7.230580 0.430386 12.734700 -11.632800 10.040000
7.443880 0.396419 13.110400 -11.544000 7.870000
9.117160 4.154990 12.401700 -11.100000 6.020000
7.100910 -1.673390 14.176200 -11.899200 7.820000
6.991200 -1.517050 14.728700 -11.988000 6.350000
7.177210 -1.505210 15.120600 -11.988000 5.580000
7.764510 1.975560 17.657900 -12.254400 4.880000
7.917310 0.735470 19.093700 -12.343200 8.320000
8.236150 0.375456 19.437900 -12.254400 10.010000
8.405260 0.183238 19.837000 -12.254400 10.880000
8.417340 0.118939 20.299600 -12.343200 8.990000
6.963240 0.121271 21.297000 -12.520800 6.080000
8.582390 0.121271 20.697600 -12.343200 5.930000
7.504280 -2.660260 21.404900 -12.520800 4.880000
18.151500 1.483270 15.165400 -8.791200 8.280000
18.481500 1.510240 15.441100 -8.791200 9.640000
-6.914740 1.556420 22.614800 -12.520800 6.750000
18.811600 1.537210 15.716900 -8.791200 6.560000
18.348600 1.139700 17.560300 -9.412800 7.090000
18.656900 1.238890 17.855400 -9.412800 6.140000
-6.118940 0.853415 25.548500 -12.787200 8.490000
-6.419210 0.867406 25.918600 -12.787200 10.370000
-6.318170 1.049200 26.380400 -12.787200 10.340000
-6.418460 1.065860 26.799100 -12.787200 6.190000
17.519400 1.313560 23.450100 -10.567200 4.990000
-10.826700 1.985090 26.689600 -12.609600 9.700000
18.541300 1.516570 23.193100 -10.656000 9.640000
-10.831500 2.014720 27.151100 -12.609600 7.120000
18.810000 1.538550 23.529200 -10.656000 13.990000
19.078700 1.560530 23.865300 -10.656000 13.710000
-10.485400 2.103600 28.663900 -12.964800 6.200000
-10.637400 1.941740 29.079400 -12.964800 12.680000
19.317100 1.648440 25.856400 -10.833600 5.590000
19.372200 1.670420 26.351200 -10.922400 9.010000
19.158800 1.769260 27.031000 -11.011200 8.370000
18.983300 1.792240 27.677900 -11.100000 8.130000
19.226700 1.815210 28.032800 -11.100000 8.750000
-10.430200 1.792240 31.900600 -12.520800 4.950000
-10.563900 1.815210 32.309500 -12.520800 7.200000
-21.737900 -2.507560 27.191700 -10.123200 8.500000
-10.065200 1.838190 32.918600 -12.609600 10.810000
-21.802800 -2.320480 27.708000 -10.212000 9.500000
-10.195300 1.564680 33.344000 -12.609600 10.850000
-21.579000 -2.348780 28.424300 -10.300800 8.690000
19.285300 1.734450 30.580900 -11.455200 8.100000
-21.405800 -0.651301 29.713100 -10.567200 11.280000
19.514900 1.755100 30.945000 -11.455200 13.440000
-21.657600 -0.658963 30.062700 -10.567200 10.390000
8.996180 -2.066180 35.444300 -12.964800 10.550000
9.864390 -1.775750 35.676200 -12.876000 15.430000
9.980520 -1.680580 36.096200 -12.876000 9.000000
9.313690 -2.139110 36.695300 -12.876000 9.260000
9.596240 -2.139110 36.622400 -12.698400 10.710000
-20.683300 -0.689612 32.797800 -11.100000 7.900000
-4.930770 1.956150 37.981500 -13.053600 6.280000
-20.656900 -0.697275 33.322400 -11.100000 5.300000
-4.986180 1.978130 38.408200 -13.053600 6.880000
10.151900 1.394330 37.849300 -12.876000 5.890000
-20.046100 -2.970370 34.071700 -11.188800 6.490000
10.042100 1.409650 38.323900 -12.876000 6.430000
-22.356600 -2.284960 33.698400 -10.833600 9.400000
-22.594500 -2.309260 34.056900 -10.922400 8.150000
19.980800 1.053360 39.133400 -11.988000 12.120000
-16.987300 1.715370 40.967200 -11.988000 6.330000
-17.152200 1.732020 41.365000 -11.988000 10.920000
10.874600 -0.944450 43.908000 -12.876000 7.240000
-17.312700 2.028290 41.751900 -11.988000 12.040000
10.978200 -0.953445 44.326200 -12.876000 9.220000
11.181800 -1.510960 45.148600 -12.876000 9.570000
11.284200 -1.670130 45.561800 -12.876000 6.490000
-14.766900 -5.461280 45.164300 -12.432000 6.430000
-16.488000 -5.065400 45.073200 -12.254400 8.640000
-16.372100 -5.110630 45.571000 -12.254400 7.500000
-19.760500 1.746740 44.938900 -11.988000 10.060000
-20.630200 1.762060 45.020400 -11.899200 8.760000
-17.171700 0.000000 46.942200 -12.254400 8.690000
-17.319800 0.000000 47.346900 -12.343200 9.970000
-17.986500 0.000000 48.019000 -12.254400 7.300000
-18.137600 0.000000 48.422600 -12.254400 5.340000
-18.288700 0.000000 48.826100 -12.254400 6.800000
-28.993900 1.003770 48.422200 -11.188800 6.820000
-29.588600 1.187310 48.562300 -11.188800 8.160000
-16.505200 0.130933 53.980800 -12.520800 9.460000
-29.809000 1.506390 48.924000 -11.188800 9.060000
-16.211500 0.131933 54.519400 -12.520800 13.540000
-30.033100 1.517720 49.291800 -11.188800 8.420000
-16.334300 0.132932 54.932400 -12.520800 8.910000
-30.254600 1.708880 49.655400 -11.188800 16.580000
-17.202100 0.133932 55.118500 -12.432000 4.600000
12.107200 -0.135931 57.337900 -13.053600 12.330000
11.242800 0.324167 58.829600 -13.053600 7.770000
12.119300 1.259270 59.082700 -13.053600 7.310000
12.205900 1.268260 59.504700 -13.053600 6.170000
20.963700 -2.398180 58.351700 -12.609600 6.680000
20.655800 -2.414830 58.917900 -12.609600 7.020000
20.954100 -0.930493 59.768800 -12.609600 7.670000
21.095600 -1.134030 60.172300 -12.698400 9.150000
20.421000 -0.744604 60.865400 -12.698400 9.360000
22.222700 -5.143150 61.856000 -12.520800 5.650000
21.553700 -3.948320 62.636300 -12.520800 7.760000
22.542000 -3.973960 62.744700 -12.609600 7.340000
21.245500 -0.864540 71.448900 -12.787200 7.370000
21.368300 -0.869538 71.861900 -12.787200 5.480000
21.491100 -0.874535 72.274900 -12.787200 6.190000
-13.961200 0.000000 81.546300 -12.964800 6.640000
34.413900 0.194901 76.654600 -12.254400 7.240000
34.589300 0.718292 77.045100 -12.254400 5.810000
35.361500 0.721957 77.168000 -12.254400 5.560000
-17.700100 6.618750 86.289500 -12.876000 6.050000
-17.786500 6.651040 86.710400 -12.876000 8.330000
-17.872800 6.683320 87.131400 -12.876000 9.090000
-18.465000 6.715610 87.447000 -12.787200 5.120000
18.084300 -0.629676 114.927000 -13.142400 5.630000
18.151200 -0.632008 115.353000 -13.142400 6.210000
18.217800 -0.996814 115.776000 -13.053600 7.520000
18.284800 -1.000480 116.202000 -13.053600 5.470000
-9.985970 1.504200 129.307000 -13.142400 12.800000
-10.019500 1.106760 129.741000 -13.142400 13.590000
-8.432940 1.128740 132.444000 -13.142400 10.790000
-8.460320 1.132410 132.874000 -13.142400 5.070000
-8.487700 1.136070 133.304000 -13.142400 6.500000
-8.515080 1.139740 133.734000 -13.142400 6.450000
-8.651710 1.579160 135.880000 -13.142400 7.920000
-8.679360 1.161730 136.314000 -13.142400 10.280000
-8.706740 1.165390 136.744000 -13.142400 9.400000
-8.733850 1.594150 137.170000 -13.142400 5.770000
17.447500 3.225850 180.539000 -13.142400 7.780000
17.489000 3.233520 180.968000 -13.142400 11.860000
-7.764260 0.918213 6.090580 -8.080800 4.150000
-8.101830 0.958135 6.355390 -8.080800 7.480000
-8.439410 0.998057 6.620200 -8.169600 6.470000
-8.025860 0.859217 9.539390 -9.945600 4.740000
7.760450 1.545510 10.222200 -10.833600 7.480000
-8.302610 0.888845 9.868330 -9.945600 3.940000
7.994710 0.072296 10.701100 -10.833600 14.190000
8.337490 0.074628 10.982300 -10.833600 16.330000
8.598040 0.076960 11.325500 -10.833600 14.080000
8.854180 -1.065460 11.075600 -10.567200 6.590000
8.768390 0.079293 11.736700 -10.922400 6.210000
6.851570 0.826473 12.923300 -11.810400 8.160000
7.894690 0.916933 12.307400 -11.366400 5.800000
7.053090 0.850781 13.303400 -11.810400 8.320000
7.254610 0.875089 13.683500 -11.899200 9.290000
7.479260 5.551650 12.939400 -11.899200 9.030000
8.789210 -1.194600 13.248100 -11.188800 5.320000
7.578750 5.701690 13.347900 -11.988000 6.450000
8.284170 4.572040 13.363500 -11.632800 7.650000
8.502180 4.692360 13.715200 -11.632800 10.020000
8.517450 4.710210 14.224900 -11.721600 9.920000
8.652600 1.445460 16.320400 -11.899200 5.420000
7.607020 1.522910 17.299700 -12.076800 3.670000
7.779900 1.557530 17.692900 -12.165600 5.210000
8.110020 0.888583 18.064500 -12.254400 8.970000
8.286320 0.907900 18.457200 -12.254400 11.650000
8.466680 0.671540 18.858900 -12.254400 11.630000
8.764610 1.777320 19.126600 -12.254400 7.770000
9.021780 1.777320 19.006700 -12.076800 7.000000
8.250620 0.449738 19.897500 -12.343200 9.260000
8.211580 -3.903460 21.418700 -12.609600 7.240000
18.151500 1.483270 15.165400 -8.880000 6.210000
8.489610 -3.975740 21.766600 -12.609600 6.290000
18.481500 1.510240 15.441100 -8.880000 8.590000
18.659300 1.537210 15.897400 -8.968800 6.080000
9.096100 0.797454 22.800900 -12.520800 6.600000
9.076590 0.811444 23.271600 -12.520800 4.210000
-5.586840 0.373463 24.798800 -12.787200 8.640000
9.233080 0.825434 23.672800 -12.520800 6.680000
18.651800 1.378640 17.850500 -9.501600 10.490000
-6.662310 0.223550 25.425600 -12.787200 8.160000
-6.758490 1.672050 25.792700 -12.787200 6.130000
16.215700 1.699020 21.705000 -10.744800 7.860000
-6.463780 -3.745100 26.098600 -12.787200 5.430000
-11.249700 1.839400 25.583900 -12.609600 10.980000
18.639500 1.955460 21.390300 -10.300800 8.790000
-10.865000 2.043200 26.202600 -12.698400 10.270000
18.929600 1.806900 21.723300 -10.300800 5.030000
-11.029700 2.074150 26.599600 -12.698400 10.010000
-11.189100 2.285840 26.984100 -12.698400 5.400000
-10.428400 1.896030 31.895100 -12.520800 10.080000
-10.562100 1.920330 32.304000 -12.520800 7.440000
-10.253600 1.944640 32.854200 -12.609600 8.980000
-10.189300 1.968950 33.324400 -12.609600 6.130000
-9.867490 1.365630 33.900500 -12.698400 10.080000
-11.676500 1.693160 33.305700 -12.432000 10.940000
8.482310 -1.884150 34.248800 -12.964800 7.080000
18.822200 1.713800 30.362800 -11.455200 6.430000
-10.108200 1.398940 34.727400 -12.698400 7.040000
19.285300 1.734450 30.580900 -11.455200 8.900000
10.306100 -1.622630 34.659400 -12.876000 7.570000
19.275800 1.755100 31.094400 -11.455200 6.260000
10.428800 -1.641950 35.072000 -12.787200 7.370000
19.502500 1.775750 31.460300 -11.455200 7.360000
10.354900 -0.658963 35.575200 -12.876000 5.780000
10.475300 -0.666625 35.988800 -12.876000 6.030000
-19.949900 -0.800534 32.742800 -11.100000 13.110000
10.716200 -0.681950 36.816200 -12.698400 9.340000
-20.934200 -0.809529 32.635400 -11.011200 13.710000
-4.530760 1.598790 41.086400 -13.142400 7.120000
-4.817850 1.615440 41.487300 -13.142400 7.400000
19.778800 0.489740 37.306600 -11.899200 5.050000
-4.867520 1.632100 41.915000 -13.142400 7.330000
19.594600 -0.099949 38.377000 -11.988000 8.350000
19.491200 -0.100948 38.912100 -12.076800 8.850000
19.684200 -0.101948 39.297400 -12.076800 7.170000
-17.315400 -0.102947 40.865500 -12.076800 7.870000
9.503880 0.102947 43.353100 -13.053600 8.860000
11.358300 -0.519724 43.347200 -12.876000 7.940000
-17.283900 -5.020170 44.314400 -12.432000 8.790000
-19.252600 -0.110943 43.783800 -11.988000 8.070000
-14.298500 -5.065400 45.814800 -12.343200 7.160000
-19.426000 -0.111943 44.178300 -11.988000 7.620000
11.229400 2.163510 46.886300 -13.053600 5.250000
-16.985200 -5.110630 45.346100 -12.165600 8.530000
11.329700 2.182820 47.304900 -12.964800 9.890000
-16.782400 -5.155860 45.878100 -12.254400 7.590000
11.429900 2.202140 47.723500 -12.964800 8.090000
-15.309600 -5.353470 46.824200 -12.432000 8.280000
-19.326100 1.302520 45.610900 -12.076800 8.620000
-17.071200 -5.400020 46.667500 -12.343200 6.100000
-19.494200 1.313850 46.007500 -12.076800 7.410000
-19.662200 1.325170 46.404100 -12.076800 8.700000
19.999500 1.228920 47.200100 -12.432000 6.180000
-18.787800 0.599681 48.170300 -12.254400 7.210000
-18.944300 0.604678 48.571700 -12.254400 12.640000
-28.764700 1.645590 48.039500 -11.277600 7.580000
-16.688100 -0.476418 53.471400 -12.520800 7.720000
-28.988400 1.483740 48.413200 -11.277600 7.870000
-16.817000 -0.130933 53.884500 -12.520800 8.860000
-29.209700 1.495070 48.782700 -11.188800 7.620000
-29.432700 1.373500 49.155200 -11.277600 8.240000
-29.656100 1.205300 49.528200 -11.277600 6.050000
-29.875300 1.394160 49.894300 -11.277600 9.170000
-19.245600 0.134931 54.895500 -12.432000 9.480000
11.688300 0.674641 56.981200 -13.142400 9.800000
11.495500 1.563020 58.321500 -13.142400 14.710000
12.035000 0.509401 58.671300 -13.142400 16.220000
22.367800 -2.762330 57.349100 -12.520800 11.270000
20.804900 -1.848130 59.343000 -12.698400 7.230000
20.947400 -1.860780 59.749400 -12.698400 6.800000
20.741800 -1.873440 60.276800 -12.698400 7.180000
19.108500 -2.878240 61.227000 -12.787200 4.940000
-14.976000 -1.556090 73.009300 -12.876000 7.070000
36.087200 -0.436109 72.044300 -12.076800 6.940000
36.280200 -0.438441 72.429600 -12.076800 4.980000
36.050900 -0.692639 73.022900 -12.076800 7.470000
-16.534700 6.618750 86.520400 -12.964800 5.000000
-16.615400 6.651040 86.942500 -12.876000 5.890000
-16.696000 6.683320 87.364500 -12.876000 10.560000
17.228100 0.496745 90.148900 -13.053600 9.680000
17.308600 0.784258 90.570200 -13.053600 7.350000
17.389500 0.787923 90.993400 -13.053600 6.760000
17.470400 0.791587 91.416600 -13.053600 9.310000
17.551300 0.795252 91.839900 -13.053600 6.930000
-16.569300 6.841610 93.526400 -12.964800 7.320000
-16.644300 6.872570 93.949600 -12.964800 7.680000
18.084500 0.000000 114.929000 -13.142400 8.620000
18.151500 0.000000 115.355000 -13.142400 9.270000
18.218500 0.000000 115.780000 -13.142400 7.640000
-10.946500 -0.299847 128.805000 -13.142400 6.500000
-10.983000 0.300846 129.235000 -13.142400 6.400000
-10.019800 0.301846 129.745000 -13.142400 5.900000
-8.650930 2.421310 135.868000 -13.231200 7.060000
-8.678300 2.428970 136.298000 -13.231200 8.150000
-8.705680 2.436630 136.728000 -13.231200 7.890000
17.407000 2.658550 180.119000 -13.231200 9.070000
17.448400 2.664880 180.548000 -13.231200 10.360000
17.489900 2.671210 180.977000 -13.231200 6.350000
-8.112030 0.806768 6.363390 -8.080800 3.000000
-8.450030 0.840383 6.628530 -8.080800 3.760000
7.400850 0.183567 10.067100 -11.011200 3.530000
7.736090 0.189896 10.354900 -11.011200 7.440000
7.994710 0.072296 10.701100 -11.011200 13.970000
8.252700 0.031984 11.046400 -11.011200 15.620000
8.510500 0.076960 11.391500 -11.011200 12.790000
6.525220 -1.536210 12.540400 -11.988000 5.840000
6.912130 -1.751570 12.798200 -11.988000 8.700000
7.115420 -1.803090 13.174600 -11.988000 8.360000
9.089320 -1.280630 13.035800 -11.188800 3.840000
7.029460 -1.428020 14.238500 -12.165600 5.680000
7.577430 2.297140 13.838200 -11.988000 7.470000
9.336700 -1.277380 13.390600 -11.188800 5.000000
7.219450 -1.466620 14.623400 -12.165600 7.590000
7.891530 2.359220 14.151800 -11.988000 7.550000
7.175180 -1.556970 15.116300 -12.343200 4.250000
8.182250 -0.402756 14.673100 -11.899200 8.500000
8.853750 0.194896 14.282300 -11.721600 7.750000
6.289880 -1.556970 15.505600 -12.343200 2.610000
9.236620 -3.363230 14.158100 -11.899200 6.430000
9.080770 0.199894 14.648500 -11.632800 8.180000
-0.438982 2.220640 17.521300 1.509600 7.400000
7.998070 -3.447310 15.371000 -11.988000 6.100000
-0.553433 2.274810 17.945700 1.509600 14.690000
-0.567252 2.158320 18.393800 1.509600 16.890000
8.381840 1.887760 16.416300 -12.165600 5.730000
-0.726188 2.048280 18.834600 1.509600 15.270000
8.576760 1.931660 16.798000 -12.165600 6.010000
-0.854310 2.035210 19.264500 1.509600 11.200000
-1.252550 2.080430 19.672100 1.509600 9.310000
7.971620 0.827338 18.128900 -12.432000 7.400000
-1.441370 0.845324 20.183200 1.509600 7.550000
8.287430 0.845324 18.459700 -12.343200 10.880000
-0.636911 0.927217 20.652600 1.509600 5.230000
8.464810 0.799394 18.854800 -12.343200 11.760000
-1.340300 0.946534 21.050200 1.509600 4.800000
8.489150 1.011760 19.305900 -12.432000 11.360000
8.520070 0.049974 19.788700 -12.520800 12.430000
8.845810 0.000000 20.117000 -12.520800 9.980000
7.252860 -2.282870 21.077200 -12.609600 9.070000
7.392340 -2.326770 21.482600 -12.698400 8.560000
-15.404600 1.975190 16.743900 -11.544000 6.650000
8.116840 2.442250 21.669800 -12.609600 6.440000
-15.703400 1.869030 17.068700 -11.544000 7.060000
8.717410 -5.365350 21.851700 -12.609600 7.750000
8.873070 -5.461160 22.241900 -12.609600 9.060000
18.499200 1.591150 17.366100 -9.590400 9.250000
18.816300 1.538310 17.663800 -9.590400 9.290000
-6.867780 2.076700 24.838500 -12.787200 8.120000
19.129900 1.563950 17.958200 -9.590400 4.700000
-6.982250 2.111310 25.252500 -12.876000 7.620000
18.382800 1.836950 19.298500 -10.034400 5.320000
-5.869520 0.702228 26.053600 -12.964800 6.970000
18.679300 1.866570 19.609700 -10.034400 7.530000
-5.961050 1.133090 26.459900 -12.964800 7.240000
-7.228240 1.133090 26.142100 -12.787200 6.550000
15.237800 0.895386 22.968100 -10.389600 9.060000
18.975800 1.896200 19.921000 -10.034400 5.540000
-6.055670 1.151080 26.879900 -12.964800 5.180000
-11.090900 1.151080 25.222800 -12.787200 5.820000
15.474200 0.995949 23.324500 -10.389600 9.680000
-11.052200 1.839400 25.669900 -12.787200 9.490000
18.647100 1.779930 21.399000 -10.478400 10.050000
-11.422800 1.867700 25.977500 -12.787200 8.210000
18.929600 1.806900 21.723300 -10.478400 10.010000
-10.828900 1.896000 26.695200 -12.964800 7.250000
-12.173200 0.848113 26.164600 -12.698400 5.140000
19.212100 1.833870 22.047500 -10.389600 5.330000
18.532600 1.769050 23.182100 -10.744800 11.190000
18.804500 1.701560 23.522300 -10.744800 14.200000
19.073200 1.725870 23.858400 -10.744800 12.730000
-13.879900 2.526650 28.114500 -13.142400 7.750000
-10.918800 1.896030 31.730600 -12.609600 6.170000
-9.937710 1.920330 32.501500 -12.698400 11.170000
-10.253600 1.944640 32.854200 -12.698400 13.000000
19.032500 1.758340 28.687800 -11.455200 10.270000
8.566180 -2.399880 33.750200 -13.053600 5.740000
-10.193800 1.672510 33.339200 -12.698400 11.390000
19.268000 1.861170 29.042900 -11.455200 11.590000
8.671940 -2.429510 34.166800 -13.053600 9.320000
-10.059200 1.693160 33.829300 -12.787200 9.260000
19.278700 1.884150 29.550900 -11.455200 8.680000
8.775780 -2.569470 34.576000 -13.053600 8.440000
-10.181900 1.713800 34.241900 -12.787200 6.080000
9.140280 -3.130490 34.882300 -12.964800 7.150000
9.733460 -2.744360 35.202700 -13.053600 10.880000
-21.666400 -1.217170 30.568900 -10.744800 7.560000
9.816080 -1.465550 36.597300 -13.053600 8.410000
11.780100 -0.996711 36.029200 -12.787200 5.680000
-20.193300 -1.363680 32.574600 -11.188800 8.060000
-20.420200 -1.379010 32.940600 -11.188800 9.000000
9.233970 5.350150 37.283700 -24.331200 4.660000
8.924270 5.469040 38.236100 -24.420000 8.110000
-19.497500 -1.796480 34.964600 -11.455200 8.080000
-5.870670 2.110010 40.893300 -13.142400 7.540000
-4.815920 2.002880 41.470600 -13.231200 8.700000
-4.623290 2.023530 41.925500 -13.231200 8.440000
19.485600 1.043040 38.901000 -12.165600 8.030000
-19.251600 -1.682060 38.995100 -11.810400 7.650000
-17.710600 -1.593520 41.134600 -12.076800 9.930000
-18.905100 -0.399458 42.993500 -12.076800 11.940000
-19.078500 -0.403123 43.387900 -12.076800 7.360000
-19.252600 -0.110943 43.783800 -12.076800 5.340000
11.061300 1.580920 47.392300 -13.142400 7.610000
10.788000 1.898560 47.885700 -13.142400 6.970000
-19.766100 1.291190 44.951800 -12.076800 9.110000
-19.939500 1.302520 45.346100 -12.076800 5.060000
-20.112900 1.313850 45.740400 -12.165600 13.260000
-19.159100 0.439771 48.025500 -12.343200 8.970000
-18.663800 0.443435 48.681900 -12.343200 5.960000
20.130100 1.259900 48.546600 -12.520800 7.960000
-6.932760 1.124350 53.402600 -13.231200 7.910000
-7.402900 1.133340 53.774400 -13.231200 7.650000
-7.461650 1.142340 54.201200 -13.231200 7.240000
-30.009000 0.816555 46.782600 -11.100000 8.190000
-29.140300 1.169320 47.826500 -11.277600 10.010000
-28.992200 1.178310 48.419300 -11.277600 4.960000
20.510600 0.480083 52.587500 -12.609600 5.710000
-29.584900 1.495070 48.556100 -11.277600 5.680000
20.667200 0.483748 52.989000 -12.698400 8.920000
-29.809000 1.506390 48.924000 -11.277600 8.850000
20.823100 -0.664647 53.388700 -12.609600 10.560000
20.979700 -0.669644 53.790200 -12.609600 14.210000
12.456400 -0.314838 56.821300 -13.142400 16.870000
-3.385520 0.498407 58.502400 -13.320000 6.670000
12.879300 -0.317170 57.168700 -13.142400 14.230000
-3.410410 0.502072 58.932600 -13.320000 15.540000
20.610200 -0.342824 59.894500 -12.787200 4.540000
20.750400 -0.345156 60.301900 -12.787200 7.570000
17.308100 1.069430 90.567400 -13.231200 7.670000
17.389000 1.074430 90.990600 -13.231200 8.860000
17.469900 1.079430 91.413800 -13.231200 6.690000
17.550000 1.373580 91.833300 -13.231200 6.480000
18.163900 1.379910 92.153000 -13.231200 5.550000
-16.640500 7.167620 93.928200 -13.053600 5.730000
-17.442200 7.199910 94.219700 -13.053600 6.670000
18.696500 7.264480 94.854900 -13.231200 6.240000
18.808000 4.967310 95.420700 -13.231200 7.330000
18.037600 1.762340 97.435800 -13.231200 14.640000
-9.986490 0.701972 129.314000 -13.320000 6.190000
-10.019500 1.106760 129.741000 -13.320000 6.900000
-10.053000 0.302845 130.175000 -13.320000 4.880000
-10.086100 0.303845 130.604000 -13.320000 9.280000
-10.119300 0.304844 131.034000 -13.320000 11.760000
-8.679360 1.161730 136.314000 -13.320000 11.540000
-8.706470 1.589150 136.740000 -13.320000 8.300000
17.446500 3.786800 180.528000 -13.320000 5.910000
17.487900 3.795790 180.957000 -13.320000 6.420000
