VERSION .7
FIELDS x y z velocity SNR
SIZE 4 4 4 4 4
TYPE F F F F F
COUNT 1 1 1 1 1
WIDTH 190
HEIGHT 1
VIEWPOINT 0 0 0 1 0 0 0
POINTS 190
DATA ascii
-9.11265006023755 8.16831605670307 0.284847445491756 4.64144121875182 5.50994601680508
-9.01908363995408 8.27423623798928 0.189898296994503 4.79615592604354 6.09911242128275
5.7613318216326 13.3759579050719 3.85639618511914 0.773573536458636 5.76706693994567
6.41784578518703 13.6059942273284 -0.81802343320709 0.928288243750363 5.41883967905429
-3.81862377317641 14.4213186984473 2.1034888282468 1.08300295104209 22.7489771002602
-2.15086506574374 14.4350489445354 3.73953569466099 1.08300295104209 22.7489771002602
-0.934180564683778 15.0255410248892 0.584302452290779 1.08300295104209 22.7489771002602
-0.115715871914436 14.9178728497142 2.1034888282468 1.08300295104209 22.7489771002602
6.1253184764099 13.2792199959643 3.62267520420283 1.08300295104209 22.7489771002602
-8.47254679651853 11.8458914826203 3.85639618511914 1.23771765833382 18.3841742351457
-3.79453035271291 14.3303280914437 2.68779128053758 1.23771765833382 18.3841742351457
-2.64836792412562 14.6067603521416 2.57093079007943 1.23771765833382 18.3841742351457
-0.115299744945442 14.8642265425129 2.45407029962127 1.23771765833382 18.3841742351457
-8.41589880270523 11.7666890888729 4.20697765649361 1.39243236562554 6.30755553266379
-8.63830599990447 12.3235151541086 0.701162942748935 1.54714707291727 5.56744605532015
7.24447851889429 13.2077208959825 -0.233720980916311 1.54714707291727 5.56744605532015
7.82376222922663 12.8618941450545 0.584302452290779 1.54714707291727 5.56744605532015
7.01274335033434 13.6248480445688 1.31224592410304 0.928288243750363 12.0571583188523
6.25359970732612 13.866940114505 2.26660659617798 1.08300295104209 134.456971865959
7.02484591395418 13.6483617512643 0.95436067207494 1.08300295104209 134.456971865959
6.24609544597068 13.8502999156292 2.38590168018735 1.23771765833382 106.187871733687
6.90223451712057 13.7019511343703 1.07365575608431 1.23771765833382 106.187871733687
6.88907675585972 13.6758310421905 1.43154100811241 1.39243236562554 8.82015278927001
7.10208348961624 12.9481143834123 4.29462302433723 1.701861780209 6.26294268284929
7.16821011627977 13.926899746188 0.973837420484633 0.928288243750363 19.4478114188762
6.50901779518707 14.1110506486833 2.19113419609042 1.08300295104209 261.724860854107
7.0430964460414 13.9815827901738 1.09556709804521 1.08300295104209 261.724860854107
6.50162464758588 14.0950228725216 2.312863873651 1.23771765833382 190.198294279082
7.0430964460414 13.9815827901738 1.09556709804521 1.23771765833382 190.198294279082
6.87800379230354 13.9535214517623 2.06940451852984 1.39243236562554 11.3334994659883
7.19313426591932 13.3931027928902 3.89534968193853 1.701861780209 7.04782983761686
7.77375802361785 12.7796896019582 4.74745742486258 1.701861780209 7.04782983761686
6.65303501596697 14.4232689219549 1.98662833778865 0.928288243750363 7.84235066997142
7.18395837496223 14.2612144459772 1.11747844000612 1.08300295104209 53.1000972298114
7.05155479744792 14.3056072816606 1.3658069822297 1.23771765833382 38.0687774558141
7.67386678312773 13.7009686948798 -3.10410677779477 1.39243236562554 5.75752149394485
7.53541609207926 14.0304071323376 -1.61413552445328 1.54714707291727 5.10503307320495
-3.71046473910886 14.9782425399318 5.31715231584609 0.618858829166909 7.34069057463501
6.5795898908251 14.2640455316698 -4.43096026320508 1.39243236562554 7.56081938679027
7.5381964859328 14.0355840273195 3.54476821056406 1.39243236562554 7.56081938679027
7.57594317960821 14.1058656778208 3.16497161657505 1.54714707291727 6.08306810987537
-2.47582782426695 15.7662234483223 3.41816934590106 1.85657648750073 5.28359171724284
-1.58752084135864 15.663322043682 4.30436139854207 1.85657648750073 5.28359171724284
-0.611906157526338 15.7657628416768 4.17776253387907 1.85657648750073 5.28359171724284
1.19692410938995 15.3844944941832 5.31715231584609 1.85657648750073 5.28359171724284
7.16034705422153 14.5263159544844 2.02558183460803 1.85657648750073 5.28359171724284
8.47061826211671 13.6439585898715 2.91177388724905 1.85657648750073 5.28359171724284
5.3537960965463 15.5373294515437 2.58066916428428 0.464144121875182 7.76593755655197
5.88370991074949 15.4046034066426 2.19356878964163 0.464144121875182 7.76593755655197
6.44283808340434 14.6165490143448 4.6452044957117 0.464144121875182 7.76593755655197
6.41165176112514 14.5457981430253 4.90327141214012 0.618858829166909 11.4115750298519
8.12566095732462 14.2090664871101 2.96776953892692 1.85657648750073 9.199216800015
4.96185630166299 16.0861408118528 1.97202077648138 0 5.18187647388042
4.44713080844022 16.2657575069005 1.70908467295053 0.154714707291727 9.51045903702497
4.97409764356937 16.1258267555118 1.5776166211851 0.154714707291727 9.51045903702497
5.93273734493909 15.5329659858983 3.28670129413563 0.309429414583454 9.18779659617867
6.41649763935011 15.2496173996058 3.68110544943191 0.309429414583454 9.18779659617867
6.59431734102819 14.9602025355187 4.46991376002446 0.464144121875182 7.98702473458654
5.87588246249565 15.7752321524611 1.97202077648138 0.618858829166909 7.15079457247282
6.84600681932043 15.1805633602987 3.15523324237021 0.618858829166909 7.15079457247282
5.8402698867981 16.0847928524478 2.27634497038283 0 7.81575726656825
4.52948508267059 16.5669752385098 1.74073438911628 0.154714707291727 6.95909051187284
5.91124191977626 15.8701631948955 3.34756613291592 0.154714707291727 6.95909051187284
5.8817895027376 15.7910910352325 3.74927406886583 0.309429414583454 13.7502925612097
6.51134312958096 15.4750296913876 4.01707935949911 0.309429414583454 13.7502925612097
7.10392092471876 15.0604907516182 4.55268994076565 0.309429414583454 13.7502925612097
6.13278120771467 16.0567165474889 -1.60683174379964 0.464144121875182 9.04751884932645
5.79848598199511 16.3894383933323 2.59040753848912 -0.154714707291727 5.38998604703141
5.79152785286769 16.3697712200355 2.72674477735697 0 8.47330667264083
5.70528272569574 16.5573839056964 -1.49970962754633 0.309429414583454 5.15812595868092
6.38003167537748 16.2961617634266 -1.63604686641418 0.309429414583454 5.15812595868092
7.48748674938487 15.8736599318831 -0.954360672074938 0.309429414583454 5.15812595868092
5.71771715407572 16.5934700409913 -0.954360672074938 0.464144121875182 5.27236794300745
6.25942686763956 16.3882975047266 -1.09069791094279 0.464144121875182 5.27236794300745
-0.967185652916266 17.7867959492651 -1.66526198902872 2.47543531666763 28.2033324898191
-0.828387111376119 17.7802669407656 -1.80403382144778 2.63015002395936 18.278089654596
-0.982599631388056 18.0702630261571 -1.9768899635838 2.32072060937591 16.7117191149453
-0.984153822265674 18.0988450010066 -1.69447711164326 2.47543531666763 119.169574169896
-0.984840470507001 18.111472640923 -1.55327068567299 2.63015002395936 55.1187985441384
5.2055164682297 17.3749602692599 3.73466650755856 0.309429414583454 5.0579758171676
-3.97325748045574 17.8576176457103 -2.87282039042967 2.32072060937591 12.823221152147
-1.13909396139203 18.3214077611356 -2.44189733186521 2.32072060937591 12.823221152147
-1.00112199161508 18.4108940527481 -1.7236922342578 2.47543531666763 74.073533540403
-9.99121710868765 14.253595027574 -6.32020485894526 2.63015002395936 42.0205296859932
-1.00182047861919 18.4237394105941 -1.58005121473632 2.63015002395936 42.0205296859932
-0.427996376897832 18.3877359134655 -2.15461529282225 2.63015002395936 42.0205296859932
5.38508828700873 17.9743346513806 -1.60683174379964 0.309429414583454 8.46125997051265
7.01162942748935 17.4784107699513 -0 0.309429414583454 8.46125997051265
6.55736565665924 17.6048391373778 1.31468051765425 0.464144121875182 6.05750413593415
7.01141849599789 17.4778849653162 0.146075613072694 0.464144121875182 6.05750413593415
-1.01462407650912 18.6592009090128 -2.33720980916312 2.47543531666763 17.6331042191847
-0.435250552777457 18.6993924543717 -2.19113419609042 2.47543531666763 17.6331042191847
-4.04545533627566 18.182107490734 -2.7754366483812 2.63015002395936 9.65822245367659
-1.87362085536344 18.4861364214913 -3.06758787452659 2.63015002395936 9.65822245367659
-1.30180355903741 18.6024073257001 -2.62936103530851 2.63015002395936 9.65822245367659
-0.436628780027736 18.7586043544596 -1.60683174379964 2.63015002395936 9.65822245367659
6.24414852208268 17.1971223015999 5.64338785170844 0.309429414583454 5.40854429648978
7.1284899179475 17.7697176161171 -0 0.309429414583454 5.40854429648978
-1.91172263391976 18.8620687635536 -2.67318371923031 2.47543531666763 8.20560658989658
-1.3219970116758 18.8909660937904 -2.82169392585422 2.47543531666763 8.20560658989658
6.72156208792027 22.4352136695276 2.37372871243129 -0.464144121875182 6.1767664236553
5.68581646830426 22.9522564120238 -3.14549486816536 -0.464144121875182 9.30023782648145
6.78629707507283 22.6512859529738 3.14549486816536 -0.464144121875182 9.30023782648145
15.5599450305142 20.4771501928423 -0.998183355996748 4.33201180416836 5.96000833685217
18.3394805316102 18.0036804012911 1.39745669839545 4.33201180416836 5.96000833685217
16.1218784961231 21.649705786884 -0 3.55843826770973 6.89089113966216
16.7454680594109 21.1617457972376 -0.628125136212589 3.55843826770973 6.89089113966216
16.5191637194948 21.7394981718049 -0.423619277910814 3.55843826770973 7.88914382562104
14.04964422131 25.0843207330099 2.68779128053758 2.93957943854282 7.2145436677698
-3.41590105758072 31.2700357150117 3.93430317875791 2.01129119479245 20.1475341815241
15.2435902168401 27.7912460519631 -0.491787897344738 2.01129119479245 20.1475341815241
14.99546928983 27.9204939323697 0.737681846017111 2.16600590208418 8.55530153876433
16.9482980048801 26.7495934898023 1.47536369203422 2.16600590208418 8.55530153876433
15.384786174636 28.0486664856555 -1.24164271111791 1.85657648750073 7.66000741909787
15.395906447462 28.0689403341307 0.24832854222358 2.01129119479245 41.1435486042929
15.388957218625 28.0562708956497 0.993314168894326 2.16600590208418 15.3750355504074
15.5398293482193 28.3313323750188 1.00305254309917 2.01129119479245 14.0376736289699
15.517352475445 28.2903538199103 2.00610508619834 2.16600590208418 5.54826984947851
17.04727591397 27.4587190029031 0.75228940732438 2.16600590208418 5.54826984947851
-7.22043728120169 32.4519135336133 1.29033458214214 1.54714707291727 7.29332548775719
-4.89795841323412 32.8715504051787 1.54840149857056 1.54714707291727 7.29332548775719
16.7662737565348 28.7185107142764 1.03226766571371 1.54714707291727 7.29332548775719
16.7698074025205 28.7245634038348 0.774200749285285 1.701861780209 18.3156904692726
16.9305605171068 28.9999131989436 0.521003019959276 1.54714707291727 10.070952175522
16.6700903553051 29.1504190795886 0.521003019959276 1.701861780209 28.3866423283221
16.8274043903949 29.4255087732992 0.26293610353085 1.701861780209 6.38391811828281
-14.4013222169955 33.4352343721321 -0.564825703881085 -0.464144121875182 7.72223386206768
-14.5232860335036 33.7183950936563 -0.854542336475267 -0.464144121875182 5.41558813922217
16.6331431418775 34.4913247047588 -0 0.773573536458636 6.6441917466133
16.6326427655061 34.4902870990727 0.297020413247812 0.928288243750363 13.7008820272627
16.7689759029283 34.7729943703766 0.299455006799023 0.928288243750363 6.42428405429752
-24.4959241328631 32.2370494624128 5.06395458652009 1.701861780209 5.94601668141045
-23.9383769700218 45.5264361171892 1.9963667119935 0.154714707291727 6.42729119492979
-22.7585805167258 46.1707133408597 -0 0.154714707291727 6.42729119492979
-25.4603093065061 44.5215754901059 4.39200676638569 0.309429414583454 20.6347356536888
-23.9210615629698 45.4935053644494 2.79491339679089 0.309429414583454 20.6347356536888
-22.7476236685177 46.1484849994496 1.5970933695948 0.309429414583454 20.6347356536888
-23.9210615629698 45.4935053644494 2.79491339679089 0.464144121875182 5.91465834564549
-22.7476236685177 46.1484849994496 1.5970933695948 0.464144121875182 5.91465834564549
-25.1977314838712 44.9881839233329 4.82049523139893 0.154714707291727 10.3390871644324
-24.0763596281121 45.7888540194846 2.41024761569946 0.154714707291727 10.3390871644324
-22.8801255490909 46.4172937830455 2.00853967974955 0.154714707291727 10.3390871644324
-24.4444019756575 45.5137324381455 3.6153714235492 0.309429414583454 42.2609866022967
-22.8725416467065 46.401908193301 2.41024761569946 0.309429414583454 42.2609866022967
-24.056027169888 45.7501853845307 3.21366348759929 0.464144121875182 12.1643824699447
-22.8725416467065 46.401908193301 2.41024761569946 0.464144121875182 12.1643824699447
-24.6051849618471 45.8130988870089 3.23314023600898 0.309429414583454 10.8738121879729
-23.0021427346362 46.6648320902932 2.82899770650785 0.309429414583454 10.8738121879729
-21.893772071501 54.5762358845029 7.82234908004281 -0.618858829166909 5.00942036599547
-35.413582290109 47.5560982316569 1.84055272471596 1.54714707291727 13.6367611476254
-35.8864591147647 47.2271856835763 0.920276362357974 1.701861780209 5.55943978235884
-36.0535311682645 47.4470553248786 2.312863873651 1.54714707291727 11.9630761047117
-35.9719724798503 47.3397227148395 4.625727747302 1.701861780209 5.30608041743894
-2.78509123591027 13.5262289638943 0.107122116253309 -1.0382171147208 7.01106132515995
-6.61273799788365 12.0559675353466 -1.28546539503971 -0.934395403248721 5.66862049300298
-2.78383413316049 13.5201236487774 -0.428488465013239 -0.934395403248721 5.66862049300298
7.53510294413515 11.4204419284869 3.50581471374468 -1.14203882619288 6.38700996558865
-2.78530630230032 13.5272734672832 2.95803116472207 -1.0382171147208 39.3294943084416
7.5031495386699 11.3720123298154 3.72492813335372 -1.0382171147208 39.3294943084416
8.21675323533908 11.488253709651 -0 -0.726751980304561 12.7974241630764
5.20611573632618 13.2976932584386 2.12783476375892 -0.726751980304561 16.8310085975407
7.66040972888322 12.8540431132647 1.75290735687234 -1.34968224913704 8.29523994741522
7.03078340251234 13.6598975191271 0.715770504056204 -1.0382171147208 5.31461877309005
0 15.2575015008847 -4.84240657335983 -1.24586053766496 6.08447606438065
8.04729910912985 14.0720377928414 -1.89898296994503 -1.45350396060912 6.94292438917481
8.04729910912985 14.0720377928414 -1.89898296994503 -1.34968224913704 6.49157232393185
-12.4518366276405 12.7712434074118 -1.3877183241906 0.934395403248721 16.0391477924241
-8.21510682736279 15.6236380035366 -2.91420848080026 0.934395403248721 16.0391477924241
-12.4439202307904 12.7631239440664 -1.52649015660966 1.0382171147208 29.230116469272
-8.23539122027545 15.6622152270163 -2.63666481596214 1.0382171147208 29.230116469272
-12.4352441089234 12.7542252677097 -1.66526198902872 1.14203882619288 8.33483090506092
-8.26193890871715 15.7127040986476 -2.22034931870496 1.14203882619288 8.33483090506092
-0.837987176799957 17.9863200330223 -2.68292209343516 0.934395403248721 106.117951215963
-0.838940071379666 18.0067726930902 -2.54171566746489 1.0382171147208 193.247966937082
-0.839840463060222 18.0260984457627 -2.40050924149462 1.14203882619288 40.5972829734432
-0.994507770167765 18.2892567984195 -2.72917937090818 0.934395403248721 164.082284173088
-0.995638647930466 18.3100539348825 -2.5855383513867 1.0382171147208 378.48893126548
-0.996707216218021 18.3297051838762 -2.44189733186521 1.14203882619288 56.9906485650309
-1.58737889655011 18.5365256889349 -2.9215122614539 0.934395403248721 49.0980800305911
-1.58737889655011 18.5365256889349 -2.9215122614539 1.0382171147208 111.102896003029
-0.583440525926094 18.7955266292886 -1.02252929150886 1.0382171147208 111.102896003029
-1.58928602496544 18.5587960712233 -2.7754366483812 1.14203882619288 17.6076492120645
-0.583440525926094 18.7955266292886 -1.02252929150886 1.14203882619288 17.6076492120645
-0.592896023177039 19.1001353125665 -1.18808165299125 1.0382171147208 9.66563728513299
-21.971442799644 14.7672322867052 -3.31104722964775 0 7.43477711609457
-13.7853030397427 32.0050361404122 -6.6026177108858 -1.76496909502536 5.0757432179561
16.8190641454529 32.6772536489199 -6.66348254966609 -1.24586053766496 17.4912909550303
16.8190641454529 32.6772536489199 -6.66348254966609 -1.14203882619288 11.5984043365192
16.9604008189441 32.9518524190789 -6.71947820134396 -1.24586053766496 7.96667965482263
16.9840986438491 32.9978942100283 -6.42732697519857 -1.14203882619288 5.42659203674957
