VERSION .7
FIELDS x y z velocity intensity
SIZE 4 4 4 4 4
TYPE F F F F F
COUNT 1 1 1 1 1
WIDTH 930
HEIGHT 1
VIEWPOINT 0 0 0 1 0 0 0
POINTS 930
DATA ascii
-6.773240 0.199221 8.921860 -11.366400 3.960000
-7.033750 0.206884 9.265010 -11.366400 6.390000
-7.294260 0.214546 9.608160 -11.366400 6.960000
-7.554770 0.222208 9.951310 -11.366400 3.420000
-6.672810 1.624860 10.951700 -12.343200 5.280000
-6.889510 0.539568 10.924800 -12.076800 5.980000
-6.810440 1.638030 11.374000 -12.343200 6.830000
-7.119160 0.557554 11.288900 -12.076800 9.870000
-6.316700 1.690870 12.139700 -12.698400 4.340000
-6.939440 1.690870 11.794800 -12.343200 5.410000
-7.351340 0.447693 11.657100 -12.076800 8.990000
-6.514100 1.743710 12.519000 -12.698400 5.090000
8.877730 0.252858 11.105000 -11.721600 6.250000
-6.350910 1.492640 13.117900 -12.876000 7.380000
-6.657560 1.130030 13.485200 -12.876000 8.840000
-6.927840 1.162320 13.830700 -12.787200 7.770000
8.831920 0.734047 13.768500 -12.520800 6.210000
8.955160 0.753364 14.200300 -12.609600 6.880000
-5.802550 1.596890 16.151200 -13.497600 8.370000
-9.691830 1.862070 14.130800 -12.076800 4.930000
-6.043210 1.636810 16.520300 -13.497600 8.830000
-9.716030 1.799950 14.645100 -12.076800 9.470000
-10.430600 -1.419080 14.188300 -0.088800 2.670000
-9.953000 1.843850 15.002300 -12.076800 9.080000
-10.541100 -1.523420 14.632000 -0.088800 4.520000
-10.792100 -1.559690 14.980300 -0.088800 4.460000
-9.177460 1.736780 16.992600 -13.053600 5.560000
-9.247240 1.775380 17.442000 -12.964800 10.260000
0.505446 1.704780 20.174100 0.888000 18.640000
-9.448270 1.813970 17.821200 -12.964800 10.360000
0.516200 1.741050 20.603300 0.888000 18.520000
-6.137200 1.852570 19.664600 -13.764000 6.880000
1.498680 1.777320 20.985700 0.888000 14.980000
-6.148910 1.891160 20.110200 -13.764000 6.900000
9.043520 -1.011760 19.052500 -13.320000 10.720000
8.663640 -0.965851 19.702700 -13.497600 7.700000
9.377640 -1.032410 19.369600 -13.320000 10.010000
8.836910 -0.985168 20.096700 -13.497600 11.170000
11.070900 -2.509230 18.817000 -12.787200 6.880000
9.761840 0.467728 20.163100 -13.320000 11.700000
-5.303050 1.781610 22.141900 -14.030400 5.380000
9.949560 0.476723 20.550900 -13.320000 16.090000
-5.581790 1.528120 22.537400 -13.941600 8.930000
10.136600 0.557663 20.937200 -13.320000 15.870000
0.272727 2.268700 23.589100 0.888000 10.660000
10.323700 0.622944 21.323700 -13.320000 11.360000
0.138845 2.309950 24.019200 0.888000 13.140000
-5.791810 1.361250 23.385400 -13.941600 5.540000
0.141325 2.351190 24.448100 0.888000 12.200000
-4.927520 1.385560 24.022000 -14.119200 7.360000
0.143804 2.392440 24.877000 0.888000 7.010000
9.744290 0.888693 22.997200 -13.586400 8.680000
10.546100 -2.111310 23.983700 -13.497600 7.420000
10.530800 -2.145920 24.458800 -13.408800 5.760000
18.343900 1.699020 19.938800 -11.100000 11.010000
18.631400 1.811110 20.251300 -11.100000 11.990000
18.926300 1.752960 20.571800 -11.100000 8.590000
-20.661000 0.513378 20.158300 -9.945600 11.460000
-20.969300 0.521040 20.459100 -9.945600 14.730000
-21.277700 0.528703 20.760000 -9.945600 13.490000
-21.547200 1.887800 21.022900 -11.277600 8.360000
18.733400 1.974160 27.313500 -12.254400 6.950000
-17.695500 -1.299010 28.545200 -12.165600 10.680000
-17.922300 -1.315670 28.911200 -12.165600 11.510000
19.278000 0.079959 28.577400 -12.432000 13.620000
19.519000 0.080959 28.934600 -12.432000 15.150000
-17.291700 -7.444540 29.390300 -0.710400 6.950000
19.760000 0.081958 29.291900 -12.432000 12.070000
-20.710400 -7.520260 28.171600 -0.710400 6.450000
-17.870800 -0.307839 31.474700 -12.520800 6.460000
-18.084000 -0.198231 31.850100 -12.432000 7.470000
-17.418200 -5.452680 32.251000 -1.065600 6.020000
-16.971700 -1.348360 33.882300 -12.787200 6.440000
-17.164600 -1.363680 34.267300 -12.787200 10.140000
20.329300 -2.358740 33.951600 -12.698400 9.830000
20.550200 -2.384380 34.320600 -12.787200 7.500000
11.308600 1.815800 38.851500 -14.119200 9.640000
11.428900 1.835120 39.264800 -14.119200 6.170000
11.781400 1.598790 39.621000 -14.119200 7.630000
-17.582400 -1.371060 38.369300 -13.053600 8.800000
22.797500 -0.620328 35.540200 -12.520800 10.650000
-16.681700 -0.651978 41.123200 -13.320000 6.240000
-16.750200 -1.888490 41.987300 -13.231200 11.470000
-8.312960 0.812210 44.905200 -14.208000 8.900000
-8.390300 1.105000 45.323000 -14.208000 7.700000
-16.626600 -2.912610 43.368000 -13.320000 5.140000
-17.033300 -2.939580 43.671800 -13.320000 8.060000
12.438800 2.202140 47.470600 -14.208000 8.450000
12.547900 2.221460 47.887000 -14.208000 6.030000
12.657000 2.240770 48.303400 -14.208000 8.190000
-2.621650 0.116940 50.347000 -14.474400 8.620000
13.056200 1.325170 48.677300 -14.208000 9.760000
13.170200 0.904158 49.102600 -14.208000 9.180000
-14.866800 -0.432441 48.622300 -13.764000 7.630000
13.281800 0.911821 49.518700 -14.208000 8.590000
14.524200 1.019090 55.429300 -14.208000 7.720000
14.634200 0.848204 55.848900 -14.208000 9.490000
14.744000 0.674641 56.268000 -14.208000 7.150000
15.474500 1.118700 60.968300 -14.208000 9.950000
15.580500 1.126370 61.385900 -14.208000 14.480000
15.434700 0.347488 62.320300 -14.296800 11.260000
15.434700 0.347488 62.320300 -14.208000 21.080000
15.641100 0.754599 63.153500 -14.208000 17.770000
15.755400 0.993791 65.783600 -14.296800 13.390000
15.854000 1.421170 66.195300 -14.296800 13.390000
15.954300 1.430170 66.614300 -14.296800 20.360000
16.054600 1.439160 67.033200 -14.296800 9.470000
16.156000 1.233640 67.456200 -14.296800 13.610000
16.459600 -0.163916 68.723800 -14.296800 24.400000
16.488700 6.587180 68.845700 -14.208000 22.180000
16.451200 -1.287280 70.485400 -14.296800 10.540000
16.192400 1.082410 71.874600 -14.296800 7.950000
16.913500 4.435450 72.466000 -14.296800 13.710000
25.802300 0.736616 82.674900 -14.030400 11.770000
25.929900 1.009460 83.083700 -14.030400 11.610000
26.059000 0.743945 83.497600 -14.030400 8.960000
16.085900 0.499077 90.797400 -14.385600 8.720000
16.161000 0.501409 91.221600 -14.385600 9.340000
-13.345800 1.960860 92.962700 -14.385600 10.620000
-13.407800 1.678060 93.394700 -14.385600 13.070000
-12.932700 0.243876 104.341000 -14.385600 12.610000
-12.985700 0.244875 104.769000 -14.385600 10.540000
-13.038700 0.245875 105.196000 -14.385600 10.110000
-11.665200 1.234340 105.784000 -14.385600 9.080000
-12.326200 1.239340 106.143000 -14.385600 12.600000
-12.375900 1.244340 106.571000 -14.385600 14.900000
-12.426000 0.916189 107.002000 -14.385600 12.610000
-12.475300 1.254330 107.427000 -14.385600 5.420000
-11.899500 2.266680 107.909000 -14.385600 7.360000
-11.945900 2.612750 108.330000 -14.385600 4.890000
-11.591100 0.604023 110.998000 -14.385600 10.600000
-11.635600 0.952837 111.424000 -14.385600 11.010000
-11.680400 0.956501 111.853000 -14.385600 7.780000
-11.724800 1.309300 112.278000 -14.385600 7.140000
15.083300 3.759060 156.075000 -14.563200 12.610000
15.124800 3.769390 156.504000 -14.563200 5.630000
14.258800 3.779710 157.018000 -14.563200 6.990000
-6.825160 0.377698 5.929340 -9.235200 4.670000
-7.029160 0.395683 6.348300 -9.412800 6.450000
-7.249040 0.797981 6.056500 -8.968800 3.670000
7.840070 0.834253 6.004940 -8.791200 3.120000
-7.425090 1.149040 7.106090 -9.768000 3.900000
8.060650 0.615323 6.449490 -9.057600 3.730000
8.465580 0.615323 5.907960 -8.436000 4.630000
8.746580 0.640961 6.255660 -8.524800 7.590000
8.945200 0.632009 6.715660 -8.791200 6.190000
-5.952710 0.466313 10.484100 -12.254400 4.050000
-6.506800 0.578151 10.143800 -11.899200 4.310000
-6.161890 0.637398 10.852500 -12.254400 6.420000
-10.731100 1.196450 7.864140 -8.880000 3.170000
-6.374370 0.659378 11.226800 -12.254400 4.430000
-6.803210 0.619447 10.974500 -11.988000 3.930000
-10.902800 1.235050 8.350760 -8.968800 7.210000
-6.676060 0.681357 11.549900 -12.254400 4.480000
7.615380 1.072960 10.921900 -11.810400 4.640000
-11.243500 1.273640 8.611720 -8.968800 6.890000
7.263020 0.330467 11.716200 -12.165600 8.030000
-11.480800 1.312240 9.006020 -9.146400 3.360000
-6.754960 0.373767 12.507200 -12.432000 10.220000
-5.923750 5.459100 13.758500 -13.142400 6.560000
-5.892720 5.606640 14.211100 -13.142400 7.120000
-5.461980 1.490710 16.279600 -13.408800 4.170000
8.948470 0.846578 15.209500 -12.520800 6.820000
-5.598530 1.527980 16.686600 -13.408800 4.480000
-5.607100 1.411840 17.149300 -13.408800 7.920000
-9.499920 1.159650 15.865700 -12.254400 9.380000
-5.636180 1.559690 17.581600 -13.497600 9.390000
-9.469450 1.186620 16.382500 -12.343200 10.750000
-5.524080 1.595960 18.066700 -13.586400 7.870000
-9.691060 0.989067 16.765900 -12.343200 9.180000
-6.144730 1.677050 18.314500 -13.497600 5.580000
-9.408440 0.949819 17.420300 -12.609600 7.460000
-9.605160 1.267520 17.784500 -12.609600 8.070000
-9.805530 1.422150 18.155500 -12.609600 5.420000
-9.322700 1.516920 18.883600 -12.787200 5.260000
-9.512960 1.547880 19.269000 -12.787200 5.260000
-5.285410 1.614330 20.824200 -13.764000 5.540000
10.962000 -1.765200 18.964700 -12.520800 5.890000
9.373260 -2.885160 20.146500 -13.053600 8.580000
11.024000 -1.886140 19.415900 -12.609600 7.660000
10.222700 -0.741492 20.408500 -13.053600 8.160000
11.726000 -0.741492 19.583400 -12.698400 7.230000
11.236000 -1.922410 19.789300 -12.609600 9.030000
9.195880 -0.827404 21.358300 -13.231200 10.370000
10.725200 -1.240780 20.612100 -12.876000 9.680000
11.292300 -1.958680 20.250300 -12.609600 8.050000
-5.195170 1.702660 23.060300 -13.852800 6.660000
10.174600 0.708870 21.868900 -13.142400 16.190000
-9.538390 0.708870 22.153800 -12.964800 16.340000
-5.786060 1.733620 23.362200 -13.852800 6.610000
10.357200 0.645597 22.261400 -13.142400 16.370000
-4.928950 1.252820 24.029000 -13.852800 7.730000
10.540900 0.444417 22.656200 -13.142400 11.590000
-5.345560 1.197600 24.384400 -13.852800 6.880000
-8.916240 0.452079 23.804000 -13.320000 6.770000
-5.578540 1.434170 24.762000 -13.852800 4.690000
10.215200 1.079140 23.725800 -13.320000 6.060000
10.385500 1.097120 24.121200 -13.320000 8.360000
-4.571310 2.050540 25.803000 -14.030400 6.300000
10.741400 1.280190 24.427800 -13.320000 8.270000
-4.646250 2.084150 26.226000 -14.030400 6.630000
9.887850 1.280190 24.785600 -13.408800 6.800000
11.958600 -2.594950 25.193900 -12.964800 8.870000
10.018900 -1.082510 26.132800 -13.497600 5.360000
-20.666200 0.712569 21.363500 -10.123200 5.130000
10.684800 -0.923367 26.339800 -13.408800 5.040000
-20.798100 0.722896 21.834000 -10.212000 5.680000
-21.095200 0.733223 22.145900 -10.212000 6.920000
-21.391100 0.815491 22.456500 -10.212000 6.680000
10.790800 1.072560 28.146300 -13.497600 6.590000
10.945000 1.087880 28.548400 -13.497600 16.840000
11.095000 1.390830 28.939700 -13.497600 7.770000
19.065200 1.429460 25.519200 -11.721600 10.730000
18.771700 1.714380 27.826800 -12.076800 7.900000
19.010000 1.815210 28.180100 -12.076800 8.310000
-4.179040 2.130520 33.716400 -14.119200 9.250000
19.250700 1.838190 28.536800 -12.076800 6.180000
-3.771050 2.157490 34.197100 -14.119200 6.330000
-17.208700 1.861170 30.308600 -12.254400 7.080000
-18.845700 -0.519050 29.883900 -11.899200 11.040000
-3.617970 2.184460 34.646100 -14.119200 6.850000
19.305500 -0.300510 29.592000 -12.254400 10.270000
-19.075500 -0.525380 30.248300 -11.899200 7.690000
19.310100 -0.082958 30.103600 -12.254400 8.540000
10.917900 -0.082958 34.057400 -13.764000 13.170000
19.542800 0.000000 30.466400 -12.254400 11.380000
11.049400 -0.083957 34.467700 -13.764000 9.720000
9.758100 -0.877802 35.291800 -13.852800 8.430000
10.832400 -0.888129 35.427700 -13.764000 13.470000
-3.890210 1.564750 37.253100 -14.208000 8.110000
-30.663600 0.459756 25.121400 -8.880000 8.430000
-3.934930 1.582730 37.681300 -14.208000 7.860000
-30.995600 0.588679 25.393500 -8.880000 5.790000
-8.712020 1.245150 37.326700 -13.941600 7.970000
-31.328900 0.595009 25.666500 -8.880000 7.980000
-8.809900 1.259140 37.746100 -13.852800 6.470000
-17.076100 -1.394330 35.270900 -12.698400 9.000000
-8.908640 1.151910 38.169100 -13.852800 6.100000
-17.743200 -1.409650 35.422400 -12.698400 9.350000
-9.006540 1.164570 38.588600 -13.852800 5.370000
-17.901000 -2.879050 35.737500 -12.609600 7.580000
-16.822200 -3.159840 36.710400 -12.876000 6.020000
-18.076000 -3.409560 36.086800 -12.609600 7.610000
-16.156400 -2.562020 37.524900 -12.964800 7.710000
-16.107000 -2.588990 38.013700 -12.964800 5.490000
-16.274800 -2.615960 38.409600 -13.053600 9.240000
23.208200 -1.043040 36.801600 -12.343200 5.880000
-7.484020 1.715370 43.713500 -14.030400 8.230000
-7.555740 1.870500 44.132400 -14.030400 8.590000
-15.431600 -1.765330 42.953300 -13.320000 6.560000
-15.577200 -1.781980 43.358600 -13.320000 4.940000
-15.720900 -1.942450 43.758300 -13.320000 10.380000
-7.850480 1.223240 45.854000 -14.030400 13.750000
-15.864300 -2.105550 44.157600 -13.320000 11.960000
-7.923170 1.234560 46.278500 -14.030400 9.880000
-16.009800 -2.124870 44.562700 -13.320000 6.880000
-7.995860 1.245890 46.703100 -14.030400 6.080000
12.994600 1.070380 49.591700 -13.941600 11.440000
13.392600 1.079370 49.931800 -13.941600 7.620000
-2.710860 0.927146 52.060100 -14.208000 8.920000
13.504300 1.088370 50.347900 -13.941600 6.700000
-2.733270 0.934808 52.490400 -14.208000 5.740000
13.320500 1.381800 50.835400 -13.941600 7.000000
-2.347270 1.393130 52.930400 -14.208000 8.780000
-2.366360 1.404460 53.360700 -14.208000 9.510000
34.913300 0.312506 45.988500 -11.721600 8.090000
35.174200 0.134931 46.332300 -11.721600 5.800000
35.434900 0.000000 46.675600 -11.721600 5.750000
15.290900 1.049740 57.008900 -13.941600 9.780000
15.328900 1.134030 61.893100 -14.030400 8.270000
15.432500 1.141690 62.311300 -14.030400 6.470000
15.154300 0.553378 63.274100 -14.030400 8.040000
15.742300 1.367200 63.562100 -14.030400 9.570000
16.054700 0.981132 64.823800 -14.030400 7.480000
16.366700 0.579031 66.083200 -14.030400 8.270000
16.853900 0.794577 66.403000 -14.030400 10.120000
16.054600 1.439160 67.033200 -14.030400 9.220000
16.155000 1.448160 67.452200 -14.030400 7.150000
16.255300 1.457150 67.871100 -14.030400 18.320000
16.356700 1.248960 68.294200 -14.030400 17.470000
16.058600 1.475140 68.803000 -14.030400 7.680000
26.054300 1.825940 83.482400 -13.852800 19.990000
26.184200 1.563120 83.898700 -13.852800 9.190000
26.312600 1.570780 84.309900 -13.852800 10.650000
26.440900 1.578450 84.721200 -13.852800 10.290000
16.235300 1.079430 91.641100 -14.119200 11.160000
16.310500 1.084420 92.065400 -14.119200 10.300000
16.385700 1.089420 92.489600 -14.119200 9.010000
-13.530200 1.693380 94.247600 -14.030400 8.040000
-13.592200 1.405230 94.678800 -14.030400 6.570000
-11.996200 0.930848 108.785000 -14.119200 14.040000
-12.043400 0.934513 109.213000 -14.119200 13.570000
-12.090600 0.938177 109.642000 -14.119200 8.550000
-11.501400 0.941842 110.138000 -14.119200 5.450000
-11.725100 0.960166 112.281000 -14.208000 11.120000
-11.769900 0.963831 112.710000 -14.119200 12.010000
-11.814700 0.967496 113.138000 -14.119200 9.520000
-11.859400 0.971160 113.567000 -14.119200 7.710000
-53.686900 -13.432400 115.393000 -12.698400 8.450000
-53.867700 -13.477600 115.781000 -12.698400 5.960000
23.802500 -7.794090 128.577000 -14.119200 4.730000
22.885800 -7.819730 129.180000 -14.119200 7.430000
15.208700 3.301080 157.373000 -14.296800 11.740000
15.250100 3.310070 157.801000 -14.208000 11.080000
-6.943380 0.681066 6.418120 -9.590400 6.010000
-6.709840 1.276130 7.181330 -10.300800 5.760000
-7.207050 0.712023 6.765600 -9.679200 5.170000
-6.466660 1.154450 7.421020 -10.656000 4.060000
-7.001570 1.331610 7.493570 -10.389600 4.570000
8.054090 0.742981 6.444240 -9.146400 3.940000
-6.672900 1.204640 7.808320 -10.744800 3.850000
8.327780 0.383057 6.822620 -9.324000 5.040000
8.592130 0.398380 7.178630 -9.412800 5.190000
8.994000 0.413702 7.368430 -9.324000 4.530000
-6.585730 0.540876 10.094800 -11.810400 6.190000
-6.740150 0.560193 10.507600 -11.988000 9.570000
-6.889510 0.539568 10.924800 -11.988000 3.750000
-6.550530 1.556000 11.537000 -12.432000 8.980000
-6.669850 1.606190 11.960900 -12.432000 8.050000
-5.793200 1.235050 12.451700 -12.787200 5.510000
-5.977060 1.196970 12.846900 -12.787200 5.200000
7.695650 1.142920 12.414100 -12.254400 4.420000
8.855660 -0.385093 11.664900 -11.632800 5.700000
-6.081570 1.233240 13.271500 -12.876000 5.950000
7.921990 1.176540 12.779300 -12.254400 6.490000
9.023300 -0.396419 12.077900 -11.721600 7.130000
7.372630 -2.235050 13.464200 -12.609600 10.340000
-6.130340 1.466620 15.112300 -13.231200 7.030000
-6.291660 1.505210 15.510000 -13.231200 14.000000
-6.176990 1.419080 16.490900 -13.320000 6.110000
9.528330 0.699469 15.370500 -12.432000 14.610000
-9.860740 1.356040 15.114800 -11.988000 4.520000
-5.735080 1.565240 17.093500 -13.497600 11.910000
-10.095500 1.388320 15.474700 -11.988000 4.510000
-5.868370 1.716660 17.490800 -13.497600 7.910000
-10.332600 1.362130 15.838200 -11.988000 11.710000
-6.149200 1.522910 17.869900 -13.497600 14.690000
-9.797890 1.632230 16.653200 -12.254400 10.260000
-5.508810 1.557530 18.526200 -13.586400 7.610000
-9.879460 1.775380 17.091900 -12.343200 9.360000
-5.522680 1.546310 18.973600 -13.675200 4.690000
-10.627700 1.813970 17.144000 -12.254400 7.260000
-5.642740 1.579920 19.386100 -13.764000 7.160000
-9.185670 1.455000 17.990600 -12.787200 7.370000
-5.761730 1.661360 19.794900 -13.675200 6.350000
-9.381110 1.485960 18.373400 -12.787200 4.160000
11.104300 -1.849860 18.873600 -12.609600 8.130000
9.574680 -0.390780 19.776600 -13.142400 5.340000
11.322000 -1.886140 19.243700 -12.609600 8.870000
10.715400 -2.075960 19.568800 -12.787200 4.260000
11.539700 -1.922410 19.613800 -12.520800 9.690000
10.809000 -2.045550 20.013500 -12.876000 5.740000
8.910050 0.557663 21.487900 -13.497600 10.280000
11.012900 -2.084140 20.391200 -12.876000 6.750000
9.993790 0.622944 21.480300 -13.231200 10.170000
-5.158940 1.361250 23.533100 -13.941600 8.280000
10.175500 0.634270 21.870800 -13.231200 8.150000
-5.251070 1.385560 23.953400 -13.941600 10.340000
10.357200 0.645597 22.261400 -13.231200 9.890000
-10.207700 1.688810 22.275700 -12.964800 10.180000
-4.825420 1.409870 24.481400 -14.030400 11.040000
10.407800 0.656923 22.712500 -13.231200 16.650000
-4.909450 1.355670 24.907700 -14.030400 18.430000
-4.992660 1.378640 25.329900 -14.030400 15.750000
10.215200 1.079140 23.725800 -13.320000 8.260000
10.385500 1.097120 24.121200 -13.320000 5.340000
10.532700 -2.084150 24.463300 -13.320000 5.590000
10.558700 -2.117770 24.919300 -13.408800 7.250000
10.528300 0.151589 25.954000 -13.497600 8.480000
10.690200 0.153921 26.353300 -13.497600 10.600000
11.058100 -0.156253 26.668100 -13.497600 9.870000
10.064000 -0.611644 27.511900 -13.675200 5.510000
10.426800 -0.620639 27.836900 -13.675200 8.910000
18.810000 1.538550 23.529200 -11.544000 9.450000
18.785900 2.065790 25.145300 -11.721600 7.810000
10.787200 1.871610 29.488900 -13.675200 5.440000
19.043200 2.094090 25.489700 -11.721600 10.110000
18.910000 1.746280 26.679900 -11.988000 7.090000
18.949900 1.769260 27.177800 -11.988000 10.810000
18.983300 1.792240 27.677900 -12.165600 7.730000
18.999800 2.130520 28.165000 -12.254400 10.890000
19.243900 2.051080 28.526900 -12.254400 5.500000
-3.967050 2.370250 34.160800 -14.208000 6.110000
19.264800 1.968950 29.038000 -12.254400 10.530000
-4.016630 2.399880 34.587900 -14.208000 10.900000
11.100400 -0.620651 33.084900 -13.764000 6.480000
11.238000 -0.519050 33.495000 -13.764000 8.290000
19.050500 1.907120 30.208600 -12.520800 11.490000
-17.146800 -2.127990 31.314100 -12.343200 13.020000
11.376100 -0.193567 33.906700 -13.764000 8.090000
-17.359500 1.930100 31.702400 -12.432000 6.040000
11.248300 -0.195899 34.402900 -13.764000 6.350000
9.755750 -1.189190 35.283300 -14.030400 10.710000
11.644200 -1.189190 34.705900 -13.764000 10.510000
9.587660 -1.890220 35.745700 -14.030400 6.900000
-30.662300 0.582349 25.120400 -8.880000 12.960000
-30.995600 0.588679 25.393500 -8.880000 9.600000
-31.328900 0.595009 25.666500 -8.880000 8.840000
-16.760000 -1.075990 37.331700 -12.964800 9.120000
11.786800 0.991400 39.639200 -13.852800 12.430000
12.155200 1.022380 40.877900 -13.852800 5.830000
-8.303450 2.329800 44.853800 -14.030400 7.530000
-17.318400 -1.781980 42.692900 -13.142400 8.650000
-7.922490 1.379770 46.274500 -14.119200 6.210000
-15.273000 -1.670130 44.384100 -13.408800 6.490000
-7.994410 1.538950 46.694600 -14.119200 6.980000
-17.212400 -1.685450 44.131100 -13.231200 8.010000
-16.394400 -0.114941 46.762800 -13.408800 8.200000
-2.733690 -0.121938 52.498500 -14.296800 10.190000
-2.756110 0.000000 52.929000 -14.296800 7.560000
-15.940200 -1.223290 56.379600 -13.852800 11.270000
14.961800 0.867194 57.099200 -14.030400 6.640000
-12.971400 -1.232280 57.577400 -13.852800 10.280000
15.071000 0.873524 57.516000 -14.030400 7.110000
34.458300 0.524060 51.080400 -12.254400 6.320000
13.073000 0.955812 63.731900 -14.208000 9.980000
15.744000 0.962142 63.569100 -14.119200 5.600000
-17.965500 6.556610 63.543000 -13.675200 5.900000
-18.082200 6.599180 63.955600 -13.675200 8.510000
16.157500 1.195330 65.238700 -14.119200 8.380000
16.261100 1.202990 65.656900 -14.119200 6.470000
16.365500 1.000120 66.078400 -14.119200 5.640000
16.571800 1.225980 66.911500 -14.119200 7.210000
15.765800 1.233640 67.548500 -14.119200 10.230000
15.863700 1.241300 67.968000 -14.119200 8.340000
15.961600 1.248960 68.387600 -14.119200 9.530000
16.457800 1.038100 68.716600 -14.119200 7.540000
16.352300 1.502130 70.061600 -14.119200 7.480000
16.453200 0.615679 70.494000 -14.119200 11.490000
16.551200 0.619344 70.913600 -14.119200 10.310000
17.059900 1.076080 71.230600 -14.119200 8.620000
16.344700 5.125670 72.550900 -14.119200 9.840000
16.309800 1.373580 92.061600 -14.208000 24.930000
16.384200 1.670390 92.481200 -14.208000 22.500000
16.458300 1.969850 92.899900 -14.208000 14.520000
-12.924800 2.271960 93.885300 -14.208000 8.210000
16.533500 1.978850 93.324100 -14.208000 6.650000
-13.528500 2.282290 94.235400 -14.119200 10.080000
-13.588900 2.514430 94.656300 -14.119200 10.950000
-11.412300 0.000000 109.285000 -14.208000 12.040000
-10.611100 0.000000 109.799000 -14.208000 12.250000
-11.725100 0.960166 112.281000 -14.208000 11.410000
-11.769900 0.963831 112.710000 -14.208000 9.040000
-11.814900 0.615683 113.141000 -14.208000 7.240000
-11.859700 0.618016 113.569000 -14.208000 8.220000
15.206800 4.156740 157.353000 -14.296800 6.750000
15.249100 3.800370 157.791000 -14.296800 11.370000
15.290500 3.810690 158.219000 -14.296800 13.660000
-6.324750 1.306520 7.517480 -10.833600 2.910000
-6.462720 1.363320 7.957590 -10.922400 2.870000
-6.537480 1.553550 10.020800 -11.988000 4.010000
-6.744020 0.367094 10.513600 -11.988000 7.470000
8.506000 1.545510 9.610760 -11.100000 3.070000
-6.292530 0.419712 11.284300 -12.432000 7.610000
-6.892540 0.379752 10.929600 -12.076800 7.120000
-6.467630 1.443110 11.598300 -12.432000 7.620000
-6.713250 0.362440 12.038800 -12.432000 5.660000
-7.014820 0.593525 12.354700 -12.432000 7.750000
-6.854620 0.702040 12.929100 -12.609600 6.990000
-7.325290 0.611511 12.673100 -12.343200 6.920000
7.158590 0.722688 13.254600 -12.698400 5.200000
9.023300 -0.396419 12.077900 -11.899200 8.990000
-6.242740 0.323812 14.197100 -13.053600 4.450000
9.062640 -0.503655 12.579700 -11.988000 9.240000
-6.528420 0.332806 14.541600 -13.053600 8.250000
9.113980 -0.517645 13.071200 -11.988000 5.110000
-6.704400 0.392429 14.933600 -13.053600 9.840000
-6.762970 0.350796 15.380200 -13.053600 7.440000
-5.630280 1.773710 17.563200 -13.675200 6.460000
-9.958130 1.773710 15.524300 -12.165600 11.720000
-5.624180 1.756580 18.020800 -13.675200 6.250000
-6.386360 1.639780 17.776200 -13.408800 5.210000
-10.189700 1.814960 15.885300 -12.165600 10.100000
-5.504450 1.736780 18.511500 -13.764000 5.910000
-6.003390 1.677050 18.361300 -13.586400 6.130000
-5.517300 1.775380 18.955100 -13.764000 6.530000
-6.281280 1.714310 18.721500 -13.586400 5.710000
-5.489300 1.751580 19.415300 -13.764000 4.050000
-5.609000 1.661360 19.838700 -13.764000 5.010000
-10.721500 1.788850 17.596700 -12.343200 5.230000
-10.944900 1.826120 17.963300 -12.343200 6.150000
-5.564480 1.680770 20.746100 -13.852800 8.960000
-5.675770 1.714380 21.161000 -13.852800 7.980000
9.419400 -0.645578 19.844400 -13.231200 9.750000
9.604090 -0.658237 20.233500 -13.231200 10.230000
11.621000 -1.799810 19.073000 -12.520800 8.180000
8.738770 -1.023800 21.074800 -13.320000 7.710000
10.531000 -1.023800 20.238800 -12.964800 9.500000
11.844500 -1.834420 19.439700 -12.520800 8.530000
9.063550 -1.312630 21.390600 -13.497600 7.760000
10.729700 -1.043120 20.620700 -12.964800 11.810000
11.914900 -1.869030 19.899000 -12.609600 5.960000
9.870720 0.494712 21.540400 -13.320000 14.600000
10.928400 -1.062440 21.002600 -12.964800 10.640000
10.048900 0.634270 21.929300 -13.320000 17.890000
-5.388470 1.461390 23.918300 -14.030400 6.560000
10.228300 0.645597 22.320900 -13.320000 16.890000
-10.027000 1.972870 22.334400 -13.053600 8.290000
-5.670420 1.487030 24.295000 -14.030400 6.700000
10.404800 0.888693 22.706000 -13.320000 11.470000
-10.377700 2.007480 22.646900 -12.964800 8.740000
-9.414270 0.904015 23.598500 -13.231200 7.830000
-4.990920 1.538310 25.321000 -14.119200 7.940000
-4.990920 1.538310 25.321000 -14.119200 5.080000
-4.854450 1.589580 26.222900 -14.119200 4.380000
10.680500 -3.112000 24.289400 -13.408800 8.450000
-12.955400 2.475180 23.232800 -12.787200 5.240000
10.337200 -2.932770 24.929600 -13.497600 8.130000
10.174200 -1.011270 26.537900 -13.675200 5.940000
18.921900 1.985090 21.714400 -11.188800 13.690000
10.121500 -0.937358 27.021700 -13.675200 9.840000
19.195700 2.195490 22.028700 -11.188800 12.820000
-20.667700 0.620639 21.364900 -10.212000 10.880000
10.272600 -0.951348 27.425000 -13.675200 7.580000
-20.967200 0.629634 21.674600 -10.212000 9.930000
-9.098430 1.820330 29.152900 -13.675200 15.040000
-9.055530 1.845970 29.616300 -13.764000 9.560000
18.535700 1.845970 24.810400 -11.899200 9.590000
-9.185620 1.604490 30.041800 -13.764000 7.360000
18.793200 1.871610 25.155000 -11.899200 8.900000
-9.311450 1.626470 30.453400 -13.764000 9.550000
-18.037800 2.022650 26.738900 -11.810400 9.240000
-3.918270 2.235580 33.740900 -14.296800 4.340000
10.846700 -0.080959 33.174600 -13.852800 4.710000
-18.154300 0.917427 29.795800 -12.165600 6.260000
-4.483710 2.292180 34.537700 -14.296800 5.990000
10.980600 -0.081958 33.584200 -13.852800 9.630000
11.114200 -0.304175 33.992600 -13.852800 9.290000
9.847210 -0.307839 34.829000 -14.030400 9.000000
12.987300 -1.546760 34.672600 -13.675200 10.190000
11.421600 -2.346270 35.628800 -13.852800 8.490000
10.411200 -2.518570 36.823800 -14.030400 5.270000
-30.329000 0.576019 24.847400 -8.880000 7.950000
-30.660800 0.704937 25.119200 -8.880000 8.460000
-30.748000 0.712599 25.689600 -9.057600 7.930000
-16.693000 -0.464753 36.428400 -12.876000 7.420000
-18.217800 -0.960419 35.680400 -12.609600 8.750000
-18.413600 -0.970746 36.064100 -12.609600 5.380000
-18.609500 -0.981073 36.447700 -12.609600 6.340000
19.368100 -1.215210 36.531900 -12.964800 11.330000
20.970600 -0.991400 35.643100 -12.698400 10.200000
11.906800 1.357070 40.042500 -14.030400 6.490000
19.001300 -1.001730 37.215100 -13.142400 7.220000
19.853800 -1.227860 36.760500 -12.964800 8.100000
12.028200 1.501590 40.451100 -14.030400 9.300000
18.688300 -1.012050 37.854200 -13.231200 7.390000
20.058500 -1.240520 37.139500 -12.964800 6.560000
-7.484020 1.715370 43.713500 -14.208000 7.270000
-8.229680 1.748670 44.455400 -14.119200 8.040000
-16.990300 -2.028290 41.884100 -13.231200 7.150000
-6.684660 1.468990 44.723800 -14.208000 8.110000
-16.334300 -2.047600 42.605600 -13.320000 6.630000
-6.748320 1.482980 45.149800 -14.208000 7.710000
-16.488400 -2.066920 43.007600 -13.320000 9.940000
-7.850480 1.223240 45.854000 -14.208000 9.790000
-15.273000 -1.670130 44.384100 -13.586400 7.840000
-7.923630 1.125650 46.281200 -14.208000 9.450000
-2.286760 3.076610 51.565700 -14.385600 8.380000
-2.304920 3.424120 51.975300 -14.385600 6.150000
-2.323970 3.452420 52.404800 -14.385600 8.040000
12.826900 -2.849200 51.790800 -14.119200 6.450000
12.930400 -2.872170 52.208500 -14.119200 6.090000
12.322800 -2.895150 52.797200 -14.119200 7.090000
14.852600 0.860864 56.682500 -14.119200 9.260000
14.962400 0.684636 57.101600 -14.119200 5.370000
15.432500 1.141690 62.311300 -14.119200 7.120000
15.744000 0.962142 63.569100 -14.119200 5.460000
15.950400 1.180000 64.402300 -14.119200 6.610000
16.054700 0.981132 64.823800 -14.119200 10.170000
16.156500 1.403180 65.234800 -14.119200 11.030000
15.654200 1.195330 65.361300 -14.208000 9.050000
16.363700 1.421170 66.071100 -14.119200 11.080000
15.571800 0.582696 66.717500 -14.119200 19.150000
15.957200 0.582696 66.626400 -14.119200 15.660000
16.055600 1.225980 67.037200 -14.208000 18.160000
16.156800 1.019110 67.459600 -14.208000 19.890000
16.257100 1.025440 67.878600 -14.208000 16.190000
16.357500 1.031770 68.297600 -14.208000 14.080000
16.352300 -1.502130 70.061600 -14.208000 10.900000
16.857400 -1.511120 70.384900 -14.208000 21.990000
16.961400 -0.168914 70.819100 -14.119200 25.450000
16.099400 0.000000 71.462000 -14.208000 24.430000
15.778300 -0.170913 71.974500 -14.208000 18.380000
16.288600 -0.401127 72.301600 -14.208000 10.860000
16.943300 -0.403459 72.593600 -14.119200 8.830000
17.122200 3.380480 73.360000 -14.208000 10.900000
16.235300 1.079430 91.641100 -14.296800 9.830000
15.778000 1.084420 92.158100 -14.296800 8.920000
15.850700 1.089420 92.582800 -14.296800 9.820000
15.922000 1.678060 92.999000 -14.296800 8.260000
-13.469000 1.685720 93.821100 -14.208000 9.400000
-13.530200 1.693380 94.247600 -14.208000 7.920000
-13.590700 1.996840 94.668400 -14.208000 8.510000
-11.367100 -0.930848 108.853000 -14.296800 14.260000
-9.936910 -0.934513 109.425000 -14.296800 13.430000
-9.975880 -0.938177 109.854000 -14.296800 6.780000
-10.859400 0.960166 112.368000 -14.296800 11.750000
-11.769900 0.963831 112.710000 -14.296800 12.480000
-10.942300 0.967496 113.226000 -14.296800 8.870000
-10.983800 0.971160 113.655000 -14.296800 5.710000
-53.849900 -13.872500 115.743000 -12.787200 6.540000
-54.030600 -13.919000 116.131000 -12.787200 7.170000
-53.518600 -14.363000 116.791000 -12.787200 6.740000
-53.697000 -14.410800 117.181000 -12.787200 5.450000
15.166200 3.779710 156.933000 -14.385600 8.820000
15.207700 3.790040 157.362000 -14.385600 6.930000
15.248200 4.168060 157.781000 -14.385600 13.210000
-6.662150 0.405722 10.564300 -12.165600 4.200000
-6.807450 0.419712 10.981300 -12.165600 7.130000
-6.216070 1.525220 11.724700 -12.520800 3.840000
-7.038070 0.000000 11.353400 -12.165600 6.300000
-6.509670 1.574420 12.053100 -12.609600 3.840000
7.926790 1.489660 11.183800 -11.988000 4.260000
-6.754960 0.373767 12.507200 -12.609600 10.320000
8.263150 1.536210 11.470000 -11.899200 6.760000
-6.959660 0.385093 12.886200 -12.609600 11.730000
8.722890 1.492640 11.675800 -11.721600 4.120000
-5.963240 1.627800 13.282700 -13.053600 4.920000
-7.163730 0.443044 13.264100 -12.609600 8.860000
8.663940 -1.722020 12.223800 -12.165600 6.660000
7.551750 0.455702 13.542400 -12.698400 4.270000
9.164510 1.114470 12.466100 -11.988000 9.790000
9.295210 1.145430 12.902600 -12.076800 8.910000
-6.065170 0.430398 15.203400 -13.142400 5.690000
-6.704010 0.430398 14.932700 -13.142400 4.140000
-5.751620 1.453440 15.723200 -13.408800 6.700000
-6.225570 0.350796 15.605500 -13.142400 3.690000
-5.805780 1.490710 16.160100 -13.408800 6.230000
-5.952110 1.487150 16.567400 -13.408800 5.050000
-6.096070 1.565240 16.968200 -13.497600 5.560000
-10.442900 1.559690 15.225900 -11.899200 7.030000
-5.635060 1.602510 17.578100 -13.586400 5.130000
-10.444300 1.595960 15.742800 -12.076800 9.180000
-10.924600 1.595960 15.413400 -11.810400 9.990000
-6.611410 1.488300 17.244900 -13.408800 4.710000
-6.154540 1.303640 17.885400 -13.497600 5.710000
-11.038400 -5.356650 15.015100 -11.899200 10.630000
-6.400040 1.333270 18.255200 -13.497600 7.770000
-5.517300 1.775380 18.955100 -13.764000 5.460000
-5.637240 1.813970 19.367200 -13.852800 4.170000
-9.178880 1.451780 18.959100 -13.053600 6.600000
-5.452410 1.215400 20.808200 -13.852800 8.520000
-5.684050 1.239710 21.191900 -13.852800 9.000000
9.404990 -1.375400 19.814000 -13.231200 8.110000
9.006420 -1.194820 20.482200 -13.320000 10.680000
9.182140 -1.094360 20.881800 -13.320000 11.310000
9.527300 0.557663 21.221400 -13.320000 11.560000
9.870030 0.567990 21.538900 -13.408800 15.290000
-9.353730 1.483270 21.725000 -13.142400 11.280000
10.050200 0.503707 21.932100 -13.408800 15.910000
-9.523800 1.510240 22.120000 -13.142400 11.010000
10.229700 0.512702 22.323700 -13.408800 12.180000
-10.338400 1.613020 22.221000 -12.964800 7.740000
-8.944680 0.521696 23.330900 -13.408800 4.270000
9.711280 0.999242 23.940000 -13.675200 6.350000
-4.851560 1.836950 26.207300 -14.119200 6.580000
-4.929810 1.866570 26.630000 -14.119200 6.240000
18.364500 1.752960 21.074800 -11.277600 5.630000
18.650600 1.692140 21.403100 -11.277600 10.160000
10.327400 -1.011270 26.478700 -13.675200 12.930000
18.936600 1.628640 21.731300 -11.277600 9.730000
-20.666200 0.712569 21.363500 -10.123200 4.500000
-20.965700 0.722896 21.673100 -10.123200 12.970000
-21.266700 0.638628 21.984200 -10.123200 6.460000
-21.566200 0.647623 22.293800 -10.123200 15.930000
-9.718820 1.560530 28.967200 -13.586400 7.260000
-7.446620 1.750180 30.067000 -13.675200 14.500000
-4.179830 2.025440 33.722700 -14.296800 4.620000
19.077500 -0.081958 29.740900 -12.432000 9.120000
-17.885800 2.102350 30.399900 -12.254400 9.340000
19.310100 -0.082958 30.103600 -12.432000 10.460000
19.542800 0.000000 30.466400 -12.432000 10.120000
19.775500 0.000000 30.829100 -12.432000 15.970000
9.010400 -0.198231 35.500300 -13.941600 7.210000
-5.165460 1.817040 37.521800 -14.296800 7.240000
-30.663600 0.459756 25.121400 -8.968800 7.520000
-9.126250 1.515520 38.105000 -14.030400 5.610000
-30.996900 0.464753 25.394500 -8.968800 6.480000
-16.694100 -0.092953 36.430800 -12.876000 9.790000
-18.951000 -1.940930 35.745100 -12.609600 6.850000
18.416900 -0.595009 36.070600 -13.053600 9.640000
20.246600 -1.940930 35.027500 -12.787200 5.220000
-19.152600 -1.961580 36.125400 -12.609600 8.430000
18.608400 -1.075990 36.445600 -13.053600 5.360000
20.677400 -1.982230 35.772800 -12.787200 5.590000
21.499000 -1.982230 35.285200 -12.609600 9.120000
11.788400 0.735587 39.644300 -14.030400 7.150000
11.911200 0.743249 40.057300 -14.030400 6.680000
-17.409400 -0.743249 37.991800 -13.053600 8.800000
11.782900 2.382190 40.481000 -14.030400 6.170000
11.350500 2.406500 41.050900 -14.030400 8.870000
-7.482090 1.989650 43.702200 -14.208000 7.350000
-7.811700 1.732020 44.093500 -14.119200 6.880000
-16.267500 -2.008970 41.708400 -13.320000 4.920000
-7.886810 1.748670 44.517500 -14.119200 7.110000
-16.180200 -2.028290 42.203700 -13.320000 8.660000
-7.960930 1.906470 44.935900 -14.119200 7.440000
-15.429700 -1.906470 42.948000 -13.497600 8.710000
-16.007600 -1.906470 42.736000 -13.320000 9.920000
-15.240700 -1.924460 43.471900 -13.497600 7.610000
-17.316300 -1.924460 42.687600 -13.231200 5.140000
-15.383100 -1.942450 43.878200 -13.497600 11.390000
-7.925050 0.689957 46.289500 -14.119200 8.650000
-15.862000 -2.250660 44.151300 -13.497600 9.390000
-7.997760 0.696287 46.714200 -14.119200 8.600000
13.635000 -2.747410 52.035600 -14.119200 9.660000
35.266700 0.312506 45.718100 -11.810400 7.000000
14.852600 0.860864 56.682500 -14.119200 6.530000
14.961800 0.867194 57.099200 -14.119200 6.870000
15.071000 0.873524 57.516000 -14.119200 7.630000
15.313300 5.403820 60.333400 -14.119200 8.290000
15.422000 5.295690 60.761500 -14.119200 8.790000
15.579500 1.322230 61.382200 -14.119200 6.560000
15.687200 0.936822 61.806600 -14.119200 6.570000
15.793200 0.943152 62.224200 -14.119200 7.090000
15.744000 0.962142 63.569100 -14.208000 9.420000
15.354600 0.764593 64.110200 -14.208000 11.790000
15.553900 1.187670 64.942300 -14.119200 9.950000
15.653300 1.403180 65.357400 -14.119200 7.610000
15.753600 1.412180 65.776300 -14.208000 6.730000
15.854000 1.421170 66.195300 -14.208000 12.580000
15.957200 0.582696 66.626400 -14.119200 11.670000
15.669300 0.799575 67.135000 -14.208000 16.640000
15.767200 0.804572 67.554600 -14.208000 19.760000
15.865100 0.809569 67.974200 -14.208000 18.320000
15.963100 0.814567 68.393800 -14.208000 12.790000
16.458500 0.819564 68.719400 -14.208000 16.810000
16.040200 19.334500 66.972700 -14.208000 14.270000
13.398000 19.451000 67.973800 -14.296800 12.670000
13.587100 1.063420 71.096700 -14.296800 8.960000
16.959600 1.069750 70.811600 -14.208000 8.890000
17.133500 1.982100 73.408500 -14.208000 9.800000
17.231400 1.993420 73.828000 -14.208000 8.810000
16.235300 1.079430 91.641100 -14.296800 10.120000
16.309800 1.373580 92.061600 -14.296800 14.300000
15.849300 1.670390 92.574400 -14.296800 11.200000
-13.530900 1.398900 94.252300 -14.208000 10.300000
-13.592700 1.109410 94.682700 -14.208000 10.540000
-11.760000 -0.912524 106.644000 -14.296800 5.810000
-11.188100 -0.916189 107.139000 -14.296800 6.390000
-11.854500 0.919854 107.500000 -14.296800 7.750000
-11.901700 0.923518 107.929000 -14.296800 11.250000
-11.948900 0.927183 108.357000 -14.296800 10.060000
-10.859600 -0.611019 112.371000 -14.296800 6.790000
-10.901300 0.000000 112.801000 -14.296800 6.230000
-10.942700 0.000000 113.230000 -14.296800 8.710000
-11.859800 -0.264865 113.571000 -14.296800 9.270000
15.167300 3.292080 156.944000 -14.385600 9.910000
15.208700 3.301080 157.373000 -14.385600 9.270000
15.251100 2.819750 157.811000 -14.385600 6.120000
-6.540070 1.516540 10.024800 -11.988000 5.270000
-6.499140 0.367094 10.666700 -12.165600 5.320000
-6.745460 -0.260848 10.515900 -11.988000 5.820000
-6.894010 -0.269843 10.931900 -11.988000 6.520000
-6.859270 0.392410 11.455600 -12.254400 6.520000
-7.124240 0.237533 11.297000 -11.988000 5.580000
-6.806230 0.330467 11.987400 -12.432000 7.190000
-6.825900 0.461684 12.465700 -12.520800 11.230000
-7.034030 0.385093 12.845800 -12.520800 11.060000
8.492390 -1.886450 11.788200 -12.076800 5.250000
8.757100 0.747295 11.721600 -11.899200 7.000000
-7.240910 0.396419 13.223600 -12.520800 6.820000
8.804070 0.769274 12.220800 -12.076800 7.850000
9.014670 0.769274 12.066300 -11.899200 8.800000
9.055620 0.791253 12.570000 -12.076800 8.430000
9.272230 0.791253 12.411100 -11.899200 7.180000
-6.469630 0.683453 15.026400 -13.142400 7.550000
-6.640710 0.649507 15.423700 -13.142400 5.890000
8.848900 0.612892 14.778400 -12.698400 5.300000
8.953100 0.628214 15.217300 -12.787200 7.950000
-5.736220 1.523420 17.096900 -13.586400 9.360000
9.051050 0.643536 15.658700 -12.787200 6.880000
9.619460 1.523420 15.253700 -12.609600 5.170000
-5.878490 1.331170 17.521000 -13.586400 10.600000
-10.100000 1.274010 15.481600 -12.076800 5.910000
-5.879340 1.245140 17.981900 -13.675200 8.630000
-6.871510 1.362130 17.618000 -13.408800 7.060000
0.483841 1.677050 19.311800 0.888000 7.030000
-5.906560 1.273430 18.425000 -13.675200 6.380000
0.494593 1.714310 19.740900 0.888000 17.300000
0.505064 1.876350 20.158900 0.888000 20.770000
0.633820 2.234490 20.552400 0.888000 19.920000
0.813382 0.310164 21.096100 0.888000 15.100000
-9.425580 1.695970 18.817200 -13.053600 10.280000
1.119390 0.899280 21.497100 0.888000 8.530000
-6.290760 1.148870 20.574100 -13.764000 5.730000
9.384380 -0.632920 19.383500 -13.320000 7.800000
-9.617940 1.730580 19.201200 -13.053600 8.990000
0.845935 0.917266 21.940400 0.976800 6.450000
-5.970370 1.171850 21.116900 -13.852800 8.610000
9.724160 -0.645578 19.696800 -13.231200 9.340000
-6.086400 1.264020 21.527300 -13.852800 8.640000
8.740400 -0.398443 20.627900 -13.408800 9.030000
-6.066540 1.834420 21.940700 -13.852800 4.870000
9.191250 -0.406105 20.902500 -13.497600 8.770000
9.792870 0.123603 20.631200 -13.320000 8.330000
10.469800 -2.660260 20.121300 -13.053600 7.300000
1.651280 2.012460 23.122500 0.888000 4.870000
-5.878930 1.869030 22.436000 -13.941600 5.320000
9.527300 0.557663 21.221400 -13.408800 8.520000
10.509100 -2.710450 20.582500 -13.142400 9.520000
0.136482 2.049720 23.610300 0.888000 9.290000
9.870030 0.567990 21.538900 -13.408800 14.710000
-9.519000 1.556420 21.647900 -13.142400 9.170000
0.138963 2.086990 24.039600 0.888000 12.280000
10.049500 0.578317 21.930600 -13.408800 16.930000
-9.861670 1.584720 21.966200 -13.142400 10.130000
10.229700 0.512702 22.323700 -13.408800 14.710000
-10.033500 1.764580 22.348900 -13.053600 9.560000
10.541800 0.289846 22.658200 -13.408800 6.390000
-10.213900 1.641310 22.750700 -13.053600 6.580000
-4.916440 2.212580 25.726000 -14.119200 5.830000
-5.148100 2.248860 26.118500 -14.119200 6.990000
9.980310 2.968340 24.603200 -13.586400 7.740000
-5.437260 2.180540 26.507100 -14.119200 7.120000
-5.680180 2.151380 26.900400 -14.119200 6.950000
18.360900 1.839400 21.070600 -11.277600 5.310000
-4.712050 2.185000 27.522700 -14.208000 11.440000
10.016300 -1.255610 26.126100 -13.764000 5.460000
12.194300 -1.169060 25.187500 -13.586400 7.250000
18.647100 1.779930 21.399000 -11.277600 5.790000
10.171800 -1.187050 26.531600 -13.764000 13.070000
10.883700 -1.187050 26.247600 -13.586400 8.860000
18.925800 1.896000 21.718900 -11.277600 7.920000
10.325900 -1.205040 26.933600 -13.764000 10.190000
9.625550 6.934030 26.792300 -13.852800 6.480000
10.703900 7.036000 26.831300 -13.764000 5.380000
-20.968400 0.536365 21.675900 -10.212000 12.350000
-21.268000 0.544028 21.985500 -10.212000 3.620000
-21.567500 0.551690 22.295200 -10.212000 7.520000
18.782200 2.130520 28.310600 -12.432000 9.890000
19.019900 2.157490 28.668900 -12.432000 13.580000
19.033400 2.184460 29.174800 -12.432000 11.900000
19.077500 0.081958 29.740900 -12.520800 4.820000
19.310100 0.082958 30.103600 -12.520800 5.710000
9.632340 1.930100 34.837000 -14.119200 9.440000
19.542800 0.000000 30.466400 -12.520800 6.770000
-18.692700 -7.172530 30.153900 -0.621600 6.600000
-17.813200 -1.757850 34.888000 -12.787200 6.510000
-16.201300 -2.603460 36.087300 -13.053600 7.870000
-18.285000 -1.532170 35.140600 -12.698400 6.280000
-16.377400 -2.631760 36.479500 -13.053600 5.800000
-15.626100 -1.301110 36.878600 -12.787200 11.200000
-18.756900 -1.548830 35.379100 -12.609600 5.900000
-16.278100 -2.284960 37.019300 -13.053600 7.120000
19.984100 -1.565480 35.196700 -12.876000 11.350000
-16.162400 -2.309260 37.538800 -13.142400 6.210000
20.470300 -1.582130 35.414400 -12.876000 8.080000
20.685700 -1.598790 35.787200 -12.787200 5.420000
11.671100 1.744600 40.096800 -14.030400 6.710000
19.003800 -0.743249 37.219900 -13.142400 8.130000
11.796600 1.240520 40.528000 -14.030400 6.260000
19.199700 -0.750911 37.603600 -13.142400 9.580000
11.918000 1.121300 40.945100 -14.030400 7.110000
-17.896000 -3.361530 39.053600 -13.053600 6.970000
22.699900 -0.766236 36.618000 -12.609600 8.990000
-17.770400 -3.395150 39.582300 -13.053600 8.410000
23.212400 -0.639318 36.808200 -12.520800 9.700000
-18.253900 -3.428760 39.834700 -13.053600 9.400000
23.728000 -0.645648 36.990900 -12.520800 9.040000
-7.145040 1.989650 43.758600 -14.208000 6.480000
-7.554730 2.008970 44.126500 -14.208000 8.460000
-7.628400 1.888490 44.556800 -14.208000 8.820000
-16.756000 -1.468990 42.001700 -13.320000 7.560000
-9.680000 1.888490 44.156500 -14.208000 7.500000
-6.746840 1.765330 45.139800 -14.208000 9.520000
-16.915500 -1.482980 42.401700 -13.320000 5.440000
-6.812640 1.354450 45.580100 -14.296800 4.590000
-16.744700 -1.496970 42.932100 -13.320000 7.950000
-8.115880 1.115330 45.810500 -14.208000 6.820000
-8.191030 1.125650 46.234600 -14.208000 6.910000
-8.266170 1.135980 46.658800 -14.208000 5.950000
-8.069020 1.146310 47.130400 -14.208000 5.890000
-17.258900 -2.163510 45.017300 -13.408800 7.330000
12.323700 1.228920 49.759000 -14.208000 10.970000
13.391700 1.239250 49.928400 -14.119200 11.540000
13.213000 1.088370 50.425200 -14.208000 11.370000
-14.855500 -1.370480 49.959000 -13.764000 11.140000
-2.733660 0.284520 52.497900 -14.474400 6.140000
-15.656300 -1.381800 50.165300 -13.675200 5.590000
-2.756070 0.286852 52.928200 -14.474400 9.250000
-15.776300 -2.212230 50.549900 -13.675200 10.310000
-2.367140 0.289185 53.378400 -14.474400 8.280000
13.524300 -2.849200 51.613100 -14.119200 6.300000
-15.215800 -2.230220 51.170700 -13.764000 7.990000
13.931500 -3.038500 51.940800 -14.119200 9.510000
-14.339800 -2.414630 51.862400 -13.852800 5.490000
-14.454600 -2.433940 52.277300 -13.852800 8.040000
35.004000 0.000000 45.377500 -11.810400 5.210000
14.853200 0.679639 56.684800 -14.208000 7.250000
14.962900 0.502072 57.103300 -14.208000 7.150000
15.071600 0.689633 57.518400 -14.208000 8.220000
15.200800 3.768850 61.375700 -14.208000 9.860000
15.328900 1.134030 61.893100 -14.208000 7.730000
15.536900 0.949482 62.732700 -14.208000 7.260000
15.254700 0.557043 63.693100 -14.208000 8.450000
15.355100 0.560708 64.112200 -14.208000 6.130000
16.367200 0.000000 66.085500 -14.208000 6.690000
15.668600 1.012780 67.132300 -14.208000 5.870000
15.767200 0.804572 67.554600 -14.208000 6.590000
16.257800 0.809569 67.881400 -14.208000 6.490000
16.061500 0.601020 68.815500 -14.208000 6.950000
16.747400 -0.398795 71.754300 -14.296800 12.370000
17.335300 0.000000 74.273100 -14.296800 8.850000
25.576000 0.743945 83.646800 -14.030400 16.970000
25.701900 0.747610 84.058900 -14.030400 20.980000
25.827900 0.751275 84.470900 -14.030400 15.540000
26.444700 0.480420 84.733400 -14.030400 15.890000
16.310500 1.084420 92.065400 -14.385600 18.970000
15.850700 1.089420 92.582800 -14.385600 11.260000
15.923500 1.094420 93.007500 -14.296800 10.180000
15.996200 1.099420 93.432200 -14.296800 18.190000
-13.531500 1.104410 94.256200 -14.296800 24.740000
-13.592700 1.109410 94.682700 -14.296800 26.110000
-13.091700 0.246874 105.624000 -14.385600 14.810000
-13.144700 0.247874 106.051000 -14.385600 10.770000
-13.197300 0.912524 106.475000 -14.385600 11.250000
-13.250600 0.583034 106.905000 -14.385600 9.940000
-13.303800 0.250872 107.334000 -14.385600 8.060000
-11.902100 0.251871 107.932000 -14.385600 12.930000
-11.949200 0.590030 108.359000 -14.385600 8.490000
-11.996200 0.930848 108.785000 -14.385600 9.250000
-12.674500 0.934513 109.142000 -14.385600 8.560000
-12.723800 1.279320 109.567000 -14.385600 7.150000
-11.725400 0.611019 112.284000 -14.385600 11.080000
-11.770200 0.613351 112.712000 -14.385600 6.530000
-11.814900 0.615683 113.141000 -14.385600 10.070000
-11.859700 0.618016 113.569000 -14.385600 12.140000
15.208700 3.301080 157.373000 -14.474400 11.960000
15.250100 3.310070 157.801000 -14.474400 9.060000
