VERSION .7
FIELDS x y z velocity SNR
SIZE 4 4 4 4 4
TYPE F F F F F
COUNT 1 1 1 1 1
WIDTH 209
HEIGHT 1
VIEWPOINT 0 0 0 1 0 0 0
POINTS 209
DATA ascii
2.85756443957458 6.9542123874275 -0.467441961832624 -3.403723560418 5.6089075932908
2.86273747924049 6.96680157562816 -0.116860490458155 -3.24900885312627 5.58375951766245
2.91438473629299 7.26490384145197 -0.547783549022606 -3.403723560418 5.52331561089148
-7.74517298166889 3.40863181764224 0.460138181178988 3.71315297500145 17.080963484183
-5.92320619362023 5.94422738279919 -1.18321246588883 3.71315297500145 17.080963484183
5.36271656311909 6.50609183679535 0.854542336475264 3.71315297500145 17.080963484183
6.98538542203968 4.55376811592035 -1.51188259530239 3.71315297500145 17.080963484183
-7.75568164018723 3.41325665273257 0.131468051765425 3.86786768229318 17.0061577984686
6.9534063313595 4.53292096795109 -1.70908467295053 3.86786768229318 17.0061577984686
-2.53718255712157 8.22544495404985 -1.77238410528203 3.71315297500145 134.540548782704
-2.53718255712157 8.22544495404985 -1.77238410528203 3.86786768229318 98.0778401629019
-2.54123693036038 8.2385890708598 -1.70421548584811 4.02258238958491 6.12056469063908
4.65922181956117 7.20602053732083 3.03593815836084 -3.403723560418 5.52039257413816
-2.63199539215897 8.53282439481908 -1.7650803246284 3.71315297500145 651.927827383161
-2.63199539215897 8.53282439481908 -1.7650803246284 3.86786768229318 396.32416351694
-2.63199539215897 8.53282439481908 -1.7650803246284 4.02258238958491 25.8587356294263
5.02123097031895 7.92503691142098 -0.803415871899821 -4.02258238958491 22.9608149482891
-2.72692095528487 8.8405692955684 -1.75290735687234 3.71315297500145 502.077718876267
-2.72692095528487 8.8405692955684 -1.75290735687234 3.86786768229318 304.38593626165
-2.72692095528487 8.8405692955684 -1.75290735687234 4.02258238958491 18.4359653195797
6.06600251455812 7.51128104869752 1.20755840140094 -3.55843826770973 8.12485935840166
-3.68716881948571 8.56041909149379 -2.79247880323968 3.55843826770973 41.7598569716451
-8.81073593618369 3.6721665363138 -1.88681000218897 3.86786768229318 29.5131763201127
-2.81351231575614 9.12129504273764 -1.88681000218897 3.86786768229318 29.5131763201127
-3.84891643343617 8.93594498419167 -2.49302379644066 3.55843826770973 34.4125829391318
-3.75744577836364 8.93004466617602 -2.6488377837182 3.71315297500145 24.0616373286674
-3.02040477825688 9.51672060976063 -1.09069791094279 3.86786768229318 8.95385045181101
-3.8841601578496 9.45255137920577 -1.68717333098963 3.71315297500145 6.4591422972892
-3.52907370164256 9.47465462113947 -2.2495644413195 3.71315297500145 6.4591422972892
-2.37489514935178 9.92571133978577 1.76751491817961 3.86786768229318 5.51008008015096
-3.20486217741673 12.5077235526439 2.65857615792305 4.48672651146009 8.82944618543721
4.05440223546314 12.4226588767013 1.73829979556507 4.48672651146009 8.82944618543721
4.46857234184854 12.3069758517987 1.5337939372633 4.48672651146009 8.82944618543721
4.15512717046594 12.7312793428635 1.67500036323357 4.17729709687663 15.3496954350401
4.2889592071289 12.7862044293819 0.52343761351049 4.33201180416836 25.6099084099647
4.29102619022404 12.7923664997421 0.314062568106295 4.48672651146009 23.789308892464
4.59237327475551 12.6479382386996 1.04687522702098 4.48672651146009 23.789308892464
4.57496692141637 12.5999990863653 1.57031284053147 4.64144121875182 6.98147902260617
4.16252770293107 13.1153325754058 1.1783432787864 4.17729709687663 21.7757827207606
4.38724775445599 13.079221312616 -0.642732697519857 4.33201180416836 60.2448416797681
4.7830418967028 12.5228579610032 3.3207856038526 4.33201180416836 60.2448416797681
4.41247527290763 12.4718748776795 3.96351830137245 4.48672651146009 17.9799474566002
4.0045240344787 13.3662906305291 2.19113419609042 4.17729709687663 14.3902226933983
4.66964126115418 12.8607433965842 3.50581471374468 4.17729709687663 14.3902226933983
4.60646811534284 13.0201962411719 2.95803116472207 4.33201180416836 59.8347210558218
4.6215164100069 13.0627302921444 2.73891774511303 4.48672651146009 19.2861162460362
4.78714795784625 13.5308883695692 1.56787824698026 4.17729709687663 21.2549440448746
4.75131032296012 13.4295931847653 2.35181737047039 4.33201180416836 33.7384217615198
5.03900219560188 13.5284240213714 -0.223982606711465 4.48672651146009 20.3314421209901
5.59686932366183 13.3016671428368 -0.447965213422931 4.48672651146009 20.3314421209901
4.52705716202276 13.870870124141 2.17409204123194 4.17729709687663 11.1002576983729
4.89121639171247 13.8250381167337 1.60196255669722 4.17729709687663 11.1002576983729
5.12603924602144 13.0931583116155 4.46260997937083 4.17729709687663 11.1002576983729
4.10692155437966 14.1225290762892 1.14425896906944 4.33201180416836 16.285392389975
4.54595021789787 13.9287583095366 1.71638845360416 4.33201180416836 16.285392389975
4.96218599699076 12.991889211598 4.9203135669986 4.33201180416836 16.285392389975
5.57467010693629 13.2489078992957 3.31835101030138 4.33201180416836 16.285392389975
5.14358592055123 13.8092044064413 -0.686555381441665 4.48672651146009 7.55556494499919
5.31577947485822 12.9365619759726 4.69146177318472 4.48672651146009 7.55556494499919
4.32331782579176 14.4303597756287 -0.233720980916311 4.33201180416836 10.2093053860354
5.47589540583955 13.9867765355391 1.16860490458156 4.33201180416836 10.2093053860354
4.41272290577208 14.7287758352088 -0.357885252028103 4.33201180416836 8.24477059636608
5.58252771595529 14.2591415429983 1.43154100811241 4.33201180416836 8.24477059636608
-2.10162897513384 15.7988415646943 1.48997125334149 4.17729709687663 8.94462713538464
4.71696469464219 15.2922119604958 -0.372492813335373 4.17729709687663 8.94462713538464
5.81813886870452 14.8609500690103 1.24164271111791 4.17729709687663 8.94462713538464
-1.97650258152899 15.8027927128443 1.61413552445328 4.33201180416836 6.73409384157215
4.96642143466517 15.2170790508 0.12416427111179 4.33201180416836 6.73409384157215
5.46306357813169 15.0459221401112 -0.12416427111179 4.33201180416836 6.73409384157215
5.83414054337324 14.9018222608982 -0.372492813335373 4.33201180416836 6.73409384157215
4.68288961428874 15.6305376210379 0.379796593989008 4.17729709687663 23.8817226373746
4.68288961428874 15.6305376210379 -0.379796593989008 4.33201180416836 15.190974878431
5.92431512713623 15.1321502088961 1.51918637595603 4.33201180416836 15.190974878431
4.77294518379429 15.9311248829809 0.387100374642642 4.17729709687663 20.365607731708
5.15574569814118 15.7971672131618 0.774200749285282 4.17729709687663 20.365607731708
5.67593481316078 15.6321946559461 0.387100374642642 4.17729709687663 20.365607731708
4.7650373010253 15.9047299710133 -1.03226766571371 4.33201180416836 20.0544300759033
5.29021263604285 15.7711316365314 -0.129033458214213 4.33201180416836 20.0544300759033
13.9479569445962 13.3908480701573 -4.1412436306109 -2.63015002395936 5.79670898715862
5.04919155145207 20.3823566603646 1.14182437551823 3.71315297500145 11.563239426988
5.87064955803765 20.1874854394715 -0.489353303793529 3.71315297500145 11.563239426988
5.05284643970887 20.3971105541801 0.81558883965588 3.86786768229318 6.23520266373673
5.87206299039823 20.1923458292659 -0.163117767931175 3.86786768229318 6.23520266373673
5.62725612694156 20.5821657902064 -0.496657084447164 3.71315297500145 10.7034969633329
15.4466161298347 14.4987819892556 -6.91424568544089 -1.08300295104209 7.17705591109013
3.34194901418231 21.2817363122168 5.70425269048873 3.55843826770973 5.02944679554277
5.73408316158359 21.6551945487448 2.97994250668297 3.71315297500145 8.09891938456584
10.3588226320687 18.8856158215556 6.83633869180212 3.71315297500145 8.09891938456584
3.85773729963294 22.2751061394078 3.73223191400735 3.55843826770973 19.2204088857127
6.00692681060384 21.9708434655312 2.48815460933824 3.71315297500145 13.7096368792812
3.89993397362161 22.518755542885 4.14367822416211 3.403723560418 19.014420199499
3.89423448702085 22.4858459227862 4.32383814695176 3.55843826770973 30.7571841177521
3.67235529025501 22.2440095436992 5.58495760647937 3.71315297500145 6.04084005782792
4.10654134313509 22.6491435456952 4.93005194120345 3.55843826770973 17.5608116080878
13.0078738387776 20.1181677239694 -3.18688295853596 -2.01129119479245 5.9728084835519
4.27270959309869 28.6753330483046 3.39625800394016 3.24900885312627 19.946285611019
5.42599689111267 28.63759637583 1.58492040183874 3.24900885312627 19.946285611019
4.27270959309869 28.6753330483046 3.39625800394016 3.403723560418 37.1960149378016
5.19489079244226 28.651806333066 2.03775480236409 3.403723560418 37.1960149378016
4.26866843617053 28.6482117290831 3.62267520420283 3.55843826770973 11.2603386387817
5.19190614941968 28.6353448871428 2.26417200262677 3.55843826770973 11.2603386387817
5.87550239361508 28.5352916375725 1.81133760210142 3.55843826770973 11.2603386387817
4.31456809677451 28.9562570164926 3.66162870102222 3.24900885312627 38.5839467395444
5.47904330423083 28.9175673744407 2.059666144325 3.24900885312627 38.5839467395444
4.31456809677451 28.9562570164926 3.66162870102222 3.403723560418 100.759979286225
5.48185831265327 28.9324245659604 1.83081435051111 3.403723560418 100.759979286225
4.31456809677451 28.9562570164926 3.66162870102222 3.55843826770973 24.0136590463485
4.35139893344913 29.203438924151 4.1631549725718 3.24900885312627 10.3196878981902
5.29649286120813 29.2121805379585 2.7754366483812 3.24900885312627 10.3196878981902
4.35606906845891 29.2347814888322 3.9318685852067 3.403723560418 30.1699629102507
5.53414961228465 29.208410189038 2.312863873651 3.403723560418 30.1699629102507
4.55787957956403 29.0248567358388 5.0883005220322 3.55843826770973 7.2668351295298
15.6497616668846 32.4521352699471 -9.85036550820205 4.79615592604354 16.3923627670079
15.7460270891541 32.6517561058298 -10.2252929150886 4.79615592604354 35.1343405644334
-10.7166284920845 36.8514215514674 4.19237009518634 3.403723560418 5.15112631004192
-8.98121760744566 37.5363828064741 0.898365020397075 3.403723560418 5.15112631004192
-11.738222598688 36.9849053779344 3.01889600350236 4.64144121875182 5.77573757952011
-7.84912960910614 38.120519317692 -0 4.64144121875182 5.77573757952011
-3.71046473910886 36.6094117483518 -12.6793632147099 4.64144121875182 5.77573757952011
-2.10245617741073 38.6647164452037 3.92456480455306 4.64144121875182 5.77573757952011
0.301853271620594 38.9143567844862 0.60377920070047 4.64144121875182 5.77573757952011
14.3922849451745 35.876720353149 -4.52834400525354 4.64144121875182 5.77573757952011
14.3028068277735 36.5328677968747 0.304324193901447 4.48672651146009 7.42656176032741
14.2924760872843 36.5064805582664 1.52162096950724 4.64144121875182 36.3980783342753
14.2877386681978 36.4943800309175 1.82594516340868 4.79615592604354 13.3834156563335
14.4172292823957 36.8251307392497 -0.306758787452658 4.48672651146009 16.3141588928804
14.4068158959826 36.7985324027325 1.5337939372633 4.64144121875182 90.1979950186338
14.4020405775434 36.7863350711649 1.84055272471595 4.79615592604354 33.5511077161794
14.2190442446335 37.2279974255531 0.927580143011615 4.48672651146009 5.5726963406243
-10.1800066474747 49.440786352805 -8.33361372579724 4.02258238958491 6.30106228773715
15.4236308509611 47.2578924275797 17.5875038139525 3.86786768229318 16.7573963900471
-21.6717511047957 48.05566214841 1.22703514981064 4.02258238958491 17.6388456799878
15.0829390662758 47.5234703974445 18.1036376468093 3.71315297500145 5.21470448396926
16.4573573031062 50.4252227369647 -0.411446310154756 3.86786768229318 48.8561919922638
16.4573573031062 50.4252227369647 -0.411446310154756 4.02258238958491 52.674140835062
16.1413552445328 50.8583383362825 -0 3.86786768229318 26.0384920906421
16.1413552445328 50.8583383362825 -0 4.02258238958491 28.0993960114428
13.4686694252737 52.5646297617264 8.52107742924053 3.86786768229318 9.25924751470308
16.1588465333086 52.3863378721394 3.40843097169622 3.86786768229318 9.25924751470308
16.2428375969396 52.6586335603584 3.85639618511915 3.86786768229318 6.09698151413467
5.53414961228465 59.1980180316693 4.625727747302 3.09429414583454 6.63148457424005
13.3712958654238 62.4305845500078 7.98546684797398 3.71315297500145 5.3340215002338
13.4229674009798 62.6718389655724 8.52594661634295 3.55843826770973 8.11544127639576
16.5324336113037 62.4359738302288 3.00915762929751 3.55843826770973 8.11544127639576
13.4492420808234 62.7945154539256 7.52289407324379 3.71315297500145 8.82183826120407
16.0367663604048 62.5872281584235 2.50763135774793 3.71315297500145 8.82183826120407
13.4336121321866 65.2424276695974 5.70425269048873 3.55843826770973 6.13263986695586
16.0736867137967 64.8855588283932 1.03713685281613 3.55843826770973 6.13263986695586
0.874565659270803 7.46566596412045 -2.25199903487071 1.0382171147208 10.2067961521411
1.18388056901472 7.53902408086051 -1.82594516340869 1.0382171147208 10.2067961521411
2.00121524179379 7.55773925381812 0.669513226583185 1.45350396060912 5.56080723040647
5.40828298194816 6.42805722230963 1.11747844000612 1.66114738355328 6.53132959544653
4.63197863322373 7.46091049144762 -0.340843097169621 0.830573691776641 26.3947864081727
-7.90608435915313 3.65888561007985 -1.15886653037671 1.5573256720812 144.058986784882
-6.01871904559038 6.17310748853166 -1.70421548584811 1.5573256720812 144.058986784882
-7.9350765405502 3.67230300742848 -0.886192052641014 1.66114738355328 71.7341405632759
-6.00911658265636 6.16325870918222 -1.77238410528203 1.66114738355328 71.7341405632759
-2.54996369148988 8.51126263802973 -1.9768899635838 1.45350396060912 100.797824414813
-2.54996369148988 8.51126263802973 -1.9768899635838 1.5573256720812 1110.27558900815
-2.55438774561388 8.52602923517774 -1.90628675059867 1.66114738355328 607.967305836849
-2.64247008166954 8.82003024328731 -1.97202077648138 1.45350396060912 208.264767917684
-2.64247008166954 8.82003024328731 -1.97202077648138 1.5573256720812 2392.51958474446
-2.64247008166954 8.82003024328731 -1.97202077648138 1.66114738355328 1329.63876270791
4.3482143813977 8.26951236111166 -2.71700640315212 0.62293026883248 5.44180508100575
-2.72582325642021 9.09824626823868 -2.11322720245165 1.45350396060912 79.0903502562792
-2.73055241772519 9.11403125139689 -2.03775480236409 1.5573256720812 725.114121769133
-2.73510187313764 9.12921641266198 -1.96228240227653 1.66114738355328 385.74409951704
4.66752420740875 8.8767815345267 0.545348955471394 0.62293026883248 6.00465300166965
5.45026442356288 8.26059428858173 1.71395386005295 0.62293026883248 6.00465300166965
-3.87841635089607 9.00443429644844 -2.18139582188558 1.45350396060912 21.1161371934996
-3.88514520115737 9.02005652072421 -2.1034888282468 1.5573256720812 48.0195544040435
-2.94328903733354 9.27374358685787 -2.49302379644066 1.5573256720812 48.0195544040435
-2.93080770712364 9.234417290826 -2.6488377837182 1.66114738355328 13.2887910150424
-1.83692886754565 10.1313641158937 -1.12478222065975 -0.31146513441624 5.98450421262003
-0.679659065799412 9.71213720905345 -3.53502983635921 0.830573691776641 6.82554626698951
-0.378705221786992 9.75734046824221 -3.45468824916923 0.830573691776641 6.82554626698951
6.01648105173281 8.07939624862581 -2.41024761569947 0.830573691776641 6.82554626698951
-4.01964450544786 9.33232060967947 -2.00853967974955 1.45350396060912 7.43020477627882
-4.01964450544786 9.33232060967947 -2.00853967974955 1.5573256720812 13.5857329537332
-3.07384579828366 9.68510309291539 -2.00853967974955 1.5573256720812 13.5857329537332
-2.63326584430361 9.94472569546951 -1.20512380784973 1.5573256720812 13.5857329537332
-2.72494972843395 9.96673437558426 -0.72307428470984 1.66114738355328 5.51665064174761
-2.3892013173265 9.98550298731775 -1.3658069822297 1.66114738355328 5.51665064174761
5.19361800949191 8.71480667099636 -3.31104722964775 0.62293026883248 6.58068241569986
5.78974933148313 8.95451090425579 -2.64153400306457 0.726751980304561 28.2647429076451
6.06334331631029 9.18979617794044 -2.54171566746489 0.830573691776641 10.915974413995
-0.732724473853219 13.474993827879 -0.209375045404195 0.31146513441624 12.0103496308714
2.73239634187722 12.7575593691563 3.45468824916923 0.31146513441624 12.0103496308714
5.12829959319458 12.4803080775818 -0.314062568106295 0.31146513441624 12.0103496308714
6.2326907556989 11.8534434428394 1.67500036323357 0.31146513441624 12.0103496308714
13.0604668453225 6.33402070591063 -2.63179562885972 -3.32229476710656 10.7323842993797
13.3383491186272 6.46878710390872 -2.68779128053758 -3.32229476710656 5.7696108103429
14.286410068951 11.9172582299593 -2.9215122614539 1.45350396060912 6.04109718780767
6.22113609881602 21.3927084507832 -0.518568426408068 0 7.56609683433165
-8.51976667330374 19.7801556847063 -7.8199144864916 -0.20764342294416 7.8258041399272
5.8302524926449 22.0183852306847 -2.48815460933824 -0.20764342294416 7.8258041399272
5.83947428038919 22.0532120028228 -2.13270395086134 -0.10382171147208 7.24873332453254
6.31426185169634 21.0757279268079 -6.39811185258403 0 5.88155371091894
16.0917137998503 17.9714972318168 -4.17776253387907 1.45350396060912 13.8392245200884
16.0692611148979 17.9464216947741 -4.36766083087357 1.5573256720812 16.3954785882125
16.2514920791275 18.1499403075172 -4.61598937309715 1.45350396060912 14.0086680789511
16.2752772830376 18.1765040241943 -4.42365648255144 1.5573256720812 16.2981172834954
16.2034111778726 22.2026737652031 -4.9836129993301 1.0382171147208 8.43911722373879
16.4083664864305 22.483513139234 -4.82049523139893 1.0382171147208 5.29617841177036
16.0167015400654 31.7955093080962 7.62514700239467 0.41528684588832 8.28679721327743
17.9758478297089 32.0941886716442 4.3092305856445 0.41528684588832 45.389561187019
7.12222550319256 56.9445516200732 13.7311076288333 -0.41528684588832 8.27369118128299
7.10839428126581 56.8339664201771 14.1888112164611 -0.31146513441624 10.2136316706349
7.1318157443082 57.0212287738665 14.7244217977276 -0.31146513441624 5.36730278681561
