VERSION .7
FIELDS x y z velocity SNR
SIZE 4 4 4 4 4
TYPE F F F F F
COUNT 1 1 1 1 1
WIDTH 159
HEIGHT 1
VIEWPOINT 0 0 0 1 0 0 0
POINTS 159
DATA ascii
6.291792717235 3.97403490470199 -1.16860490458156 -0.309429414583454 5.22154990168246
5.03400796376148 6.36162551518061 0.886192052641016 4.64144121875182 10.6651287096934
5.51101713346526 6.41641263530393 0.525872207061702 -4.33201180416836 6.23331192706401
4.84387274951917 6.77246078711583 1.5776166211851 4.02258238958491 5.81792807485483
4.82875439677743 6.75132306191044 1.70908467295053 4.17729709687663 7.26187562163969
5.22762365467538 6.60630341961063 0.920276362357978 4.64144121875182 17.9982207281538
5.1803188687608 6.68075602107259 0.591606232944414 4.79615592604354 21.7635110985484
5.84112279059325 6.52346439711261 -0.749854813773167 -4.64144121875182 6.8745868491365
5.02327544394581 7.02329266812012 1.63604686641418 4.64144121875182 7.62372666968317
5.29776253100319 6.97194487645179 0.749854813773167 4.79615592604354 6.96812601286959
5.28328816581312 10.2647416052151 -1.2611194595276 2.93957943854282 5.40601064215806
0.369880059650695 11.9156798368993 0.370058219784161 2.78486473125109 6.64086136907041
6.09934443912174 10.2346009101202 -0.55508732967624 2.78486473125109 6.64086136907041
5.71862126602747 10.4258648009697 -0.925145549460401 2.93957943854282 8.73198208309632
5.43053773013234 10.5508283530472 -1.20268921429852 3.09429414583454 9.20957413087419
6.26588968670494 10.5140611307233 -0.189898296994503 2.78486473125109 9.70651767239223
5.88401305418014 10.7273976953955 -0.379796593989007 2.93957943854282 8.42966221207812
4.70807291860558 11.4576380354009 2.04505858301773 1.85657648750073 5.38345509553484
5.2460541594619 11.1217665551636 2.53197729326004 1.85657648750073 5.38345509553484
5.32880597961246 11.297202491918 -1.26598864663002 2.78486473125109 5.3130068022563
6.42423261498576 10.7797579927499 0.389534968193853 2.78486473125109 5.3130068022563
5.69543423543745 12.0744636009094 3.53502983635921 2.47543531666763 5.19695868057887
-11.8276178061635 10.6019346512812 -1.98662833778865 3.24900885312627 12.6333890600232
-11.8388150355468 10.6119715239755 -1.86246406667686 3.403723560418 8.33910972273799
-1.35773003253374 15.8548142988404 -1.73829979556507 3.403723560418 8.33910972273799
-1.37738122163671 16.0842899283936 -2.40537842859704 3.24900885312627 47.4632295791567
-1.37894747364704 16.1025797460848 -2.27877956393404 3.403723560418 37.7096685999018
5.34702567184491 15.517680903632 2.70970262249849 1.08300295104209 6.22114796750296
5.70500568276703 15.3164719769659 3.09680299714113 1.08300295104209 6.22114796750296
5.18995098653488 15.4722325598265 3.22583645535534 1.23771765833382 8.54852673915249
-1.4038693220528 16.3936031962473 -2.45163570607006 3.24900885312627 69.5755745147744
-1.4038693220528 16.3936031962473 -2.45163570607006 3.403723560418 57.6425285347504
5.2878745900544 15.7641614760496 3.28670129413563 0.928288243750363 5.25035977031539
6.10023369349334 15.2065067599774 4.33844570825903 0.928288243750363 5.25035977031539
5.2959675394743 15.7882880999511 3.15523324237021 1.08300295104209 10.4185219338248
5.18848852254492 15.8974909883091 2.76082908707393 1.23771765833382 20.1522988451097
5.18158941676753 15.8763521785291 2.89229713883936 1.39243236562554 10.5333047232039
-2.3457612933751 16.6365615984485 -2.23495688001223 3.09429414583454 5.16110546065846
-1.55654655676348 16.6501590289275 -2.76082908707393 3.24900885312627 20.8777245715846
-1.55447682503026 16.6280194004303 -2.89229713883936 3.403723560418 12.0215045647764
4.18937896086308 15.8215034347102 -5.49000845798211 0.928288243750363 5.8177745300514
5.23732808979547 16.0471350661296 3.6153714235492 0.928288243750363 5.8177745300514
5.22825733576676 16.0193423419476 3.74927406886583 1.08300295104209 9.60299013083934
5.31972897839113 16.2996107877556 2.00853967974955 1.23771765833382 27.2149016339341
5.39404101242753 16.0806638055058 3.21366348759928 1.39243236562554 23.0322378069485
-1.86190514243689 17.0443579367608 -2.00853967974955 3.24900885312627 6.66948704124177
-1.33321330602493 17.1362683775885 -1.60683174379964 3.24900885312627 6.66948704124177
-0.80254532093707 17.2256060510394 -0.803415871899821 3.24900885312627 6.66948704124177
-1.47009054927094 17.1668977651429 -1.0712211625331 3.403723560418 5.83282814869753
5.42123934558928 16.6106378124355 1.90872134414988 1.23771765833382 23.3378870675934
5.40360206800182 16.1091671335231 4.499128882639 1.39243236562554 31.8110762959734
-1.35926481705237 17.4711177843492 -1.36337238867849 3.24900885312627 5.59210444904624
-1.49605083129707 17.4700474641311 -1.22703514981064 3.403723560418 6.72435724578952
5.49026081351697 16.8221190867242 2.63666481596214 1.23771765833382 9.41442228344606
4.99338080528438 17.170809005692 0.555087329676241 1.39243236562554 13.4209644180897
5.53733099895669 16.9663417915822 1.24894649177154 1.39243236562554 13.4209644180897
16.3665636338982 15.7128508442235 3.19905592629202 -3.24900885312627 5.64993016131434
-1.79624352148913 25.6678155555192 0.59891001359805 4.79615592604354 6.83236798295865
0 25.6600167446609 1.9963667119935 4.79615592604354 6.83236798295865
15.355367140596 20.6203750340528 -1.1978200271961 4.79615592604354 6.83236798295865
16.5112615328499 18.0563701002935 -7.98546684797398 4.79615592604354 6.83236798295865
15.3532576335412 21.0377535155154 -0.606213794251685 4.79615592604354 14.7276619874796
16.7673734682095 19.9289934497219 0.606213794251685 4.79615592604354 14.7276619874796
15.5382366411743 21.2912204253409 -0.61351757490532 4.79615592604354 5.99828777473268
16.9719436269257 20.1721369188403 0.409011716603544 4.79615592604354 5.99828777473268
-5.83262036313946 26.2144360967972 2.72187559025454 0.464144121875182 6.45470792349781
-5.80507957437424 26.0906553255158 3.76875081727552 0.618858829166909 6.66405443911911
5.93722557088632 25.718013984301 5.65312622591329 0.618858829166909 6.66405443911911
5.45896300989145 26.5123033045228 3.60076386224193 0.464144121875182 31.8918143314062
5.46964861323669 26.5641995999122 3.17714458433111 0.618858829166909 21.7036149931641
5.50952488654685 26.7578649262274 4.07064041762576 0.309429414583454 7.47640608468912
7.05963036370573 26.6612228424768 1.49970962754633 0.309429414583454 7.47640608468912
5.52170971115457 26.8170424229656 3.64215195261252 0.464144121875182 53.2901577813858
5.52728544536399 26.844121843771 3.4279077201059 0.618858829166909 36.6574904530816
5.57846932520847 27.0927043207506 3.90021886904095 0.464144121875182 9.44243441405973
6.91680644080204 26.9944534396274 1.95010943452048 0.464144121875182 9.44243441405973
4.82765437453667 26.6263572630705 6.93372243385058 0.618858829166909 8.19992776103144
5.78644593635143 27.0169178746227 4.11689769509878 0.618858829166909 8.19992776103144
15.3984416423115 24.3034465283577 2.46380867382612 3.71315297500145 6.7890358052005
15.3984416423115 24.3034465283577 2.46380867382612 3.86786768229318 5.10159545301172
15.575718448259 24.5832435022428 2.26417200262677 3.71315297500145 13.4615264255296
15.575718448259 24.5832435022428 2.26417200262677 3.86786768229318 10.2047870228869
15.0975798556889 26.400623541961 1.41693344680514 3.24900885312627 22.8743093257704
2.35294398126057 30.2432321655502 2.59771131914276 3.403723560418 14.6319151605228
15.0770837024224 26.3647826170168 2.12540017020771 3.403723560418 14.6319151605228
15.0311805851803 26.8367617610247 -0 3.09429414583454 5.87272241896096
15.2656359983467 26.6944975932083 0.715770504056206 3.24900885312627 58.2247585156771
15.2582825565017 26.6816388799747 1.19295084009367 3.403723560418 37.6809442162585
15.4214077942482 26.9668904257921 0.723074284709841 3.24900885312627 25.6180742678651
15.4139793172823 26.9539005011989 1.20512380784973 3.403723560418 16.8366733675293
16.5045678850484 29.4673564587735 2.89229713883936 2.47543531666763 9.81545801166737
16.4930606076248 29.4468112952725 3.15523324237021 2.63015002395936 17.3056383851277
16.6457741317694 29.7194669554139 3.18444836498475 2.47543531666763 12.8426946213497
16.6573879580581 29.7402023519103 2.91907766790268 2.63015002395936 24.2661377109957
16.5794349450665 30.2266821271434 1.87463703443291 2.63015002395936 5.88035329356959
14.596092072067 32.3658603271389 4.44069863740992 2.32072060937591 13.683687752689
14.9868082632298 32.4902492386662 4.75963039261864 2.16600590208418 17.148629046352
15.0019417026706 32.5230573730356 4.47965213422931 2.32072060937591 37.4054652947801
15.0294180071917 32.5826238908938 3.91969561745065 2.47543531666763 5.65778202400684
15.117128335084 32.7727731450894 4.80101848298924 2.16600590208418 7.39429915720369
18.2562684749274 30.6337220030479 7.34273415045413 2.16600590208418 7.39429915720369
15.1323933696504 32.8058665675838 4.51860563104869 2.32072060937591 15.8937639851394
14.845378520943 34.4661901672455 3.21366348759929 2.01129119479245 8.74029984907635
16.6481106869724 33.7743008897327 0.876453678436171 2.01129119479245 8.74029984907635
16.7893710836068 34.0608782215057 0.5891716393932 2.01129119479245 12.6432041879899
14.9586532935997 34.7291777259682 3.53502983635921 2.16600590208418 7.16392054068556
16.494820713719 34.204492339831 0.5891716393932 2.16600590208418 7.16392054068556
14.7610453059302 38.6470530081543 2.2495644413195 1.54714707291727 7.50732735955522
14.7467867656426 38.609721603034 2.89229713883936 1.701861780209 8.91483159622418
14.2701568651637 42.5420560340262 1.04444063346977 1.23771765833382 6.8904122628618
14.2701568651637 42.5420560340262 1.04444063346977 1.39243236562554 12.5002505685929
14.3669202116954 42.8305260031436 1.40232588549787 1.39243236562554 6.66552629663537
15.7642970290387 42.3230803101899 1.75290735687234 1.39243236562554 6.66552629663537
16.7649395338986 48.6537746443923 1.1978200271961 0.928288243750363 5.50947042566752
14.808992789274 49.4294202912967 4.41878729544902 0.928288243750363 5.33008338317458
16.8636106143376 48.9401294207929 1.60683174379964 0.928288243750363 5.33008338317458
13.6761696118875 55.2073661568587 8.01955115769094 0.618858829166909 6.91589512767581
16.4528646431628 54.9163317867062 3.56424495897376 0.618858829166909 6.91589512767581
16.4528646431628 54.9163317867062 3.56424495897376 0.773573536458636 8.52132219628565
16.1248375352824 60.8966567197481 3.42547312655469 0.618858829166909 7.5479180584677
-51.1786742876584 35.4300092324837 10.2764193796641 0.773573536458636 5.74692103718278
-25.5452607609788 57.9532732568333 2.95072738406843 0.618858829166909 6.12642554943424
-25.535247018032 57.9305555720641 3.44251528141317 0.773573536458636 23.7233049192499
-25.535247018032 57.9305555720641 3.44251528141317 0.928288243750363 11.8449377246919
-25.6802344812551 58.2594814794408 2.47111245447975 0.618858829166909 6.70819030152004
-25.6717224479143 58.2401706491939 2.9653349453757 0.773573536458636 45.2117865643701
-25.6616591319827 58.2173405006387 3.45955743627165 0.928288243750363 29.770304335902
-25.8067380993893 58.546473999044 2.48328542223581 0.773573536458636 13.5064670579945
-25.7763975977952 58.4776419993989 3.9732566755773 0.928288243750363 11.128105190712
2.99779336858151 7.47282274988471 1.32928807896152 -1.45350396060912 5.91145652590699
1.95938776623513 7.90957124133553 0.443096026320507 -1.34968224913704 7.75597928222727
2.97346850835365 7.5949660246348 -2.30069090589494 -1.45350396060912 6.79487313087391
6.82316407000461 8.97939903887134 -0.701162942748936 0.10382171147208 5.24604661191706
6.15463793744911 9.71389946390332 1.62143930510691 -0.62293026883248 5.09929445893856
7.86641013404417 10.1448517357028 -0.898365020397074 0.10382171147208 8.61929672260581
-11.2822811700958 11.3223214724412 -0.869149897782533 1.34968224913704 7.02102517714706
-7.93790281072303 13.8807402127836 -0.744985626670743 1.34968224913704 7.02102517714706
-1.37738122163671 16.0842899283936 -2.40537842859704 1.24586053766496 24.2576370614931
-1.37738122163671 16.0842899283936 -2.40537842859704 1.34968224913704 61.3454324242351
-1.3757283770101 16.0649889304103 -2.53197729326004 1.45350396060912 19.9252708283167
-1.4038693220528 16.3936031962473 -2.45163570607006 1.24586053766496 92.3343551129476
-1.4038693220528 16.3936031962473 -2.45163570607006 1.34968224913704 205.692797457071
-2.09104946187015 16.7186329565409 -1.84055272471596 1.24586053766496 65.1175300035014
-2.09581814413313 16.7567601505145 -1.44614856941968 1.34968224913704 163.335136227472
-1.16740991757261 16.6819599255094 -2.76082908707393 1.34968224913704 163.335136227472
-1.17162320313367 16.7421665931301 -2.36642493177765 1.45350396060912 37.9458348391625
-2.25874645603817 16.9799606952455 -2.14244232506619 1.24586053766496 18.5941105838183
-2.25874645603817 16.9799606952455 -2.14244232506619 1.34968224913704 31.4132989526671
-12.5853339861168 11.8130736332754 -0.267805290633273 1.45350396060912 7.07693433929847
-1.22078100623849 17.4446177964965 -1.77238410528203 1.24586053766496 8.25205422852515
-1.22256058407766 17.4700474641311 -1.49970962754633 1.34968224913704 23.2808667924702
-1.22256058407766 17.4700474641311 -1.49970962754633 1.45350396060912 8.59865474048735
-1.24258066706418 17.7561288285767 -1.80403382144778 1.34968224913704 9.82247570944447
7.22064080762512 25.5982328484772 -4.60625099889231 -1.34968224913704 6.8717388631372
22.5664669229451 15.6223298581473 -5.20029182538793 -2.80318620974616 14.893351064616
16.9304475146271 25.6603252931784 -6.32994323315011 -0.31146513441624 8.05254250126152
16.8589104124526 26.0742371524238 -6.39324266548161 -0.31146513441624 10.9438091210827
16.6410794678581 30.3390689124273 -4.05359826276728 -0.62293026883248 9.44846037107815
16.7444422390635 32.5322729923409 -5.74564078085933 -0.726751980304561 13.1099390148492
