VERSION .7
FIELDS x y z velocity intensity
SIZE 4 4 4 4 4
TYPE F F F F F
COUNT 1 1 1 1 1
WIDTH 970
HEIGHT 1
VIEWPOINT 0 0 0 1 0 0 0
POINTS 970
DATA ascii
6.252990 -1.458270 7.549540 -10.300800 2.670000
5.984540 -1.458380 8.307050 -10.300800 3.960000
6.167020 -1.519140 8.700970 -10.300800 3.940000
6.630980 -1.031230 8.426950 -9.945600 1.460000
5.652650 2.159380 11.908700 -11.188800 3.280000
6.373870 2.229040 12.022300 -11.100000 3.230000
6.573060 2.298690 12.398000 -11.100000 7.570000
-8.303450 0.637461 11.525900 -9.768000 6.160000
6.173900 -0.656779 13.270000 -11.366400 9.570000
-8.555070 0.656779 11.875200 -9.768000 7.090000
6.355490 -0.676095 13.660200 -11.366400 5.830000
8.430530 -0.443044 12.497300 -10.478400 6.820000
8.671400 -0.455702 12.854300 -10.478400 6.800000
-1.307550 1.484970 15.385700 2.131200 8.610000
-2.043120 1.526210 15.738000 2.131200 9.970000
-2.098950 1.517050 16.168100 2.131200 15.600000
-2.153560 1.608710 16.588700 2.131200 6.450000
-7.357010 1.649960 15.499400 -10.922400 16.920000
-0.988999 2.007740 17.090100 2.131200 14.390000
-7.418270 1.691210 15.944500 -11.011200 5.090000
-1.822430 2.057930 17.451700 2.131200 6.750000
-7.612800 1.356040 16.362700 -11.011200 3.370000
7.181510 -2.115630 16.948800 -11.544000 3.930000
-1.603400 0.967087 18.866900 2.131200 10.380000
7.356040 -1.989980 17.360700 -11.455200 7.320000
-1.639640 1.033980 19.293400 2.131200 12.730000
7.518170 -2.154440 17.743400 -11.455200 6.140000
-1.676080 1.056960 19.722100 2.131200 13.020000
7.720800 1.118170 18.221600 -11.455200 5.050000
-7.659870 0.671540 19.200800 -11.277600 10.320000
7.890480 1.852570 19.029000 -11.544000 6.580000
-7.932620 0.685530 19.555300 -11.277600 6.780000
-8.094510 0.699521 19.954400 -11.277600 4.470000
7.406200 1.765200 20.614900 -11.721600 9.920000
-8.163740 1.217800 21.293900 -11.366400 5.590000
-8.444070 1.186880 21.649900 -11.455200 5.650000
18.184700 1.688810 16.423300 -8.613600 5.470000
-6.982350 1.764580 23.481700 -11.721600 6.440000
18.503700 1.718430 16.711400 -8.613600 3.210000
-7.428090 1.718430 23.800900 -11.632800 9.080000
18.822700 1.748060 16.999500 -8.613600 6.240000
7.870260 1.937200 24.550700 -11.899200 12.570000
-8.032320 0.619625 24.566800 -11.544000 8.230000
8.001430 1.969480 24.959900 -11.899200 6.270000
-6.205040 2.001770 25.908000 -11.899200 5.990000
18.157700 1.531410 20.122000 -9.501600 5.960000
-6.314670 1.384690 26.365700 -11.899200 5.250000
18.451300 1.406670 20.447400 -9.501600 7.310000
-6.981110 1.406670 26.642200 -11.810400 6.260000
18.739600 1.428650 20.766900 -9.501600 4.290000
-6.881430 1.428650 27.112400 -11.899200 5.950000
-6.990310 1.187050 27.541300 -11.810400 7.200000
8.812640 0.334822 27.490400 -11.899200 10.760000
18.653900 1.833870 22.521800 -9.768000 8.160000
8.944450 0.249203 27.901500 -11.899200 9.850000
18.928200 1.860830 22.853000 -9.768000 9.180000
9.075990 0.252868 28.311800 -11.899200 7.980000
-2.320140 1.352190 30.043200 -10.833600 8.750000
-2.353280 1.371510 30.472400 -10.833600 17.490000
6.405680 -1.103210 30.336300 -12.076800 9.470000
7.426090 -0.468411 31.006300 -11.988000 11.520000
-12.578500 2.222110 29.686100 -14.296800 7.530000
-15.349400 1.049280 28.420300 -12.698400 10.900000
9.210120 -0.474741 30.973700 -11.899200 7.200000
-12.746200 2.251740 30.081900 -14.296800 10.190000
-15.554000 1.063270 28.799300 -12.698400 8.980000
-15.533400 1.077260 29.298800 -12.787200 9.270000
7.518350 -2.588380 32.212400 -11.988000 5.920000
8.055410 -2.622000 32.525100 -11.988000 10.270000
19.006800 1.920330 28.175300 -10.567200 5.070000
8.340830 -3.049020 32.862300 -11.988000 5.730000
19.247400 1.944640 28.532000 -10.567200 6.610000
9.372850 1.063310 34.944800 -12.076800 5.000000
9.484430 1.075960 35.360800 -12.076800 7.780000
9.103560 1.976060 35.867400 -12.076800 6.730000
18.988200 1.796400 32.273700 -10.922400 8.640000
9.000610 1.912200 36.341500 -12.076800 4.140000
19.206500 1.817040 32.644700 -10.922400 5.680000
8.604950 2.139110 36.867900 -12.076800 9.110000
19.424700 1.837690 33.015600 -10.922400 7.540000
6.461310 2.163410 37.739900 -12.165600 6.760000
6.239570 2.187720 38.213200 -12.165600 6.200000
19.078200 1.757850 34.212700 -11.011200 6.880000
19.287800 1.777170 34.588600 -11.011200 7.190000
19.497500 1.796480 34.964600 -11.011200 5.790000
19.712200 1.565480 35.349700 -11.011200 7.610000
19.155400 1.835120 36.130600 -11.100000 8.790000
9.823630 2.435650 39.664600 -12.076800 8.090000
19.357000 1.854430 36.510900 -11.100000 8.720000
9.927040 2.461290 40.082100 -12.076800 6.850000
19.558600 1.873750 36.891200 -11.100000 8.540000
19.286000 1.532230 38.502600 -11.277600 11.440000
19.478900 1.547550 38.887600 -11.277600 4.500000
-5.934070 0.908471 43.104900 -12.165600 14.840000
19.323300 1.852520 39.912400 -11.277600 13.750000
19.510900 1.870500 40.299900 -11.277600 7.870000
19.701000 1.748670 40.692500 -11.277600 8.140000
19.888600 1.765330 41.080000 -11.277600 6.820000
19.613800 1.942450 42.157300 -11.366400 12.580000
19.792800 2.105550 42.541900 -11.366400 7.080000
-21.193500 -2.333250 43.775300 -10.922400 9.770000
-21.048500 -1.898560 44.344000 -10.922400 7.370000
-21.237800 -1.608900 44.742800 -11.011200 8.190000
-22.531400 -0.727936 44.128900 -10.744800 7.270000
-20.461100 -1.622890 45.575700 -11.100000 6.340000
-9.170220 1.948520 49.536000 -12.076800 13.170000
-9.247450 2.122300 49.953100 -12.076800 5.130000
-9.325820 2.140290 50.376500 -12.076800 7.380000
-9.012370 2.158270 50.870800 -12.076800 8.100000
10.074100 -2.176260 51.110100 -12.165600 4.980000
10.157400 -2.194240 51.532500 -12.165600 7.330000
19.916100 1.393130 49.096700 -11.632800 6.230000
20.078000 1.404460 49.495800 -11.632800 10.090000
20.238200 1.582300 49.890700 -11.632800 6.960000
10.906000 -1.427110 53.167600 -12.165600 7.160000
20.398200 1.762790 50.285000 -11.632800 6.100000
11.714400 -1.438430 53.436400 -12.165600 6.700000
20.351600 0.996107 52.179700 -11.632800 9.480000
11.740900 2.374100 55.603200 -12.165600 14.320000
20.509700 1.373500 53.496400 -11.721600 13.530000
-29.656100 -1.205300 49.528200 -10.389600 9.250000
20.663900 1.383830 53.898700 -11.721600 7.880000
20.818100 1.394160 54.300900 -11.721600 6.880000
20.276000 1.232280 55.428300 -11.721600 7.520000
20.422600 1.425140 55.829000 -11.721600 10.750000
20.570600 1.435460 56.233600 -11.721600 7.620000
11.404700 -0.140928 59.676800 -12.165600 6.690000
11.832800 -0.141928 60.032600 -12.165600 6.760000
14.345800 -1.810150 59.898100 -12.165600 5.450000
11.290000 -1.822810 60.986600 -12.254400 6.150000
11.368400 -1.835470 61.410100 -12.254400 10.440000
-18.539700 1.559390 62.349200 -11.721600 11.140000
-18.662500 1.569720 62.762100 -11.721600 9.420000
-19.271600 1.580040 63.028300 -11.721600 7.940000
-16.320300 1.590370 64.300700 -11.810400 7.610000
20.753900 0.981132 63.475600 -11.899200 7.550000
21.379500 0.987462 63.722200 -11.899200 7.560000
-28.282200 1.271950 65.688300 -11.188800 7.530000
-28.452600 1.279610 66.084000 -11.188800 6.180000
-28.621300 1.511120 66.475700 -11.188800 7.730000
-28.791600 1.520120 66.871400 -11.188800 8.110000
-28.965200 1.076080 67.274500 -11.188800 12.650000
-2.403270 2.050050 77.928900 -12.343200 6.020000
-3.019870 2.546260 78.324300 -12.343200 11.790000
-0.535490 1.074430 92.635700 -12.343200 5.600000
-17.783600 6.281420 103.872000 -12.076800 6.780000
-17.444000 7.385920 110.858000 -12.165600 4.700000
-17.510800 7.414210 111.283000 -12.165600 7.640000
-16.716200 7.442510 111.840000 -12.165600 5.370000
19.745400 1.136070 132.107000 -12.254400 5.690000
19.808400 1.554170 132.529000 -12.254400 5.210000
19.872800 1.143400 132.959000 -12.254400 7.010000
19.936400 1.147070 133.385000 -12.254400 5.870000
-62.368300 -15.105800 128.822000 -10.833600 4.920000
-62.575100 -14.706900 129.249000 -10.833600 6.610000
-62.741800 -15.196200 129.594000 -10.922400 6.730000
-62.824100 -17.361200 129.764000 -10.922400 5.400000
-8.588270 1.264340 148.407000 -12.343200 6.500000
-8.613160 1.268010 148.837000 -12.343200 7.900000
-8.637790 1.734080 149.263000 -12.343200 6.700000
-7.796920 2.202800 149.734000 -12.343200 11.920000
-8.687570 1.744070 150.123000 -12.343200 6.080000
-8.712740 1.282660 150.558000 -12.254400 11.260000
-7.954590 0.354819 152.762000 -12.343200 6.470000
-6.796060 0.355818 153.249000 -12.343200 6.090000
-6.815150 0.356818 153.680000 -12.343200 5.070000
-6.834240 0.357817 154.110000 -12.343200 5.560000
-6.853250 0.837236 154.539000 -12.343200 8.720000
20.581000 4.750460 197.085000 -12.343200 11.650000
20.625700 4.760790 197.514000 -12.343200 9.970000
20.670500 4.771110 197.942000 -12.343200 7.440000
5.065500 -1.104390 6.336370 -9.412800 6.280000
5.332110 -1.162520 6.669860 -9.412800 6.780000
5.598720 -1.220640 7.003360 -9.501600 7.300000
6.120620 -1.053280 7.162070 -9.235200 7.050000
5.704610 0.948728 8.048560 -9.768000 6.440000
6.724270 -1.101160 7.196780 -8.968800 4.490000
5.756870 0.989977 8.533880 -9.945600 4.180000
5.996740 1.031230 8.889460 -10.034400 4.680000
6.822230 1.287920 8.236820 -9.412800 10.160000
7.279390 3.000310 10.790800 -10.212000 6.720000
7.209720 3.193880 11.833000 -10.389600 7.300000
7.258410 -2.066030 12.557400 -10.567200 8.410000
7.372040 -2.126800 12.983900 -10.567200 10.440000
5.892800 -0.566237 13.401300 -11.011200 11.400000
6.172260 -0.582891 13.748300 -10.922400 7.170000
7.685370 -2.187570 13.296000 -10.567200 8.130000
8.153900 1.066610 13.153400 -10.300800 8.470000
6.457410 -0.599545 14.091700 -10.922400 9.280000
6.811010 1.378910 14.349100 -10.833600 4.030000
7.316590 -0.701439 15.112500 -10.922400 7.090000
7.368430 1.344610 15.523500 -10.922400 7.070000
-7.930400 1.033980 17.664400 -10.833600 7.070000
17.193200 1.358330 11.416900 -6.482400 9.790000
-8.245560 1.056960 17.993900 -10.833600 4.870000
17.551300 1.386630 11.654700 -6.571200 8.870000
17.909500 1.414930 11.892600 -6.571200 8.920000
7.640550 1.613540 19.152400 -11.277600 8.040000
18.185800 1.471520 13.006700 -7.281600 10.020000
7.799730 1.647150 19.551400 -11.277600 11.550000
18.377200 1.570290 13.467400 -7.281600 9.490000
18.727900 1.528120 13.724400 -7.281600 9.840000
18.012700 -4.408580 14.757100 -7.992000 7.770000
18.340200 -4.488730 15.025400 -7.992000 5.950000
18.667700 -4.568890 15.293700 -7.992000 11.190000
-7.706550 0.842726 22.395700 -11.277600 6.950000
-7.964500 1.659180 22.717600 -11.188800 11.900000
18.327400 1.669610 17.540000 -8.524800 8.680000
18.638000 1.697910 17.837300 -8.524800 5.890000
8.017290 1.697910 24.520800 -11.455200 5.550000
18.667400 1.187050 21.422400 -9.235200 6.300000
18.952600 1.115820 21.749700 -9.235200 6.590000
-7.311500 1.205040 27.903100 -11.455200 5.170000
18.717200 1.585440 23.046700 -9.501600 7.220000
-7.420630 1.223020 28.319600 -11.455200 7.780000
18.988500 1.608420 23.380700 -9.501600 4.510000
8.856430 0.528703 28.377500 -11.544000 8.010000
8.985600 0.349814 28.791400 -11.544000 8.340000
9.113590 0.449422 29.201500 -11.544000 8.650000
9.241950 0.455751 29.612800 -11.544000 11.390000
18.709000 1.569270 26.832200 -10.034400 8.920000
18.955100 1.589910 27.185300 -10.034400 5.250000
19.201300 1.610560 27.538400 -10.034400 7.090000
9.631320 -8.591640 31.499500 -11.544000 8.990000
19.029600 2.292180 29.169100 -10.300800 5.890000
7.330920 -8.700400 32.540400 -11.721600 8.060000
7.422550 -8.809150 32.947200 -11.721600 6.210000
19.533200 1.050650 29.941000 -10.300800 10.000000
19.062700 1.063310 30.750700 -10.389600 8.590000
19.289600 1.075960 31.116800 -10.389600 6.720000
19.520700 0.773550 31.489600 -10.389600 10.380000
19.747700 0.782545 31.855700 -10.389600 9.580000
19.172400 1.719210 33.169100 -10.478400 5.970000
19.387900 1.738530 33.541800 -10.478400 10.320000
19.603300 1.757850 33.914500 -10.478400 11.250000
9.319900 1.019360 37.630700 -11.721600 8.400000
19.818700 1.777170 34.287200 -10.478400 7.270000
9.423450 1.030690 38.048800 -11.721600 10.840000
19.227400 1.796480 35.113800 -10.656000 8.930000
19.434200 1.815800 35.491400 -10.656000 8.730000
6.987670 1.177230 39.442200 -11.810400 16.540000
19.640900 1.835120 35.868900 -10.656000 10.490000
19.847700 1.854430 36.246500 -10.656000 12.440000
19.472400 1.893070 37.422700 -10.744800 7.670000
19.671100 1.912380 37.804600 -10.744800 14.420000
19.869800 1.931700 38.186500 -10.744800 6.160000
19.476700 1.682060 38.883100 -10.833600 15.670000
19.667100 1.834530 39.263200 -10.833600 12.590000
19.859900 1.852520 39.648200 -10.833600 6.250000
20.050000 2.008970 40.027700 -10.833600 11.590000
19.888600 1.765330 41.080000 -10.922400 7.340000
-5.614140 1.765330 45.294700 -11.810400 14.380000
20.076200 1.781980 41.467600 -10.922400 12.640000
-22.376300 -1.468370 44.672000 -10.567200 7.060000
-13.303400 2.549590 48.114000 -11.810400 7.920000
-8.718170 2.158270 50.922000 -11.721600 5.570000
-8.790820 2.176260 51.346400 -11.721600 7.120000
20.498800 1.706830 48.378400 -11.188800 8.660000
-8.863470 2.194240 51.770700 -11.721600 7.150000
20.666800 1.720820 48.775000 -11.188800 8.050000
-8.936120 2.212230 52.195100 -11.721600 7.980000
-18.786000 -2.115060 51.355200 -11.100000 10.720000
-19.344700 -0.810225 51.645200 -11.100000 8.920000
-18.378700 -1.976580 52.422600 -11.188800 5.780000
-18.217400 -1.818750 52.940800 -11.277600 8.920000
-17.937200 -2.530530 53.462300 -11.277600 9.530000
-18.074100 -2.549850 53.870400 -11.277600 9.280000
20.129200 1.042080 55.027000 -11.366400 7.840000
-16.643400 -1.277260 58.866900 -11.455200 7.490000
-16.760700 -1.286250 59.281400 -11.455200 7.330000
20.976100 1.103380 58.386100 -11.366400 8.930000
21.119000 1.497430 58.784000 -11.366400 6.830000
21.261600 1.848130 59.180800 -11.366400 8.910000
12.494100 1.898760 63.387500 -11.721600 8.040000
-18.539100 1.744240 63.692400 -11.455200 6.460000
-18.659500 1.755570 64.106000 -11.455200 8.320000
20.886700 1.195330 63.881900 -11.544000 6.140000
21.020600 1.202990 64.291400 -11.544000 7.070000
21.154500 1.210650 64.700900 -11.544000 7.970000
21.175800 1.019110 66.056200 -11.544000 11.050000
21.307300 1.025440 66.466500 -11.544000 11.700000
21.438800 1.031770 66.876800 -11.544000 15.200000
21.050100 1.256630 67.447900 -11.544000 14.060000
21.177100 1.484140 67.855200 -11.544000 8.760000
21.305500 1.493130 68.266400 -11.544000 11.280000
21.433800 1.502130 68.677600 -11.544000 10.880000
21.555500 2.350390 69.067500 -11.544000 6.840000
-27.887100 1.520120 67.253700 -10.922400 6.970000
21.689000 1.745280 69.495300 -11.544000 8.900000
-28.570700 1.755600 67.428700 -10.922400 6.070000
21.820200 1.302600 69.915600 -11.544000 9.960000
-28.738800 1.765930 67.825400 -10.922400 15.070000
21.540400 1.538100 70.448300 -11.544000 15.320000
21.666300 1.547100 70.860300 -11.544000 10.730000
21.793600 1.325590 71.276500 -11.544000 8.860000
21.919600 1.333250 71.688500 -11.544000 11.170000
18.683600 0.846559 97.765000 -11.810400 6.370000
18.764900 0.541055 98.190400 -11.810400 7.460000
18.845800 0.543387 98.613600 -11.810400 6.930000
18.353900 0.545719 99.144600 -11.810400 8.000000
19.934000 2.398320 133.369000 -11.899200 6.560000
19.997700 2.405980 133.795000 -11.899200 8.490000
-61.834500 -12.968000 130.270000 -10.656000 7.700000
-62.018500 -13.006600 130.658000 -10.656000 7.940000
-62.166700 -13.942200 130.970000 -10.656000 7.010000
-61.336400 -13.983400 131.834000 -10.656000 6.810000
-8.637790 1.734080 149.263000 -11.899200 6.810000
-8.662680 1.739080 149.693000 -11.899200 7.120000
-8.687570 1.744070 150.123000 -11.899200 5.690000
-8.712920 0.816247 150.561000 -11.899200 10.980000
-8.737820 0.818579 150.991000 -11.899200 11.630000
-8.762520 1.289990 151.418000 -11.899200 8.120000
-5.942910 1.789050 154.137000 -11.899200 6.730000
-5.959700 1.315650 154.573000 -11.899200 7.110000
-5.976300 1.319310 155.003000 -11.899200 4.330000
-5.992900 1.322980 155.434000 -11.899200 7.770000
4.577820 -1.573160 7.645350 -10.300800 5.310000
4.674310 -1.619190 8.086760 -10.300800 7.000000
4.886780 -1.692790 8.454340 -10.300800 6.800000
5.689820 -1.184890 8.027700 -9.856800 4.750000
6.717630 1.184890 7.189680 -8.968800 7.080000
5.167090 -1.766390 8.782350 -10.389600 7.900000
6.151220 -1.149040 8.233520 -9.768000 5.260000
5.940010 -0.773938 8.953440 -10.212000 11.370000
6.407520 -1.196910 8.576590 -9.856800 9.380000
6.106990 -0.770332 9.360950 -10.212000 11.950000
6.866940 1.192110 9.848510 -9.945600 7.200000
6.290840 -0.505636 12.742400 -10.744800 7.650000
6.278340 -0.520958 13.226900 -10.922400 8.090000
-7.979140 1.176800 12.230600 -9.945600 6.250000
6.277620 -0.566237 13.225400 -11.011200 9.770000
-8.123580 1.036990 12.664300 -9.945600 7.460000
6.357130 -0.582891 13.663800 -11.011200 10.520000
-8.359080 0.970870 13.031400 -9.945600 6.270000
6.645170 -0.695413 13.999700 -11.011200 8.300000
8.292010 -0.468361 13.609300 -10.478400 7.110000
-8.794960 1.047050 13.256700 -9.856800 4.050000
6.942250 -0.616199 14.339300 -10.922400 10.410000
7.293540 -1.505210 15.064900 -11.011200 4.780000
7.543530 2.588840 15.279800 -11.011200 7.610000
7.367950 2.653560 15.836400 -11.011200 9.310000
-7.793080 1.487150 15.785300 -10.744800 5.430000
-8.252950 0.643559 18.010100 -10.833600 3.880000
7.020890 -1.632230 18.001000 -11.277600 10.310000
7.176910 -1.668510 18.401000 -11.277600 9.670000
7.481380 -1.579920 18.753400 -11.277600 5.840000
7.492710 -1.613540 19.210700 -11.277600 5.610000
17.675900 1.646620 12.953500 -7.370400 7.470000
7.789930 1.956190 19.526800 -11.188800 10.160000
-7.553350 0.699521 20.165400 -11.188800 9.420000
18.022500 1.678900 13.207500 -7.370400 6.060000
-7.862720 0.713511 20.508700 -11.188800 5.730000
18.369000 1.711190 13.461400 -7.370400 6.330000
-8.137630 0.727502 20.864200 -11.100000 10.500000
18.555800 1.743480 13.930900 -7.459200 8.110000
18.136000 1.775760 15.152500 -7.992000 4.430000
-7.074320 1.834420 21.636800 -11.277600 10.280000
18.465800 1.808050 15.428000 -7.992000 6.850000
-7.567220 0.755482 21.990800 -11.277600 7.510000
-7.534500 0.769473 22.456700 -11.277600 10.620000
18.185700 1.564180 17.071800 -8.436000 6.950000
-7.672880 0.634270 22.869200 -11.277600 8.990000
18.499200 1.591150 17.366100 -8.436000 8.110000
-7.809900 0.645597 23.277600 -11.277600 10.700000
18.809000 1.697910 17.656900 -8.436000 10.420000
18.773100 1.726210 18.316300 -8.613600 12.190000
-6.566080 1.983300 24.480300 -11.544000 14.390000
18.091700 1.470550 20.761800 -9.324000 11.340000
18.374400 1.493530 21.086200 -9.324000 6.140000
18.657100 1.516510 21.410600 -9.324000 7.630000
-6.880600 1.493530 27.109100 -11.632800 8.640000
18.729500 1.539480 21.916400 -9.324000 6.810000
-7.198400 1.516510 27.471500 -11.632800 5.070000
-7.308350 1.472610 27.891100 -11.632800 12.270000
18.544100 1.424730 23.196600 -9.679200 13.680000
18.812900 1.445380 23.532800 -9.679200 10.590000
9.075330 0.436762 28.309800 -11.544000 10.600000
19.081700 1.466020 23.869000 -9.679200 10.720000
9.207240 0.349814 28.721300 -11.544000 8.930000
9.113960 0.354811 29.202700 -11.544000 8.780000
18.804900 1.507320 25.170700 -9.856800 9.430000
9.469440 0.551690 29.539200 -11.544000 13.580000
18.862400 1.626470 25.657800 -9.945600 5.480000
19.111700 1.823100 25.996900 -9.945600 10.650000
18.486600 2.049610 26.953700 -10.123200 11.650000
18.733400 1.974160 27.313500 -10.123200 6.780000
10.411300 -1.063270 31.031100 -11.455200 8.060000
18.976700 1.999800 27.668300 -10.123200 8.610000
8.837560 -1.077260 31.962500 -11.721600 9.650000
10.548300 -1.077260 31.439400 -11.455200 13.290000
19.219900 2.025440 28.023000 -10.123200 9.620000
19.048800 1.672510 29.198600 -10.212000 9.840000
19.052700 1.802300 29.702300 -10.300800 9.660000
19.279400 2.017570 30.055700 -10.300800 9.670000
9.703320 1.564750 36.176900 -11.721600 10.850000
19.172400 1.719210 33.169100 -10.567200 7.000000
9.813540 1.699900 36.587800 -11.721600 7.650000
19.390500 1.618700 33.546300 -10.567200 6.000000
9.925060 1.719210 37.003600 -11.721600 7.810000
19.866800 1.636690 33.766900 -10.567200 10.570000
9.317220 1.379010 37.619900 -11.721600 8.260000
19.227400 1.796480 35.113800 -10.744800 12.530000
19.434200 1.815800 35.491400 -10.744800 12.270000
19.640900 1.835120 35.868900 -10.744800 9.200000
19.637800 1.854430 36.360600 -10.744800 9.580000
19.765400 1.632100 37.281200 -10.833600 15.680000
19.967100 1.648750 37.661600 -10.833600 16.610000
20.168700 1.665400 38.042000 -10.833600 8.630000
19.886100 1.906470 41.074900 -11.011200 6.490000
20.073700 1.924460 41.462400 -11.011200 12.530000
19.938200 1.942450 42.004800 -11.011200 7.710000
20.120100 2.105550 42.388100 -11.011200 10.100000
10.690600 2.182820 47.453400 -11.810400 8.450000
10.785200 2.202140 47.873400 -11.810400 13.220000
-22.369200 -1.931870 44.657900 -10.656000 8.960000
20.270800 1.347820 47.081000 -11.188800 5.250000
-8.939410 1.823350 50.458900 -11.721600 6.330000
-9.016340 1.519010 50.893200 -11.721600 6.010000
-9.090610 1.692840 51.312400 -11.810400 6.990000
20.127200 1.544320 48.539600 -11.188800 7.150000
-8.866520 1.706830 51.788600 -11.810400 6.860000
20.292200 1.556980 48.937500 -11.188800 7.640000
10.326300 -1.899960 52.389800 -11.810400 7.330000
12.233300 -2.081750 52.413600 -11.810400 9.230000
-19.034400 -1.762790 50.816900 -11.188800 8.310000
10.897200 -2.601680 53.124900 -11.810400 7.470000
-19.185500 -1.776780 51.220200 -11.188800 11.210000
10.982000 -2.791370 53.538300 -11.810400 11.390000
11.380300 -2.813340 53.895000 -11.810400 9.390000
11.155000 -2.835320 54.381400 -11.810400 9.010000
-20.484700 -2.879280 52.521000 -11.011200 6.710000
20.350600 1.846730 53.081500 -11.366400 5.850000
20.966200 2.206410 58.358400 -11.455200 11.460000
21.116000 1.835470 58.775500 -11.455200 7.310000
21.089900 1.873440 60.155900 -11.455200 8.420000
12.130700 1.149350 63.476000 -11.810400 7.250000
-18.415300 2.140530 63.267300 -11.455200 8.280000
-18.539100 1.744240 63.692400 -11.455200 9.760000
-19.030800 1.600700 64.000800 -11.455200 7.150000
-19.153600 1.611030 64.413700 -11.455200 6.200000
22.007800 1.412180 63.955900 -11.544000 5.980000
22.146500 1.631680 64.358800 -11.544000 9.690000
21.425400 0.373141 65.529300 -11.544000 7.150000
21.175800 1.019110 66.056200 -11.544000 9.600000
21.305000 1.457150 66.459200 -11.544000 7.080000
21.436500 1.466150 66.869400 -11.544000 8.300000
21.571200 0.819564 67.289800 -11.544000 10.050000
21.699500 1.484140 67.689900 -11.544000 10.860000
21.831000 1.493130 68.100200 -11.544000 12.510000
21.435100 1.279610 68.681700 -11.544000 15.890000
-27.367900 1.520120 67.466600 -11.011200 13.850000
21.562200 1.511120 69.088900 -11.632800 8.010000
-28.052100 1.529110 67.651600 -11.011200 7.610000
21.288400 1.520120 69.624400 -11.632800 6.670000
-28.217100 1.538100 68.049600 -11.011200 5.550000
21.415700 1.302600 70.040500 -11.632800 11.020000
-28.383800 1.317930 68.451600 -11.011200 11.250000
21.544300 -0.626673 70.461100 -11.632800 7.640000
21.668700 1.088740 70.868100 -11.632800 11.260000
21.244700 1.095070 71.446000 -11.632800 14.820000
21.368300 0.869538 71.861900 -11.632800 14.080000
-1.918000 4.326830 76.554000 -11.988000 7.400000
-1.928780 4.351140 76.984100 -11.988000 11.870000
18.684000 0.538723 97.767100 -11.899200 11.910000
18.764500 0.850223 98.188200 -11.899200 9.350000
18.845400 0.853888 98.611500 -11.899200 9.310000
-56.463300 -10.975300 91.083000 -9.856800 7.030000
-56.689100 -11.019200 91.447300 -9.856800 7.910000
19.870300 2.390660 132.943000 -11.899200 11.440000
19.932800 2.815360 133.361000 -11.899200 9.210000
19.224000 2.405980 133.908000 -11.899200 5.970000
21.095300 2.413640 134.062000 -11.810400 9.460000
-61.780200 -14.305300 130.156000 -10.656000 8.450000
-60.956100 -14.347900 131.017000 -10.656000 5.710000
-61.137000 -14.390500 131.406000 -10.656000 7.670000
-6.662000 1.744070 150.226000 -11.899200 5.570000
-6.681090 1.749070 150.657000 -11.899200 5.270000
-6.700530 0.818579 151.095000 -11.988000 5.160000
-6.719480 1.289990 151.522000 -11.899200 7.720000
-6.834160 0.834904 154.108000 -11.988000 5.360000
-6.853100 1.315650 154.536000 -11.988000 5.250000
-6.871980 1.799040 154.961000 -11.988000 5.450000
-6.891070 1.804040 155.392000 -11.988000 7.910000
7.190700 -0.377741 9.138280 -9.679200 8.110000
7.457020 -0.391732 9.476730 -9.679200 4.100000
7.722530 -0.444347 9.814150 -9.679200 10.340000
6.166770 -0.962150 13.254600 -11.011200 6.150000
6.269170 -0.990448 13.680900 -11.100000 8.420000
-8.092430 -1.675680 12.615700 -10.034400 8.840000
6.528160 -1.066610 14.031400 -11.100000 5.730000
7.123450 -1.096240 14.221200 -10.922400 4.620000
8.147790 1.624350 13.607500 -10.478400 6.790000
7.293700 3.294340 14.285100 -10.922400 9.260000
8.368000 1.668250 13.975300 -10.478400 5.240000
7.485640 3.381030 14.661000 -10.922400 8.980000
8.508180 0.948013 14.461100 -10.567200 7.520000
7.570920 3.363230 15.114600 -10.922400 7.870000
-8.060680 0.972321 15.203900 -10.478400 4.710000
7.342360 1.214750 16.022900 -11.100000 8.620000
7.760190 3.447310 15.492400 -10.922400 5.440000
-7.683420 1.105710 15.870200 -10.744800 3.740000
-8.382060 0.996629 15.519900 -10.478400 3.640000
7.139940 1.244380 16.583200 -11.188800 4.030000
7.654500 -1.153730 17.778300 -11.277600 4.980000
7.328730 -1.301730 18.370700 -11.366400 5.070000
6.831240 -1.392520 19.014500 -11.455200 8.130000
6.979430 -1.294490 19.427000 -11.455200 10.000000
-7.705820 0.577639 20.572500 -11.188800 8.950000
-7.856910 0.588965 20.975900 -11.188800 9.220000
-8.009030 0.476723 21.382000 -11.188800 10.470000
18.189100 1.487030 17.075000 -8.613600 9.650000
18.502700 1.512670 17.369400 -8.613600 7.000000
18.812800 1.618120 17.660400 -8.613600 6.400000
19.129900 1.563950 17.958200 -8.613600 6.320000
-7.359300 1.318760 24.749400 -11.544000 11.700000
18.090100 1.726210 18.991200 -8.968800 7.100000
-6.352090 1.318760 25.026800 -11.632800 6.980000
18.386700 1.754510 19.302500 -8.968800 7.230000
18.493400 1.782810 19.792900 -9.057600 12.310000
18.786900 1.811110 20.107100 -9.057600 15.200000
-7.357080 1.516510 27.429400 -11.632800 6.400000
18.267300 1.652950 22.850300 -9.679200 10.150000
-7.680250 1.717780 27.776900 -11.632800 5.150000
18.535900 1.677250 23.186300 -9.679200 7.530000
7.807020 0.611644 28.235400 -11.721600 7.140000
18.804500 1.701560 23.522300 -9.679200 6.770000
8.855900 0.620639 28.375800 -11.721600 8.090000
19.073200 1.725870 23.858400 -9.679200 12.720000
9.206860 0.443092 28.720100 -11.632800 9.120000
18.095700 2.037490 25.118400 -9.945600 13.680000
9.339060 0.260198 29.132500 -11.632800 13.900000
18.591500 2.065790 25.289300 -9.945600 10.240000
9.470910 0.071963 29.543800 -11.632800 18.250000
18.846200 2.094090 25.635700 -9.945600 5.160000
7.973190 0.072963 30.428300 -11.721600 17.930000
9.909350 0.073962 30.307700 -11.544000 11.000000
19.100900 2.122390 25.982200 -10.034400 13.750000
7.834250 1.626470 30.866400 -11.810400 11.670000
18.482900 2.150690 26.948400 -10.212000 9.380000
9.601010 -2.421490 30.763300 -11.632800 7.920000
10.162700 -1.746280 31.082600 -11.721600 8.310000
8.830720 -1.692400 31.937800 -11.721600 6.220000
8.953970 0.883448 32.383500 -11.721600 7.510000
9.258200 0.894774 32.745700 -11.721600 5.590000
19.051600 1.564680 29.202800 -10.300800 7.240000
19.064300 0.951406 30.753300 -10.478400 9.810000
19.291300 0.962732 31.119500 -10.478400 8.460000
19.518200 0.974058 31.485600 -10.478400 10.810000
19.745200 0.985385 31.851700 -10.478400 4.890000
8.623730 1.546760 36.006800 -11.810400 4.500000
18.921100 1.482210 33.324500 -10.656000 7.520000
9.810630 1.934170 36.577000 -11.810400 4.980000
19.131300 1.618700 33.694800 -10.656000 10.620000
8.920720 1.956150 37.246800 -11.810400 11.360000
19.343900 1.636690 34.069200 -10.656000 7.710000
9.322490 0.449761 37.641100 -11.810400 4.800000
19.556500 1.654680 34.443500 -10.656000 7.310000
9.426070 0.454758 38.059400 -11.810400 10.760000
19.230000 1.672660 35.118500 -10.833600 8.020000
6.387970 0.459756 39.122000 -11.899200 14.860000
19.434200 1.815800 35.491400 -10.833600 7.540000
-24.714800 1.815800 32.039100 -9.412800 14.310000
19.640900 1.835120 35.868900 -10.833600 10.300000
-24.977700 1.835120 32.379900 -9.412800 8.760000
19.844800 1.982230 36.241300 -10.833600 9.840000
-25.244000 1.726620 32.725200 -9.412800 10.590000
-25.507000 1.744600 33.066100 -9.412800 7.010000
9.486610 2.228810 40.645400 -11.810400 5.530000
9.819950 2.382190 41.001400 -11.810400 15.590000
9.680560 2.406500 41.476400 -11.810400 10.420000
19.667100 1.834530 39.263200 -10.922400 10.980000
19.859900 1.852520 39.648200 -10.922400 9.010000
20.052700 1.870500 40.033100 -10.922400 9.040000
19.571400 1.765330 41.232100 -11.100000 10.060000
19.753600 1.924460 41.615900 -11.100000 6.420000
19.938200 1.942450 42.004800 -11.100000 8.070000
-22.334300 -0.873509 43.742900 -10.567200 8.450000
-21.391700 -3.128360 45.067100 -10.744800 9.640000
-21.940300 -2.571570 45.317900 -10.744800 7.720000
19.831400 1.218600 46.803500 -11.277600 6.550000
-21.136100 -3.339230 46.124300 -10.833600 12.250000
19.999500 1.228920 47.200100 -11.277600 8.940000
-21.630300 -0.118939 46.491500 -10.833600 9.010000
20.167600 1.239250 47.596800 -11.277600 7.920000
-21.812200 0.000000 46.882300 -10.833600 12.450000
-8.715750 2.477790 50.907900 -11.810400 11.820000
-8.789640 2.337360 51.339500 -11.810400 6.520000
10.330600 -1.115350 52.411500 -11.899200 9.380000
10.413900 -1.124350 52.834200 -11.899200 6.960000
20.403100 1.301210 50.297100 -11.366400 7.320000
10.901600 -2.098410 53.146300 -11.899200 6.940000
20.565000 1.311540 50.696200 -11.366400 9.570000
-18.915100 -2.857300 52.649400 -11.188800 6.210000
-20.888900 -2.879280 52.361500 -11.100000 10.890000
20.504300 1.483740 52.571300 -11.455200 7.030000
-21.359300 -2.549850 52.654300 -11.100000 5.460000
20.660800 1.495070 52.972600 -11.455200 9.050000
20.817300 1.506390 53.373900 -11.455200 10.590000
-15.775300 -11.919300 58.815100 -11.544000 8.130000
20.732700 2.661870 60.250300 -11.544000 9.250000
11.607800 0.739607 62.703500 -11.899200 8.250000
20.872700 2.679860 60.657300 -11.544000 5.810000
10.345700 0.744604 63.360700 -11.899200 8.200000
21.012800 2.697840 61.064400 -11.544000 7.470000
10.415200 0.749601 63.785900 -11.899200 10.740000
-12.452600 -5.590160 63.177300 -11.721600 8.310000
20.687600 1.911420 61.659900 -11.632800 9.420000
20.961600 1.936730 62.476600 -11.544000 6.400000
21.098600 1.949390 62.884900 -11.544000 7.470000
-18.165900 1.600700 64.251700 -11.455200 7.110000
-18.282000 1.766900 64.662400 -11.455200 7.860000
20.890000 0.155920 63.891800 -11.544000 7.860000
21.023900 0.156920 64.301400 -11.632800 8.010000
21.043200 1.225980 65.642600 -11.632800 7.930000
21.174700 1.233640 66.052900 -11.632800 9.530000
21.306200 1.241300 66.463200 -11.632800 7.080000
21.048800 1.475140 67.443900 -11.632800 9.780000
21.177100 1.484140 67.855200 -11.632800 13.490000
21.305500 1.493130 68.266400 -11.632800 13.890000
21.962500 1.502130 68.510400 -11.632800 13.860000
-28.404600 1.520120 67.036800 -11.011200 11.480000
21.159800 1.902810 69.203500 -11.632800 6.370000
-28.572700 1.529110 67.433400 -11.011200 7.350000
21.285700 1.914140 69.615500 -11.632800 6.080000
-28.740800 1.538100 67.830100 -11.011200 9.230000
-28.906800 1.776260 68.222000 -11.011200 12.000000
21.671000 0.171912 70.875500 -11.632800 6.180000
21.797000 0.172912 71.287600 -11.632800 11.380000
18.040400 0.229883 97.451000 -11.899200 11.180000
18.118200 0.846559 97.871400 -11.899200 12.620000
18.196600 0.850223 98.295100 -11.899200 8.910000
18.275400 0.543387 98.720900 -11.899200 9.370000
34.672000 1.189370 96.508000 -11.455200 11.440000
34.819500 0.557380 96.918600 -11.455200 5.550000
34.965200 0.559712 97.324200 -11.455200 10.000000
19.869100 2.806370 132.935000 -11.988000 6.190000
19.931400 3.232380 133.352000 -11.988000 6.190000
-8.638240 0.809251 149.270000 -11.988000 13.010000
-7.797650 0.811583 149.748000 -11.988000 14.110000
-7.820060 0.813915 150.178000 -11.988000 10.860000
-7.841730 2.215460 150.595000 -11.988000 5.040000
-8.737000 2.221790 150.977000 -11.988000 7.060000
-8.761900 2.228120 151.407000 -11.988000 9.420000
-6.834160 0.834904 154.108000 -11.988000 7.470000
-6.853250 0.837236 154.539000 -11.988000 7.310000
-6.872340 0.839568 154.969000 -11.988000 6.910000
-6.891280 1.322980 155.397000 -11.988000 6.630000
5.947070 -1.085440 8.390640 -10.212000 8.070000
6.059400 -1.130670 8.834700 -10.300800 9.990000
6.301780 -1.175900 9.188090 -10.300800 9.430000
6.470420 -1.221120 9.591640 -10.300800 5.860000
6.784470 -0.799961 9.417430 -10.034400 6.600000
7.035750 -0.829589 9.766220 -10.034400 4.690000
7.526240 -0.540876 9.414470 -9.679200 7.810000
7.124070 -1.003740 10.217300 -10.212000 4.270000
7.721650 -0.482967 9.813020 -9.768000 6.350000
6.258770 -1.267100 13.185700 -11.100000 6.350000
6.303060 -0.382102 14.639500 -11.277600 8.260000
6.473410 -0.392429 15.035100 -11.277600 6.270000
7.331320 4.742240 14.358800 -11.100000 8.070000
-7.971750 0.999899 14.760200 -10.567200 6.930000
7.090570 4.863840 14.938100 -11.188800 5.210000
-8.177620 0.972321 15.141400 -10.567200 7.020000
7.198120 1.799950 16.033300 -11.188800 4.860000
7.246870 1.843850 16.480700 -11.277600 4.960000
-7.586110 0.487029 16.897500 -10.922400 4.880000
7.295760 1.716660 16.945100 -11.277600 5.720000
-7.895560 0.498355 17.230200 -10.922400 5.920000
7.362930 1.814960 17.377000 -11.277600 6.330000
6.626780 -1.975560 18.115600 -11.544000 4.820000
6.666890 -2.019460 18.557000 -11.544000 10.290000
7.575600 -2.001040 18.675200 -11.366400 13.360000
7.626410 -2.043620 19.116900 -11.455200 13.850000
-7.854340 1.239710 20.486900 -11.277600 4.670000
17.776800 -2.816430 13.346100 -7.636800 4.430000
-8.006900 1.333200 20.884800 -11.277600 6.100000
18.118700 -2.870590 13.602700 -7.636800 4.700000
-7.986360 1.781610 21.321500 -11.277600 8.020000
18.619500 -2.924750 13.645000 -7.636800 6.990000
-7.667820 1.081750 22.854100 -11.455200 7.320000
-7.983800 1.101070 23.201400 -11.455200 6.080000
18.023800 1.487030 17.249400 -8.702400 6.410000
18.334500 1.512670 17.546800 -8.702400 6.360000
-7.560670 1.512670 24.225700 -11.455200 6.590000
18.648600 1.458480 17.847400 -8.702400 7.980000
-7.930960 2.248860 25.412100 -11.544000 9.080000
8.263770 2.034050 25.778200 -11.721600 7.960000
-8.058880 2.285130 25.822000 -11.544000 6.250000
18.078400 1.811110 20.746500 -9.412800 5.610000
18.360900 1.839400 21.070600 -9.412800 4.600000
18.643400 1.867700 21.394800 -9.412800 3.980000
18.432400 1.924300 22.695900 -9.679200 6.470000
18.707200 1.860830 23.034300 -9.679200 8.190000
7.918540 1.057240 28.638700 -11.721600 7.810000
18.615800 1.887800 23.657900 -9.768000 7.950000
8.985230 0.443092 28.790200 -11.721600 14.170000
18.881800 1.914770 23.995800 -9.768000 9.650000
9.113960 0.354811 29.202700 -11.721600 15.380000
9.242330 0.359809 29.614000 -11.721600 12.240000
18.591500 2.065790 25.289300 -10.034400 8.690000
8.790450 0.364806 30.200300 -11.810400 15.600000
18.846200 2.094090 25.635700 -10.034400 11.740000
8.663940 -1.626470 30.643900 -11.721600 9.000000
19.100900 2.122390 25.982200 -10.034400 9.980000
8.783630 -1.448780 31.067200 -11.721600 9.790000
7.194020 0.987355 32.816400 -11.899200 7.820000
7.286250 1.000010 33.237100 -11.899200 7.900000
18.823200 1.672510 29.344500 -10.478400 10.250000
19.055600 1.693160 29.706800 -10.478400 8.230000
19.169700 1.837690 33.164400 -10.656000 7.360000
9.716570 1.126600 37.081700 -11.810400 5.400000
19.385100 1.858340 33.537000 -10.656000 6.500000
9.825740 1.139260 37.498300 -11.810400 5.300000
19.600500 1.878990 33.909600 -10.656000 5.290000
5.792760 1.394330 38.756600 -11.899200 6.560000
19.815900 1.899640 34.282300 -10.656000 5.110000
9.005680 1.287120 38.584900 -11.899200 8.140000
19.230000 1.672660 35.118500 -10.833600 10.400000
9.103570 1.301110 39.004300 -11.899200 12.380000
19.436800 1.690650 35.496100 -10.833600 10.710000
19.643600 1.708630 35.873800 -10.833600 7.820000
-24.977700 1.835120 32.379900 -9.412800 15.420000
-25.240600 1.854430 32.720800 -9.412800 6.290000
-25.503600 1.873750 33.061600 -9.412800 9.880000
10.141600 1.893070 40.948600 -11.899200 6.740000
10.245100 1.912380 41.366400 -11.899200 10.170000
-6.369020 0.632988 42.612000 -11.988000 10.090000
19.661600 2.106120 39.252300 -11.100000 11.670000
19.616200 2.503730 39.733600 -11.100000 9.290000
19.810000 2.389650 40.126200 -11.100000 8.720000
19.890900 1.624160 41.084800 -11.188800 10.840000
20.078500 1.639490 41.472300 -11.188800 7.960000
20.266200 1.654810 41.859900 -11.188800 9.260000
19.902400 2.291950 43.432000 -11.188800 9.670000
-21.551600 -0.865847 43.653900 -10.744800 7.360000
-21.745000 -0.417782 44.045600 -10.744800 9.080000
-21.593400 0.000000 44.601300 -10.744800 8.640000
-21.756100 -2.395200 44.937400 -10.744800 13.170000
-19.924400 -1.792710 46.276400 -11.011200 10.320000
-23.604900 -1.481030 44.523200 -10.567200 7.880000
-23.806600 -1.493690 44.903800 -10.567200 9.020000
-21.350000 -1.664860 46.591300 -10.922400 8.020000
-9.615570 2.298720 50.315000 -11.810400 7.440000
-21.529400 -1.678850 46.982800 -10.922400 7.440000
-9.404180 2.158270 50.799800 -11.810400 8.510000
-9.087480 2.176260 51.294700 -11.899200 6.580000
-9.162580 2.194240 51.718600 -11.899200 8.330000
20.118400 2.194240 48.518300 -11.366400 8.200000
-4.484170 2.212230 52.764300 -11.988000 6.070000
20.283300 2.212230 48.915900 -11.366400 7.010000
9.803020 -0.957795 52.954200 -11.988000 5.810000
11.624300 -0.965457 53.025600 -11.899200 7.460000
11.717600 -0.634663 53.451300 -11.899200 7.420000
11.082200 -0.639660 54.026600 -11.899200 11.390000
-18.792000 -0.816555 52.306900 -11.277600 11.520000
11.168800 -0.644657 54.448700 -11.899200 6.640000
-20.747500 -1.645590 52.007100 -11.100000 8.890000
-20.907100 -1.658250 52.407200 -11.100000 8.580000
20.506900 1.178310 52.578000 -11.455200 6.320000
21.071200 1.187310 52.818500 -11.455200 10.200000
20.398900 1.394160 54.459700 -11.544000 10.340000
20.550000 1.404480 54.863100 -11.544000 7.200000
20.703800 1.049740 55.273700 -11.544000 5.880000
20.572000 1.250270 56.237500 -11.544000 10.270000
-17.962300 -4.806990 58.746200 -11.455200 8.130000
21.111800 2.221730 58.763700 -11.544000 10.110000
21.259600 2.042600 59.175200 -11.544000 8.710000
21.085600 2.267700 60.143800 -11.632800 10.220000
21.230300 2.084570 60.556500 -11.632800 12.350000
21.374900 1.898760 60.968800 -11.632800 5.970000
21.440500 2.140530 62.307200 -11.632800 7.070000
-15.952700 0.359149 64.411600 -11.544000 6.470000
-19.036000 0.361481 64.018300 -11.544000 5.900000
21.019400 -1.412180 64.287600 -11.632800 8.230000
21.153200 -1.421170 64.697000 -11.632800 10.630000
21.287100 -1.430170 65.106500 -11.632800 9.480000
21.552100 1.823530 65.917000 -11.721600 9.930000
21.687300 1.672990 66.330300 -11.721600 10.250000
21.433700 1.846180 66.860900 -11.721600 10.170000
21.698000 1.703970 67.685200 -11.721600 12.400000
21.832300 1.271950 68.104200 -11.721600 13.070000
-28.052100 1.529110 67.651600 -11.100000 9.670000
-28.217100 1.538100 68.049600 -11.100000 8.990000
18.196100 1.159380 98.292000 -11.988000 9.300000
18.275100 0.853888 98.718800 -11.988000 5.190000
18.354100 0.233881 99.145800 -11.988000 5.630000
33.929300 0.237879 96.778700 -11.544000 6.690000
34.819500 0.557380 96.918600 -11.544000 7.090000
34.965200 0.559712 97.324200 -11.544000 8.350000
-17.114400 6.989740 104.814000 -11.899200 5.270000
-17.183700 7.018030 105.239000 -11.899200 5.980000
-17.253000 7.046330 105.663000 -11.899200 6.890000
19.928600 3.962080 133.332000 -12.076800 8.030000
-7.797650 0.811583 149.748000 -12.076800 7.130000
-7.820060 0.813915 150.178000 -12.076800 6.080000
-7.842460 0.816247 150.609000 -12.076800 5.230000
-7.864460 1.754070 151.031000 -12.076800 7.910000
-6.719480 1.289990 151.522000 -12.076800 9.980000
-6.833800 1.789050 154.100000 -12.076800 8.090000
-6.852890 1.794050 154.531000 -12.076800 7.630000
-6.872190 1.319310 154.966000 -12.076800 5.550000
-6.891280 1.322980 155.397000 -12.076800 5.120000
5.598310 -0.505523 8.162430 -10.300800 2.190000
5.368190 -0.711076 8.810540 -10.567200 2.940000
5.841720 -0.527502 8.517320 -10.212000 4.330000
5.662430 -0.740704 9.134280 -10.567200 5.510000
6.281920 -0.740704 8.719840 -10.389600 4.810000
6.153320 -0.549481 8.825050 -10.212000 6.720000
5.886310 -0.839451 9.495410 -10.567200 5.770000
6.104270 -0.839451 9.356780 -10.389600 4.900000
6.534560 -0.735762 9.070520 -10.212000 8.370000
6.617310 -0.839451 9.001260 -10.389600 3.420000
6.187050 -0.907614 9.810890 -10.567200 2.540000
6.880220 -0.656317 9.358890 -10.212000 8.100000
7.165150 -5.450230 11.558400 -11.011200 2.750000
6.441090 -1.350830 13.569800 -11.277600 6.360000
6.436270 -1.389430 14.045600 -11.366400 4.420000
-1.775900 1.902230 15.292600 2.131200 7.920000
-1.825230 1.955070 15.717300 2.131200 5.590000
8.399800 -0.873141 14.028400 -10.833600 8.510000
-1.875270 1.957640 16.148200 2.220000 9.080000
8.509630 -0.896118 14.463600 -10.833600 10.330000
-1.733530 1.957550 16.600400 2.220000 9.540000
-1.876370 2.007740 17.015500 2.220000 9.580000
-8.832250 0.791998 15.280200 -10.478400 6.130000
-0.777367 2.057930 17.529400 2.131200 4.000000
-1.633830 1.076810 17.991700 2.220000 3.100000
-0.800364 1.076810 18.048000 2.220000 3.030000
6.780870 -1.512690 18.103100 -11.632800 7.990000
7.403180 1.557530 17.853800 -11.455200 8.000000
6.788720 -1.546310 18.558300 -11.632800 5.180000
7.567690 1.592140 18.250600 -11.455200 11.560000
6.825320 -1.626750 18.998000 -11.632800 8.900000
7.894200 -1.741050 19.038000 -11.544000 5.310000
8.058670 -1.777320 19.434600 -11.544000 10.360000
-7.547500 1.098960 20.149800 -11.366400 7.720000
7.685240 -1.813590 20.045800 -11.632800 6.100000
-7.856620 1.120940 20.492900 -11.366400 4.680000
-7.844220 1.402370 20.942000 -11.366400 6.140000
8.434890 1.834420 21.143500 -11.632800 5.280000
-7.080250 1.869030 22.086300 -11.544000 3.620000
-7.998780 1.410110 22.264300 -11.455200 3.570000
-8.150460 1.081750 22.686500 -11.455200 3.640000
-6.537820 1.777690 24.950500 -11.810400 8.390000
-7.541780 1.777690 24.665600 -11.632800 5.670000
18.100400 1.482790 19.001900 -9.235200 9.940000
-6.638900 2.212580 25.336200 -11.810400 5.900000
-7.658390 2.212580 25.046900 -11.632800 8.050000
18.393800 1.589580 19.310000 -9.235200 6.840000
-7.589910 2.145920 25.524900 -11.632800 4.670000
18.690500 1.615220 19.621400 -9.235200 5.580000
-6.302470 2.180540 26.314800 -11.899200 5.900000
18.987100 1.640860 19.932900 -9.235200 5.320000
-6.399190 2.385130 26.718600 -11.810400 6.500000
18.175400 1.342140 21.268000 -9.590400 11.120000
7.953050 2.422400 26.746200 -11.899200 5.030000
18.452200 1.450630 21.591900 -9.590400 11.430000
18.942100 1.472610 21.737600 -9.590400 7.070000
9.071470 0.167914 29.668500 -11.899200 9.770000
18.777900 2.259900 25.134500 -10.212000 5.120000
7.142390 -1.410140 30.601600 -11.988000 8.400000
18.838200 2.290860 25.624800 -10.212000 11.040000
5.979430 -1.429460 31.288300 -11.988000 15.450000
8.362610 -1.548620 31.178300 -11.988000 12.260000
18.490100 1.948520 26.958800 -10.389600 18.330000
8.293640 -1.366910 31.651300 -11.988000 14.710000
-12.461300 1.384890 30.719100 -14.296800 11.640000
6.833970 -2.588380 32.364500 -11.988000 7.950000
-12.621400 1.506730 31.113900 -14.296800 9.990000
-15.274100 1.195140 29.915200 -12.787200 9.370000
18.833000 1.241110 29.359700 -10.567200 8.340000
19.067500 1.147210 29.725300 -10.567200 8.130000
-15.366800 2.211430 31.740300 -12.076800 12.800000
18.827800 0.867475 30.901200 -10.744800 8.510000
19.052000 0.877802 31.269000 -10.744800 9.870000
19.276100 0.888129 31.636900 -10.744800 5.740000
6.950860 1.432250 36.371500 -12.076800 10.380000
19.500200 0.898456 32.004800 -10.744800 8.510000
9.704530 1.448900 36.181400 -11.988000 6.010000
10.096600 1.582730 36.516000 -11.988000 10.030000
19.172400 1.719210 33.169100 -10.922400 4.570000
6.974770 1.600720 37.676500 -12.076800 10.790000
19.385100 1.858340 33.537000 -10.922400 7.840000
19.600500 1.878990 33.909600 -10.922400 9.220000
8.904720 1.636690 38.152300 -12.076800 8.240000
19.551100 1.899640 34.434000 -10.922400 6.810000
8.987140 -2.848090 38.505500 -12.076800 7.590000
19.026700 1.672660 35.229100 -11.011200 8.080000
19.228700 1.815800 35.603100 -11.011200 8.260000
19.433300 1.835120 35.981900 -11.011200 12.390000
9.351310 3.064800 41.508500 -12.076800 7.270000
-6.184260 0.370140 43.077700 -12.076800 7.350000
19.442200 1.698710 39.381200 -11.188800 14.830000
19.632800 1.715370 39.767300 -11.188800 13.530000
19.823400 1.732020 40.153400 -11.188800 7.400000
19.886100 1.906470 41.074900 -11.277600 12.250000
20.076200 1.781980 41.467600 -11.277600 8.500000
20.263900 1.798640 41.855100 -11.277600 6.430000
19.974400 2.124870 42.932200 -11.366400 13.140000
19.905200 2.144190 43.438300 -11.366400 5.700000
20.087200 2.014390 43.835500 -11.366400 6.690000
-21.795500 -1.580920 43.512500 -10.833600 8.470000
-21.988400 -1.594910 43.897600 -10.833600 8.650000
10.134300 2.619420 47.994400 -12.165600 12.880000
-22.192200 -0.421447 44.304400 -10.833600 7.510000
-22.700200 -2.549590 44.459400 -10.744800 13.900000
-20.639500 -1.481030 45.973000 -11.011200 10.490000
-23.240800 -2.571570 44.664900 -10.744800 8.150000
-20.815900 -1.493690 46.366000 -11.011200 7.590000
-23.439400 -2.593550 45.046700 -10.744800 9.440000
-21.350000 -1.664860 46.591300 -11.011200 5.720000
-23.638100 -2.615530 45.428400 -10.744800 11.430000
-21.800700 -1.678850 46.857500 -11.011200 9.000000
-8.790820 2.176260 51.346400 -12.076800 8.250000
-8.863470 2.194240 51.770700 -12.076800 6.600000
-8.936120 2.212230 52.195100 -12.076800 10.400000
19.905600 2.212230 49.070800 -11.544000 8.700000
9.011880 -1.734810 52.637600 -12.165600 8.290000
9.391120 -1.748800 53.008700 -12.165600 6.650000
20.244800 0.791235 49.906800 -11.544000 6.600000
-20.110800 -1.427110 50.411200 -11.277600 8.260000
9.465260 -1.930610 53.427100 -12.165600 6.060000
20.115600 0.797565 50.423200 -11.544000 10.830000
9.540380 -1.945930 53.851100 -12.165600 5.710000
-21.615100 -1.352850 52.127900 -11.188800 8.210000
-21.374600 -1.363180 52.692200 -11.188800 9.250000
20.397700 1.529040 54.456600 -11.632800 9.750000
20.550000 1.404480 54.863100 -11.632800 10.740000
20.701100 1.414810 55.266500 -11.632800 7.650000
20.249600 0.694631 56.363900 -11.721600 7.060000
20.721200 1.072730 56.645400 -11.721600 9.640000
20.866500 1.456120 57.042700 -11.721600 7.050000
21.014500 1.466450 57.447200 -11.721600 9.410000
-16.378800 -4.426930 59.236800 -11.810400 14.370000
-16.378800 -4.426930 59.236800 -11.721600 7.510000
20.515700 2.206410 58.518300 -11.810400 14.520000
20.658200 2.221730 58.924700 -11.721600 7.550000
10.967700 -2.237060 61.907600 -12.165600 7.900000
20.795700 2.625900 59.316800 -11.721600 8.130000
12.243000 -2.056590 62.113800 -12.165600 8.440000
11.685200 -1.141690 63.121500 -12.165600 8.230000
20.881900 1.886100 60.684100 -11.810400 10.280000
-18.788600 0.968472 63.186300 -11.721600 6.800000
-18.543500 0.974802 63.707600 -11.721600 6.720000
-18.663000 1.187670 64.118000 -11.721600 7.070000
21.154500 1.210650 64.700900 -11.810400 15.130000
21.543500 2.681300 65.890600 -11.810400 9.290000
21.296100 2.482210 66.431600 -11.810400 7.020000
21.422500 2.931650 66.825700 -11.810400 7.020000
21.181700 0.164916 67.869800 -11.899200 6.810000
21.308700 0.829559 68.276700 -11.899200 8.250000
-27.888800 1.294940 67.257700 -11.188800 6.410000
-28.572700 1.529110 67.433400 -11.188800 6.470000
-28.740800 1.538100 67.830100 -11.188800 6.460000
-1.517790 3.535010 78.760800 -12.254400 10.010000
-1.526080 3.554330 79.191200 -12.254400 8.710000
18.684300 0.230882 97.768300 -12.165600 7.430000
18.765100 0.231882 98.191500 -12.165600 5.380000
18.845800 0.543387 98.613600 -12.165600 6.540000
-17.918000 7.318160 104.658000 -12.076800 7.460000
-17.990600 7.347790 105.081000 -12.076800 5.800000
-18.063100 7.377410 105.505000 -12.076800 5.360000
-8.662950 1.275330 149.697000 -12.254400 6.390000
-8.687840 1.279000 150.127000 -12.254400 7.700000
-7.842050 1.749070 150.601000 -12.254400 5.090000
-7.864460 1.754070 151.031000 -12.254400 8.690000
-7.886860 1.759060 151.461000 -12.254400 9.580000
-6.833800 1.789050 154.100000 -12.254400 5.880000
-6.852890 1.794050 154.531000 -12.254400 6.150000
-6.872190 1.319310 154.966000 -12.254400 6.150000
