VERSION .7
FIELDS x y z velocity intensity
SIZE 4 4 4 4 4
TYPE F F F F F
COUNT 1 1 1 1 1
WIDTH 979
HEIGHT 1
VIEWPOINT 0 0 0 1 0 0 0
POINTS 979
DATA ascii
-8.289700 1.775760 22.131300 -9.856800 4.420000
7.029250 2.086990 22.989400 -10.300800 2.770000
-8.617680 1.659180 22.478000 -9.856800 5.180000
6.977820 1.972870 23.466500 -10.300800 6.110000
-8.785810 0.949280 22.916500 -9.856800 5.300000
6.453600 2.007480 24.061000 -10.389600 6.720000
7.570820 0.746845 24.258200 -10.300800 4.600000
7.701240 0.459742 24.676100 -10.300800 4.880000
7.829990 0.386123 25.088600 -10.300800 3.370000
7.958350 0.392453 25.499900 -10.300800 10.250000
8.260290 -2.180540 25.767300 -10.389600 18.310000
6.718830 1.839400 27.128400 -10.478400 7.530000
-13.804600 1.666500 24.313200 -13.408800 5.920000
5.332240 1.362780 27.901800 -10.478400 4.300000
-14.017000 1.692140 24.687200 -13.408800 5.470000
4.481800 1.472610 28.482300 -10.478400 5.180000
7.199040 1.494590 28.363700 -10.389600 8.170000
8.556470 1.494590 27.984200 -10.389600 6.290000
6.753550 -1.057240 28.935600 -10.478400 5.780000
-13.511700 1.057240 26.463400 -13.675200 6.120000
6.851430 -1.072560 29.355000 -10.478400 7.810000
-7.416520 -0.979329 29.220600 -10.300800 7.690000
-13.707600 1.072560 26.847000 -13.675200 9.970000
6.547090 -1.087880 29.865300 -10.478400 8.270000
-7.522470 -0.993319 29.638000 -10.300800 7.680000
6.814260 -1.103210 30.247100 -10.478400 5.570000
-13.277600 1.941740 27.972700 -13.941600 8.580000
4.885870 -1.215740 31.050100 -10.567200 5.520000
-13.462000 1.968710 28.361200 -13.941600 9.330000
5.124050 -2.389210 31.381400 -10.567200 8.160000
6.663720 -2.022650 31.558300 -10.478400 9.050000
8.182740 0.500061 33.039200 -10.478400 8.490000
18.579300 2.051080 28.964200 -9.235200 6.200000
18.811500 2.076710 29.326200 -9.235200 7.790000
7.090770 -1.802300 34.568100 -10.478400 6.290000
19.040100 2.211430 29.682700 -9.235200 5.420000
7.183500 -1.050650 35.020100 -10.478400 5.950000
6.793560 -0.531710 35.548400 -10.567200 5.230000
7.083000 -0.084957 35.935000 -10.567200 5.970000
7.935270 -0.085956 36.197700 -10.478400 8.370000
7.124000 -1.012050 41.610600 -10.567200 7.290000
19.379200 1.912380 37.955100 -9.679200 7.530000
-16.488200 1.931700 39.763700 -11.011200 8.620000
-23.101300 -4.300110 36.632100 -8.791200 11.280000
19.130400 2.106120 39.514000 -9.768000 6.530000
-23.330000 -4.342690 36.994700 -8.791200 14.200000
19.317900 2.126770 39.901400 -9.768000 12.710000
-23.846000 -4.385260 37.174800 -8.791200 7.520000
19.505500 2.147420 40.288700 -9.768000 9.530000
-26.801300 1.732020 35.874100 -8.436000 6.560000
19.693000 2.168060 40.676100 -9.768000 9.540000
-27.059000 1.748670 36.219000 -8.436000 15.970000
19.245300 2.188710 41.365100 -9.856800 10.110000
-27.319900 1.624160 36.568100 -8.436000 18.780000
19.426800 2.209360 41.755300 -9.856800 8.520000
-27.292300 1.639490 37.124600 -8.347200 13.340000
19.608400 2.230010 42.145600 -9.856800 9.990000
19.790000 2.250660 42.535800 -9.856800 15.730000
-6.150560 2.291950 47.377400 -10.567200 8.380000
19.564000 2.439700 43.577500 -9.945600 13.940000
19.743300 2.312600 43.976800 -9.945600 13.320000
19.919600 2.333250 44.369400 -9.945600 6.890000
19.576500 2.221460 45.468400 -9.945600 6.780000
19.746700 2.240770 45.863800 -9.945600 6.600000
19.914100 2.415840 46.252500 -9.945600 13.060000
19.781200 2.230220 49.584900 -10.034400 9.990000
-11.522300 2.414630 52.560200 -12.076800 7.670000
20.100200 2.266190 50.384700 -10.123200 6.050000
-11.708200 2.284170 53.408300 -12.076800 8.910000
-12.111300 2.302160 53.759800 -12.165600 11.800000
10.513800 0.822885 55.015300 -10.567200 5.620000
10.594700 0.829214 55.438500 -10.567200 6.510000
10.676000 0.659649 55.864000 -10.567200 10.100000
10.756900 0.664647 56.287200 -10.567200 11.240000
-23.644900 -1.026760 52.667300 -9.590400 7.540000
-23.819900 -1.214290 53.057200 -9.679200 14.860000
20.536400 1.456120 57.162400 -10.212000 5.240000
20.829200 1.286250 57.977200 -10.212000 14.290000
20.524300 1.295250 58.542500 -10.212000 8.670000
26.353500 -0.917833 56.643300 -9.856800 6.050000
20.455000 2.431490 59.443500 -10.212000 7.550000
20.595100 2.448140 59.850600 -10.212000 5.780000
20.735200 2.464800 60.257700 -10.212000 6.880000
20.877700 2.283020 60.671900 -10.212000 7.810000
20.546500 2.298340 61.239200 -10.300800 7.450000
18.419300 1.149350 61.944300 -9.235200 7.530000
20.669600 3.318870 61.606200 -10.212000 6.820000
18.543000 0.955812 62.360400 -9.235200 8.580000
20.806500 3.340850 62.014200 -10.212000 8.250000
20.943400 3.362830 62.422200 -10.212000 6.710000
21.086500 2.974820 62.848800 -10.212000 9.870000
20.740600 2.581380 63.435000 -10.300800 6.990000
20.874400 2.598030 63.844300 -10.300800 13.850000
21.010700 2.405600 64.260900 -10.300800 13.440000
21.144500 2.420920 64.670200 -10.300800 8.540000
20.901800 2.436250 65.201400 -10.300800 8.100000
20.524500 2.664650 65.764100 -10.300800 14.690000
21.159600 2.895680 66.005800 -10.300800 18.760000
-4.435660 0.161917 69.664500 -10.656000 13.890000
20.781100 2.697950 66.586200 -10.300800 8.830000
20.914000 2.280440 67.011900 -10.300800 7.410000
-9.202890 2.543500 70.889300 -10.567200 7.480000
21.662800 2.758010 74.424300 -10.389600 17.010000
21.783200 2.773340 74.837800 -10.389600 14.310000
21.903500 2.788660 75.251300 -10.389600 8.360000
22.021400 3.047690 75.656000 -10.389600 14.950000
22.213500 0.729286 82.818700 -10.389600 13.030000
21.951300 1.272310 83.773300 -10.389600 16.380000
21.935700 2.344540 86.425200 -10.389600 5.990000
22.041700 2.355860 86.842700 -10.478400 14.870000
22.141300 3.202360 87.235100 -10.478400 5.870000
22.466900 2.189340 88.517900 -10.478400 7.510000
22.574400 1.915880 88.941600 -10.478400 6.900000
22.892400 1.942870 90.194300 -10.478400 13.300000
22.996700 2.240980 90.605600 -10.478400 14.470000
23.102700 2.251300 91.023100 -10.478400 11.350000
22.576900 2.023820 94.265500 -10.478400 9.740000
22.677200 2.032820 94.684400 -10.478400 9.930000
22.776000 2.344250 95.096800 -10.478400 7.120000
-26.600400 2.873460 94.084000 -10.212000 6.660000
-26.719900 2.582390 94.506600 -10.212000 5.660000
-26.837100 2.593710 94.921100 -10.212000 5.850000
21.231900 1.070110 124.014000 -10.567200 9.750000
21.304700 1.073770 124.439000 -10.567200 6.260000
21.376700 1.469220 124.859000 -10.567200 4.660000
20.482300 1.867310 125.441000 -10.656000 8.990000
-55.169800 -19.869400 118.580000 -9.412800 9.220000
-55.349500 -19.934100 118.966000 -9.412800 5.480000
-55.529200 -19.998800 119.352000 -9.412800 5.830000
22.897300 2.865720 159.496000 -10.656000 4.740000
22.957200 3.373040 159.913000 -10.656000 6.360000
23.018400 3.382030 160.339000 -10.656000 6.060000
-58.882200 -22.324400 157.200000 -9.856800 5.440000
-60.245000 -22.381200 157.140000 -9.768000 5.540000
-59.252300 -20.871700 158.188000 -9.768000 5.510000
-59.402400 -20.924500 158.588000 -9.768000 7.980000
-4.543630 0.000000 181.352000 -10.656000 13.280000
-4.554420 0.000000 181.783000 -10.656000 12.140000
5.729860 -0.474051 3.804830 -5.683200 3.330000
6.085260 -0.548872 4.040830 -5.772000 4.950000
5.185370 -0.413237 5.157640 -7.459200 8.390000
5.437520 -0.437545 5.513670 -7.459200 9.490000
6.436840 -0.316427 5.049310 -6.571200 8.120000
6.703920 0.745354 5.363940 -6.660000 6.550000
5.219940 -1.109680 6.766890 -8.169600 5.760000
6.684660 -0.866230 6.037180 -7.104000 6.900000
5.480940 -1.165160 7.105230 -8.258400 3.750000
6.905540 -0.395683 6.482560 -7.281600 4.810000
5.684390 -1.220640 7.487610 -8.258400 4.490000
6.802170 0.979233 7.140980 -7.725600 5.430000
6.708220 0.237523 7.291460 -7.725600 8.910000
6.852460 0.215874 7.742470 -7.814400 8.350000
5.976620 1.354050 8.859640 -8.702400 5.030000
6.257220 -0.571461 9.275600 -8.613600 8.840000
5.665030 -0.242859 10.159000 -9.057600 8.250000
6.948200 -0.764060 9.300300 -8.436000 8.340000
5.793470 -0.251853 10.580200 -9.057600 11.630000
7.208340 -0.717877 9.648500 -8.436000 9.460000
5.739820 -1.234690 11.031000 -9.235200 7.540000
7.542580 -0.743515 9.935250 -8.436000 12.030000
5.930000 1.436300 11.396500 -9.235200 9.280000
6.643370 1.484170 11.493300 -9.057600 11.460000
6.789050 1.033170 11.957100 -9.057600 8.640000
7.097650 1.021600 12.279200 -9.057600 7.960000
7.216580 1.007360 12.710100 -9.057600 9.710000
7.529450 1.036990 13.026300 -9.057600 9.940000
-9.205750 0.536280 11.933900 -8.080800 7.680000
-9.373890 0.551603 12.347500 -8.080800 4.760000
-8.256880 1.660440 14.542300 -8.880000 8.820000
-8.364670 1.450870 15.000200 -8.880000 6.480000
-8.246000 1.487150 15.553500 -8.968800 8.750000
6.687070 1.356040 16.762300 -9.679200 2.650000
7.567400 1.388320 16.855900 -9.590400 3.190000
7.748450 1.245140 17.259100 -9.590400 5.880000
13.722200 1.836430 14.185100 -7.548000 7.030000
7.173480 1.093860 17.981600 -9.679200 4.510000
14.016400 1.938700 14.489300 -7.548000 4.440000
14.314600 1.979950 14.797500 -7.548000 8.250000
7.101440 -0.532334 18.959000 -9.768000 8.290000
7.252530 -0.543660 19.362300 -9.768000 9.620000
5.581280 -0.183238 20.808700 -10.034400 6.790000
14.490200 2.144950 16.955800 -8.080800 15.530000
14.490200 2.144950 16.955800 -8.080800 9.540000
17.537800 1.312630 15.235900 -7.015200 6.880000
5.677500 4.456270 21.667200 -10.034400 11.010000
17.712200 1.336940 15.689400 -7.104000 12.050000
5.848890 -2.996130 22.321300 -9.945600 4.980000
6.302240 1.556420 22.793100 -10.034400 8.380000
6.862780 1.584720 23.079600 -9.945600 5.320000
17.916500 1.482790 19.175400 -7.814400 10.200000
18.059400 1.507100 19.629600 -7.814400 6.430000
7.685390 0.223550 25.135300 -9.945600 9.410000
18.347400 1.615220 19.942600 -7.814400 6.280000
7.810810 0.392453 25.545500 -9.945600 4.820000
18.638600 1.640860 20.259100 -7.814400 7.000000
7.936800 0.398783 25.957500 -9.945600 11.220000
8.062780 0.405112 26.369500 -9.945600 12.300000
18.440000 1.779930 21.577700 -8.080800 11.760000
5.256920 0.411442 27.507700 -10.123200 17.760000
18.273200 1.779930 21.719200 -8.080800 7.750000
5.330780 1.516510 27.894100 -10.123200 18.550000
7.682940 1.539480 27.786600 -10.034400 15.180000
17.873500 1.494590 23.170400 -8.436000 7.500000
7.580020 1.562460 28.260600 -10.123200 11.000000
18.136300 1.516570 23.511100 -8.436000 7.990000
7.525600 1.585440 28.720200 -10.123200 8.490000
18.402000 1.445380 23.855500 -8.347200 10.010000
4.113610 0.069964 29.881100 -10.123200 5.270000
7.108940 2.103600 29.682100 -10.123200 8.610000
7.222360 -1.007310 30.155600 -10.123200 5.570000
7.145810 -1.021300 30.616300 -10.123200 7.280000
7.237210 -1.700330 31.007900 -10.123200 10.100000
18.592600 1.802300 29.992400 -8.968800 11.480000
18.819300 1.824280 30.358200 -8.968800 8.240000
-6.496180 2.348780 35.091300 -10.123200 8.780000
19.040500 2.041870 30.715000 -8.968800 7.870000
-6.300530 2.377080 35.563700 -10.123200 9.450000
18.546600 1.953080 31.523100 -9.057600 12.940000
-6.375540 2.405370 35.987000 -10.123200 5.810000
18.764800 1.976060 31.894000 -9.057600 13.060000
8.143530 -0.544370 36.147400 -10.123200 12.080000
18.983000 1.999030 32.264900 -9.057600 8.340000
8.520160 -0.434769 36.504700 -10.123200 13.160000
19.201200 2.022010 32.635700 -9.057600 8.340000
19.419400 2.044990 33.006600 -9.057600 16.360000
7.922860 -0.326163 37.521400 -10.123200 7.870000
-6.234180 2.153970 41.709900 -10.123200 9.300000
-6.297800 2.175950 42.135500 -10.123200 11.290000
-6.689250 2.197930 42.510800 -10.123200 6.510000
19.400800 2.461680 44.120900 -9.590400 10.280000
19.574000 2.483660 44.514800 -9.590400 7.070000
19.747200 2.505640 44.908800 -9.590400 6.730000
19.483900 2.086330 45.983300 -9.590400 10.620000
19.651900 2.104320 46.379700 -9.590400 6.230000
19.819800 2.122300 46.776100 -9.590400 9.200000
19.987800 2.140290 47.172500 -9.590400 6.190000
19.738300 2.519080 48.658400 -9.768000 11.220000
19.900100 2.539730 49.057200 -9.768000 19.810000
19.943200 2.081750 49.991000 -9.768000 5.690000
20.102700 2.098410 50.391000 -9.768000 5.320000
20.262300 2.115060 50.790900 -9.768000 11.700000
20.424200 1.961250 51.196700 -9.768000 6.400000
20.334300 2.511210 52.135500 -9.768000 6.310000
20.490800 2.530530 52.536600 -9.768000 7.760000
10.350700 1.363180 55.912500 -10.212000 11.900000
20.647200 2.549850 52.937600 -9.768000 6.230000
10.429100 1.373500 56.336000 -10.212000 6.760000
10.507500 1.383830 56.759600 -10.212000 9.340000
12.779300 1.708880 56.724700 -10.212000 8.660000
20.805900 2.428060 54.269200 -9.768000 11.690000
20.957200 2.627110 54.663800 -9.856800 10.130000
20.382900 1.095720 58.139500 -9.856800 7.070000
20.525500 1.103380 58.546100 -9.856800 8.720000
20.668000 1.111040 58.952600 -9.856800 7.070000
20.341500 2.328990 62.214400 -9.945600 8.010000
20.475300 2.344310 62.623700 -9.945600 6.220000
20.609200 2.359630 63.033000 -9.945600 10.470000
21.233600 2.168510 63.287200 -9.945600 13.470000
21.646600 2.000030 64.518300 -9.856800 10.240000
21.781600 2.224480 64.920400 -9.856800 13.130000
20.657400 2.252460 66.189700 -9.945600 7.910000
20.785700 2.266450 66.600800 -9.945600 14.220000
20.914000 2.280440 67.011900 -9.945600 15.140000
21.561300 2.294430 67.258900 -9.945600 11.440000
21.425000 2.558820 68.649200 -9.945600 7.280000
26.131600 2.558820 66.999100 -9.768000 6.470000
21.550800 2.797880 69.052300 -9.945600 8.360000
21.411700 1.925460 70.027400 -9.945600 7.450000
21.537600 1.936790 70.439300 -9.945600 5.490000
21.663600 1.948120 70.851200 -9.945600 6.830000
21.789500 1.959440 71.263200 -9.945600 12.600000
21.911500 2.434330 71.662100 -9.945600 13.120000
22.039500 2.215220 72.080800 -9.945600 9.070000
22.167400 1.993420 72.498900 -9.945600 7.970000
22.722200 0.176910 72.805700 -9.945600 5.920000
22.028300 2.316490 75.679900 -10.034400 11.540000
21.561500 2.329140 76.261900 -10.034400 14.540000
21.676700 2.588230 76.669100 -10.034400 13.230000
22.619900 1.246990 81.808600 -10.034400 10.300000
22.734700 1.253320 82.223800 -10.034400 6.430000
21.841000 1.532470 83.352400 -10.034400 5.680000
21.950200 1.540130 83.769100 -10.034400 5.310000
22.058100 1.816940 84.180900 -10.034400 6.640000
22.654300 2.096400 84.462200 -10.034400 7.060000
23.545700 2.389840 87.785600 -10.034400 9.010000
-11.804100 -4.114520 90.926400 -10.123200 6.730000
-15.681400 -5.250540 91.593500 -10.123200 15.150000
-14.590700 -3.630580 92.725100 -10.123200 11.450000
-13.939200 -3.647230 93.260600 -10.123200 5.900000
-18.235600 -3.647230 92.516500 -10.123200 5.900000
23.613400 2.050810 95.343200 -10.123200 5.240000
23.717000 2.059800 95.761300 -10.123200 7.780000
23.077000 2.375230 96.353600 -10.123200 6.830000
23.177300 2.385560 96.772500 -10.123200 5.620000
23.274300 2.936750 97.177400 -10.123200 7.580000
19.758300 1.081100 125.566000 -10.212000 10.930000
-54.607600 -14.244900 119.168000 -9.146400 7.510000
-54.767300 -14.698100 119.516000 -9.235200 10.740000
-54.945700 -14.746000 119.906000 -9.235200 9.610000
-4.554420 0.000000 181.783000 -10.300800 6.210000
-3.511850 0.000000 182.237000 -10.300800 5.310000
-3.520160 0.000000 182.668000 -10.300800 5.240000
-46.401500 -18.562100 187.354000 -9.856800 4.280000
-46.504600 -18.603300 187.770000 -9.856800 6.810000
-47.694800 -18.644600 187.914000 -9.856800 7.660000
5.494350 -0.323741 5.464970 -7.459200 8.750000
5.799590 -0.341727 5.768580 -7.548000 7.380000
6.665720 -0.126598 5.460960 -6.748800 7.020000
6.045240 -0.386340 6.129900 -7.459200 5.140000
6.559260 -0.126598 5.588380 -6.926400 4.660000
6.417890 0.796069 7.509920 -8.080800 7.360000
7.120490 1.040220 6.814580 -7.548000 5.250000
6.573240 0.870525 7.936210 -8.169600 6.520000
7.361230 1.085440 7.182120 -7.636800 5.460000
6.684970 1.196910 8.362140 -8.347200 4.810000
6.594880 1.244790 8.970750 -8.524800 8.490000
6.105300 -1.042070 9.848670 -8.968800 12.980000
6.933290 -1.077900 9.280330 -8.436000 10.690000
6.331420 -1.080670 10.213400 -8.968800 12.530000
7.264040 -1.117820 9.568350 -8.436000 9.580000
6.415020 -0.969127 10.172400 -9.235200 8.770000
6.719810 -1.119260 10.475900 -8.880000 9.040000
7.631940 0.144923 9.893690 -8.436000 5.900000
5.666460 -0.936311 11.098100 -9.324000 8.340000
7.555680 0.149920 10.487900 -8.702400 6.900000
5.706480 -0.968598 11.558800 -9.324000 4.130000
6.659720 1.155300 11.521600 -9.057600 5.560000
6.782680 1.192570 11.945900 -9.146400 7.750000
6.520460 1.362410 12.073000 -9.324000 11.300000
6.796090 1.404990 12.411200 -9.324000 11.090000
7.002030 1.447560 12.787300 -9.324000 7.800000
-9.277670 1.536550 11.790500 -7.992000 4.340000
6.634990 1.675680 13.439500 -9.412800 6.540000
-8.950780 1.018750 12.628500 -8.347200 7.010000
6.318270 1.628160 14.073500 -9.590400 4.520000
6.497890 1.575290 14.473600 -9.590400 4.580000
-8.932520 0.923705 13.692000 -8.613600 4.520000
-8.789390 1.908630 15.206000 -8.880000 5.360000
13.922200 -1.899530 11.405900 -6.926400 2.830000
-9.043890 0.965050 15.646300 -8.880000 8.430000
14.140500 -1.944750 11.814200 -7.015200 4.650000
7.058640 0.433738 16.658900 -9.679200 6.350000
-9.135490 0.988028 16.089700 -8.880000 6.430000
7.226710 0.444065 17.055500 -9.679200 6.810000
14.339300 1.632230 12.950400 -7.192800 5.820000
6.843120 -0.720148 19.047500 -9.856800 10.530000
13.829300 1.294490 15.325400 -7.903200 8.660000
6.178510 -0.720148 19.273400 -9.768000 8.640000
7.092950 -1.230650 19.390000 -9.856800 12.870000
14.117400 1.321460 15.644700 -7.903200 11.170000
7.126180 -1.256280 19.835400 -9.856800 10.840000
14.405600 1.348430 15.964000 -7.903200 9.550000
6.852700 0.249867 20.424600 -9.945600 10.700000
17.584200 1.609790 13.793800 -6.571200 5.640000
4.705500 0.254864 21.464700 -10.123200 9.710000
14.502500 1.937920 16.970200 -8.080800 9.840000
4.914870 -1.402370 21.816100 -10.212000 6.970000
14.781400 1.975190 17.296500 -8.080800 7.060000
6.074280 -1.429340 21.968600 -10.123200 7.000000
6.311290 1.815230 22.322600 -10.123200 6.950000
6.908580 1.848840 22.594700 -10.034400 7.520000
6.861350 1.659180 23.074800 -10.034400 6.940000
6.982350 1.764580 23.481700 -10.034400 5.160000
7.096570 2.161530 23.865800 -10.034400 5.140000
17.574800 1.645090 19.476100 -7.903200 8.430000
7.685150 0.304838 25.134500 -10.034400 10.670000
7.810810 0.392453 25.545500 -10.034400 16.890000
18.151000 1.699020 20.114600 -7.903200 8.040000
7.736500 0.398783 26.017900 -10.034400 17.920000
7.859300 0.405112 26.430900 -10.034400 14.600000
6.752770 -1.149130 28.932300 -10.212000 7.140000
7.245890 -1.165780 29.256500 -10.123200 7.090000
7.515730 1.631390 29.611500 -10.123200 9.760000
7.632450 0.000000 30.071300 -10.123200 10.990000
7.738450 0.000000 30.489000 -10.123200 11.220000
7.230370 2.192480 30.978500 -10.212000 10.320000
5.262540 -2.453780 32.229500 -10.212000 5.470000
5.331780 -2.486070 32.653600 -10.212000 6.400000
18.593700 1.780320 29.484200 -8.968800 6.320000
5.158330 -0.728576 34.511900 -10.212000 9.650000
18.820900 1.884150 29.844600 -8.968800 6.950000
-6.619520 2.211430 34.637700 -10.123200 14.860000
19.050500 1.907120 30.208600 -8.968800 6.350000
-6.497470 2.238400 35.098200 -10.123200 15.540000
19.276700 2.041870 30.567300 -8.968800 11.160000
-6.575750 2.265360 35.521100 -10.123200 11.890000
18.518400 1.976060 32.037700 -9.146400 9.370000
6.744480 -0.658963 36.432500 -10.212000 15.220000
18.733800 1.999030 32.410200 -9.146400 9.580000
8.027280 -0.318834 36.617400 -10.212000 18.250000
18.949100 2.022010 32.782700 -9.146400 9.710000
7.834120 0.000000 37.101100 -10.212000 16.830000
19.164400 2.044990 33.155300 -9.146400 9.140000
7.923030 0.207560 37.522200 -10.212000 10.550000
18.593500 2.575170 34.427100 -9.324000 6.160000
19.002500 2.481110 34.703000 -9.324000 7.710000
19.546600 2.105550 42.655600 -9.590400 9.590000
19.725900 2.124870 43.046900 -9.590400 11.290000
19.403800 2.312600 44.127700 -9.590400 5.560000
19.577000 2.333250 44.521700 -9.590400 13.310000
19.750300 2.353900 44.915700 -9.590400 10.930000
19.920500 2.527610 45.302700 -9.590400 13.390000
19.651900 2.104320 46.379700 -9.768000 17.380000
19.817200 2.279410 46.769900 -9.768000 16.770000
19.985100 2.298720 47.166200 -9.768000 10.170000
20.424700 2.477790 47.438500 -9.679200 11.510000
19.738300 2.519080 48.658400 -9.768000 13.170000
19.613200 2.703450 49.163900 -9.768000 21.340000
-11.804400 1.790770 53.847400 -11.455200 22.330000
20.341900 1.991900 52.155000 -9.856800 18.900000
20.498400 2.007220 52.556200 -9.856800 8.910000
10.673700 1.363180 55.851700 -10.212000 8.450000
20.654900 2.022540 52.957400 -9.856800 7.710000
10.429800 1.196300 56.340000 -10.212000 6.600000
10.508800 1.026760 56.767000 -10.212000 7.980000
7.487830 1.034420 57.678300 -10.300800 9.970000
10.593200 1.972650 59.793800 -10.300800 8.490000
20.827700 1.476770 57.973200 -9.945600 7.930000
20.973400 1.487100 58.378600 -9.945600 6.080000
21.119000 1.497430 58.784000 -9.945600 6.110000
21.264700 1.507750 59.189400 -9.945600 6.370000
20.741800 1.873440 60.276800 -9.945600 11.150000
20.879900 2.084570 60.678200 -9.945600 7.400000
21.020100 2.098560 61.085500 -9.945600 14.490000
21.162200 1.911420 61.498600 -9.945600 13.330000
21.295600 2.531410 61.886300 -9.945600 7.370000
21.435700 2.548070 62.293500 -9.945600 16.930000
21.575800 2.564720 62.700600 -9.945600 9.140000
21.226300 2.787770 63.265400 -9.945600 5.750000
20.765300 2.841730 64.775900 -10.034400 11.200000
20.655200 2.466890 66.182700 -10.034400 7.860000
20.783500 2.482210 66.593800 -10.034400 12.180000
20.909400 2.714610 66.997200 -10.034400 8.160000
21.037700 2.731260 67.408200 -10.034400 5.660000
21.168400 2.528180 67.827000 -10.034400 5.370000
21.414400 1.529110 70.036300 -10.034400 19.860000
21.540400 1.538100 70.448300 -10.034400 16.150000
21.664800 1.776260 70.855400 -10.034400 7.020000
21.358500 2.434330 71.828800 -10.034400 6.570000
21.483300 2.215220 72.248500 -10.034400 6.200000
21.606100 2.227880 72.661400 -10.034400 10.100000
22.501000 2.024110 81.378700 -10.123200 6.640000
22.617400 1.771970 81.799600 -10.123200 11.050000
22.732200 1.780960 82.214800 -10.123200 10.690000
22.848400 1.524810 82.634900 -10.123200 7.960000
21.947300 2.075740 83.758300 -10.123200 10.980000
22.058100 1.816940 84.180900 -10.123200 13.280000
22.167300 1.825940 84.597600 -10.123200 11.680000
-11.229600 -3.248330 90.599700 -10.212000 5.950000
-12.509200 -3.263650 90.866700 -10.212000 10.590000
-13.621000 -3.563960 91.131400 -10.212000 12.030000
-14.912300 -4.439370 91.327600 -10.123200 8.990000
22.672300 2.860800 94.664200 -10.123200 6.050000
22.774600 2.571060 95.091200 -10.123200 7.280000
22.875000 2.582390 95.510100 -10.123200 5.980000
22.971100 3.203800 95.911600 -10.123200 8.130000
23.815500 2.911430 96.159000 -10.123200 8.450000
23.919000 2.924090 96.577000 -10.123200 8.430000
23.276300 2.627690 97.185800 -10.123200 12.980000
23.376600 2.639020 97.604700 -10.123200 12.780000
23.484200 0.857553 98.053900 -10.123200 7.610000
22.099500 0.293850 124.742000 -10.300800 8.380000
23.860800 0.294850 124.856000 -10.212000 6.090000
18.854300 0.000000 126.145000 -10.300800 9.940000
-55.231500 -11.366700 118.713000 -9.235200 11.340000
-55.365600 -12.622200 119.001000 -9.235200 8.510000
-54.855500 -12.663500 119.709000 -9.235200 4.930000
-55.017500 -13.113200 120.062000 -9.235200 4.730000
-55.124100 -14.793800 120.295000 -9.235200 4.790000
-60.464500 -12.166300 157.713000 -9.590400 7.730000
-59.397900 -12.197300 158.577000 -9.590400 6.650000
-59.548700 -12.228200 158.979000 -9.590400 5.040000
-4.467600 2.620570 178.317000 -10.300800 4.660000
-4.478390 2.626900 178.748000 -10.300800 4.950000
-4.489180 2.633230 179.179000 -10.300800 6.820000
-4.554360 0.984161 181.780000 -10.300800 5.000000
-4.565150 0.986493 182.211000 -10.300800 5.890000
-4.575940 0.988825 182.642000 -10.300800 6.870000
-47.451700 -15.093300 186.957000 -9.945600 5.120000
-47.557400 -15.126900 187.373000 -9.945600 6.650000
-46.553400 -16.358600 187.967000 -9.945600 7.470000
5.135600 -0.681206 4.549100 -7.104000 3.440000
6.411000 0.918213 7.501860 -8.080800 7.590000
5.809640 -0.516206 9.056950 -8.968800 9.610000
6.592560 -1.279220 8.967600 -8.613600 7.920000
5.970110 -0.502242 9.466880 -8.968800 13.430000
6.846120 -1.328420 9.312510 -8.613600 9.680000
5.790400 -0.466313 10.574600 -9.235200 12.770000
5.988730 -0.820657 10.936800 -9.235200 11.170000
6.420300 1.585190 11.107400 -9.146400 7.630000
6.729400 1.525220 11.437800 -9.146400 6.670000
6.898420 0.330467 11.934600 -9.235200 7.240000
-8.378740 1.448740 11.397300 -8.258400 6.090000
-8.632640 1.492640 11.742600 -8.258400 7.960000
6.758260 0.520958 12.988200 -9.412800 5.480000
-8.979450 1.536550 12.019200 -8.258400 7.470000
6.334520 1.397280 13.615200 -9.501600 3.170000
-7.946820 1.660440 14.714000 -9.057600 6.420000
-8.150580 1.703010 15.091300 -9.057600 8.430000
13.820400 1.788170 11.546800 -7.015200 7.760000
6.797890 0.699469 16.758000 -9.768000 7.160000
-8.916460 1.188540 15.704000 -8.968800 9.730000
14.149500 1.830740 11.821700 -7.015200 6.830000
7.087840 0.945108 17.093300 -9.768000 9.370000
-9.128750 1.216840 16.077900 -8.968800 9.190000
7.387270 0.967087 17.434400 -9.768000 9.170000
5.903930 -0.413759 18.917200 -10.123200 7.270000
14.292900 1.938700 14.216500 -7.636800 7.310000
5.920800 -0.360131 19.364100 -10.034400 12.380000
6.047080 -0.303834 19.777100 -10.034400 13.830000
7.892640 -1.788850 19.034200 -9.768000 11.680000
6.170470 -0.685530 20.180700 -10.034400 12.380000
7.907070 -1.826120 19.492300 -9.679200 10.440000
7.280680 -0.699521 20.265500 -9.945600 12.240000
8.068440 -1.863390 19.890100 -9.679200 9.720000
7.119840 2.036040 20.690600 -10.034400 12.180000
5.067930 2.213920 21.713600 -10.212000 9.630000
7.381270 2.075960 21.054000 -10.034400 10.140000
7.518740 2.256490 21.446100 -10.123200 4.680000
7.811960 2.115880 21.355500 -9.945600 8.900000
-8.583780 0.335484 21.160500 -9.590400 8.760000
5.566500 2.299070 22.475700 -10.123200 6.360000
6.737360 1.702660 22.657800 -10.123200 3.860000
6.859860 1.733620 23.069700 -10.123200 5.750000
-8.428140 1.176950 23.039900 -9.768000 5.770000
-8.441550 1.120390 23.496700 -9.768000 7.410000
17.769500 7.104840 18.018400 -7.992000 4.800000
7.491200 0.304838 25.193000 -10.123200 7.110000
18.041500 1.919370 19.610100 -7.992000 5.540000
7.614010 0.309835 25.606000 -10.123200 9.330000
18.328300 2.034050 19.921800 -7.992000 12.190000
7.736810 0.314833 26.019000 -10.123200 13.270000
7.859860 0.234544 26.432800 -10.123200 17.880000
6.485440 -3.025870 27.078800 -10.212000 12.670000
5.328920 1.692140 27.884400 -10.212000 18.900000
5.790950 1.717780 28.231300 -10.212000 7.050000
6.821770 -0.860771 28.483000 -10.212000 15.530000
6.917120 -1.424730 28.881200 -10.300800 9.400000
-7.750680 0.993319 29.579200 -10.034400 8.490000
-7.859840 1.007310 29.995800 -10.034400 6.500000
7.972350 -0.462081 30.425100 -10.212000 6.490000
7.426090 -0.468411 31.006300 -10.212000 6.890000
4.828460 -2.352770 32.304900 -10.389600 8.250000
4.702720 -2.383730 32.757700 -10.300800 7.380000
18.306700 2.076580 27.593800 -8.880000 5.740000
4.765820 -2.207290 33.197300 -10.300800 5.000000
18.324800 2.207290 28.088700 -8.968800 6.170000
6.377340 -2.130520 33.370400 -10.300800 8.330000
18.559700 2.235580 28.448800 -8.968800 8.330000
18.141900 1.651860 29.265400 -9.057600 8.010000
18.365900 1.780320 29.626600 -9.057600 8.050000
-6.417910 2.320480 34.668500 -10.212000 10.580000
18.592600 1.802300 29.992400 -9.057600 9.170000
-6.496180 2.348780 35.091300 -10.212000 6.430000
18.819300 1.824280 30.358200 -9.057600 9.140000
-6.300530 2.377080 35.563700 -10.212000 14.420000
19.043800 1.930100 30.720200 -9.057600 8.790000
-6.375540 2.405370 35.987000 -10.212000 16.710000
7.164290 -0.888129 36.347400 -10.300800 11.570000
18.523500 1.775750 32.046500 -9.235200 14.390000
7.249660 0.086956 36.780500 -10.300800 13.290000
18.738900 1.796400 32.419100 -9.235200 6.280000
7.332990 0.087955 37.203300 -10.300800 11.040000
7.706090 0.088955 37.567800 -10.300800 10.980000
8.546290 -0.095951 40.473800 -10.300800 9.040000
8.398780 -0.096950 40.944700 -10.300800 6.370000
8.485080 0.359146 41.365400 -10.300800 6.380000
8.571660 0.362811 41.787500 -10.300800 8.310000
-24.943600 -1.482980 38.234300 -8.613600 6.630000
19.571400 1.765330 41.232100 -9.679200 7.070000
-24.880700 -1.496970 38.787900 -8.613600 7.840000
19.192900 1.781980 41.883800 -9.679200 6.780000
19.367200 2.086240 42.264300 -9.679200 7.480000
19.546600 2.105550 42.655600 -9.679200 7.320000
19.725900 2.124870 43.046900 -9.679200 6.950000
19.907900 1.996400 43.444100 -9.679200 7.130000
19.403800 2.312600 44.127700 -9.768000 4.950000
19.574000 2.483660 44.514800 -9.768000 16.380000
19.747200 2.505640 44.908800 -9.768000 7.790000
19.920500 2.527610 45.302700 -9.768000 19.040000
19.478500 2.395200 45.970500 -9.768000 8.090000
19.646400 2.415840 46.366800 -9.768000 10.970000
19.814300 2.436490 46.763100 -9.768000 12.570000
19.982300 2.457140 47.159400 -9.768000 17.070000
20.150200 2.477790 47.555700 -9.768000 16.970000
19.947900 2.498440 48.107200 -9.856800 12.220000
20.123200 1.869320 48.529900 -9.856800 6.340000
20.288100 1.884640 48.927700 -9.856800 20.390000
20.388400 2.433940 50.260900 -9.856800 5.740000
20.550200 2.453260 50.659800 -9.856800 9.680000
20.712000 2.472580 51.058700 -9.856800 6.250000
-11.298900 1.945930 53.509800 -11.632800 8.300000
-11.387900 1.961250 53.931100 -11.632800 5.720000
-11.895400 1.976580 54.262400 -11.632800 5.200000
-11.987600 1.991900 54.683000 -11.632800 9.420000
10.676600 0.307842 55.866900 -10.300800 10.120000
10.757200 0.487413 56.289000 -10.300800 6.230000
10.838500 0.133932 56.714100 -10.300800 7.970000
7.886310 -11.877000 57.285900 -10.300800 7.640000
11.403500 -0.892513 59.670500 -10.300800 11.980000
11.479500 -1.986640 60.068500 -10.389600 7.790000
8.751630 -2.000630 60.961200 -10.389600 5.820000
20.379100 1.619660 58.128600 -9.945600 5.550000
20.521600 1.630980 58.535100 -9.945600 7.020000
20.664100 1.642310 58.941600 -9.945600 5.860000
20.806700 1.653630 59.348100 -9.945600 5.690000
21.071500 3.252930 60.103500 -9.945600 9.010000
21.213900 3.274910 60.509600 -9.945600 13.860000
21.356300 3.296890 60.915700 -9.945600 7.170000
17.933800 1.172340 63.430800 -9.146400 9.430000
20.604200 2.769780 63.017900 -10.034400 8.280000
18.048700 1.590370 63.837100 -9.146400 9.320000
20.738000 2.787770 63.427100 -10.034400 8.760000
21.238700 1.600700 63.302400 -9.057600 7.000000
20.990500 3.816360 64.199200 -10.034400 6.620000
21.120400 4.050870 64.596500 -10.034400 7.800000
21.257900 3.864980 65.017000 -10.034400 13.110000
21.409700 2.664650 65.481300 -10.034400 6.140000
21.162200 2.681300 66.014000 -10.034400 6.040000
21.293700 2.697950 66.424000 -10.034400 6.370000
21.427600 2.497530 66.841700 -10.034400 12.300000
21.559000 2.512860 67.251800 -10.034400 15.400000
21.422500 2.781220 68.641300 -10.123200 14.210000
21.409800 2.151930 70.021400 -10.123200 11.520000
21.537600 1.936790 70.439300 -10.123200 17.140000
21.661700 2.177240 70.845100 -10.123200 14.590000
21.237800 2.189900 71.422800 -10.123200 6.960000
21.485200 1.982100 72.254800 -10.123200 5.920000
22.168700 1.817570 72.503200 -10.123200 9.540000
21.876000 1.501820 81.560200 -10.212000 12.720000
21.988700 1.246990 81.980500 -10.212000 6.800000
22.099200 1.517150 82.392500 -10.212000 6.760000
22.210800 1.524810 82.808600 -10.212000 8.870000
22.055200 2.287900 84.170100 -10.212000 6.490000
-11.812600 -2.199670 90.991800 -10.300800 6.460000
-13.100000 -2.210000 91.250600 -10.300800 6.190000
-13.751300 -3.021930 92.003300 -10.212000 13.070000
-17.542700 -3.035920 91.794800 -10.212000 9.040000
23.104300 1.960860 91.029400 -10.212000 11.730000
23.210300 1.969850 91.447000 -10.212000 5.950000
23.316300 1.978850 91.864500 -10.212000 5.900000
23.422300 1.987840 92.282100 -10.212000 5.320000
23.632600 2.302940 93.110800 -10.212000 8.650000
23.196200 2.537080 93.658500 -10.212000 8.700000
22.674300 2.559730 94.672300 -10.212000 6.400000
22.776000 2.344250 95.096800 -10.212000 6.690000
22.876300 2.354580 95.515700 -10.212000 6.910000
22.976600 2.364900 95.934600 -10.212000 8.360000
23.079900 1.762340 96.366000 -10.212000 10.530000
23.178900 2.077790 96.779200 -10.212000 9.540000
23.280600 1.777670 97.204000 -10.212000 6.380000
22.917800 0.233881 98.191300 -10.212000 11.770000
23.015700 0.234880 98.610900 -10.212000 10.640000
23.113600 0.235880 99.030500 -10.212000 6.170000
20.414400 1.077440 125.024000 -10.389600 7.180000
19.757700 1.474220 125.562000 -10.389600 8.830000
19.823900 1.873640 125.982000 -10.389600 11.650000
19.890800 1.879970 126.408000 -10.300800 16.240000
-55.061400 -11.026600 118.347000 -9.324000 16.100000
-55.242500 -11.062900 118.736000 -9.324000 11.420000
-55.441300 -10.591200 119.163000 -9.324000 7.980000
-55.212800 -12.745900 120.489000 -9.235200 8.410000
-55.391500 -12.787200 120.879000 -9.235200 7.100000
-55.570200 -12.828400 121.268000 -9.235200 7.530000
-59.316100 -9.030110 158.358000 -9.679200 9.160000
-59.457000 -9.577360 158.734000 -9.679200 6.830000
-60.726400 -18.434500 158.396000 -9.590400 9.060000
-5.498290 2.620570 178.289000 -10.389600 12.570000
-5.511570 2.626900 178.719000 -10.389600 11.720000
-4.554260 1.546530 181.776000 -10.389600 6.090000
-4.565050 1.550190 182.207000 -10.389600 7.060000
5.316230 -0.701234 4.990590 -7.459200 2.650000
5.316230 -0.701234 4.990590 -7.548000 4.130000
6.233610 -2.113880 7.409160 -8.347200 5.460000
6.233890 1.519140 8.653180 -8.702400 6.200000
5.645030 -1.006230 10.123100 -9.235200 8.690000
5.630300 -1.043500 10.619800 -9.412800 7.000000
6.889720 0.680625 9.881170 -9.146400 7.350000
5.958640 1.493990 10.881900 -9.412800 7.000000
6.573520 0.704933 10.604000 -9.146400 7.510000
6.084710 4.809030 10.342000 -9.501600 4.000000
6.680370 1.505810 10.964200 -9.235200 6.130000
6.709720 0.575540 12.032400 -9.324000 5.390000
6.459720 0.637461 12.651700 -9.501600 6.120000
6.919390 0.593525 12.408400 -9.324000 6.180000
-8.466340 1.448740 11.332400 -8.169600 4.540000
6.655470 0.656779 13.035100 -9.412800 5.640000
-8.823110 1.312240 11.622000 -8.258400 6.700000
-9.097690 1.036990 11.983700 -8.258400 7.530000
6.203260 1.771220 14.107300 -9.679200 4.320000
-9.052980 0.875089 12.566300 -8.347200 5.280000
-9.363200 0.922984 12.333400 -8.169600 5.480000
6.491620 1.722420 14.459600 -9.679200 5.290000
-9.841650 0.948623 12.507200 -8.080800 3.330000
6.673510 1.617860 14.864800 -9.679200 4.360000
-8.572400 1.453690 15.872300 -9.057600 8.010000
7.215980 1.102450 17.030200 -9.856800 9.670000
-8.776510 1.488300 16.250200 -9.057600 6.670000
7.382390 1.186620 17.422900 -9.856800 10.720000
-8.859870 1.303640 16.711400 -9.146400 3.670000
7.412620 1.213590 17.876600 -9.856800 9.930000
13.858200 1.836430 14.052300 -7.725600 7.620000
14.020500 1.876350 14.493500 -7.725600 5.200000
7.223830 -1.916270 19.285700 -9.945600 13.930000
13.996400 0.671540 15.213300 -7.992000 5.610000
7.374330 -1.956190 19.687500 -9.945600 12.890000
7.218080 -2.086190 19.732000 -9.768000 9.380000
14.288000 0.685530 15.530200 -7.992000 5.970000
17.421000 -2.897060 13.078900 -6.660000 5.320000
17.762600 -2.953870 13.335300 -6.660000 8.030000
4.794500 -0.866010 21.870700 -10.300800 9.840000
4.886700 -0.882664 22.291300 -10.300800 8.640000
6.734230 1.848840 22.647300 -10.123200 4.710000
6.723260 1.882460 23.098300 -10.123200 3.840000
-8.276600 1.361250 22.625700 -9.768000 5.820000
6.980760 1.840340 23.476400 -10.123200 5.850000
-8.424390 1.385560 23.029700 -9.768000 8.450000
-8.752550 1.409870 23.367000 -9.768000 6.560000
7.613700 0.392453 25.604900 -10.123200 4.710000
7.736500 0.398783 26.017900 -10.212000 16.650000
7.858900 0.490391 26.429600 -10.123200 5.940000
6.352320 -1.839400 27.216600 -10.212000 18.000000
7.353120 -1.779930 27.414600 -10.212000 14.810000
7.469460 -1.472610 27.848400 -10.212000 9.420000
6.717110 -1.371510 29.815900 -10.300800 7.810000
6.813480 -1.199090 30.243600 -10.300800 10.620000
7.143350 -1.312950 30.605700 -10.300800 7.900000
17.952300 2.065790 25.747000 -8.791200 12.260000
7.419430 -1.429460 30.978400 -10.300800 12.010000
18.398800 2.094090 25.958700 -8.791200 9.010000
18.647500 2.122390 26.309500 -8.791200 10.260000
5.078410 -2.251740 32.273800 -10.300800 8.630000
5.145230 -2.281370 32.698400 -10.389600 6.880000
18.303000 2.178990 27.588400 -8.968800 9.660000
4.754200 -3.217420 33.116300 -10.389600 10.100000
18.540700 2.207290 27.946600 -8.968800 11.680000
5.267100 -3.258670 33.472900 -10.389600 10.430000
18.778400 2.235580 28.304900 -8.968800 13.000000
4.757030 -1.241110 34.554900 -10.300800 9.980000
18.588200 1.968950 29.475600 -9.057600 6.410000
7.928080 -1.241110 33.967900 -10.300800 8.660000
18.817700 1.993260 29.839500 -9.057600 7.130000
-6.698920 2.348780 35.053100 -10.212000 7.260000
19.047200 2.017570 30.203400 -9.057600 10.170000
-6.574450 2.377080 35.514000 -10.212000 13.960000
-6.861700 2.292330 35.904900 -10.212000 8.540000
18.546600 1.953080 31.523100 -9.235200 15.470000
-7.152300 2.319300 36.286600 -10.212000 10.750000
18.764800 1.976060 31.894000 -9.235200 6.010000
6.823520 -0.434769 36.859500 -10.389600 7.960000
18.483400 1.999030 32.553600 -9.324000 15.590000
18.695900 2.022010 32.927800 -9.324000 15.810000
8.095140 1.515520 38.337300 -10.300800 11.400000
7.926390 0.359146 41.476100 -10.389600 6.950000
-6.872500 1.022380 42.089500 -10.300800 8.040000
-6.941920 1.032710 42.514600 -10.300800 5.440000
-7.011340 1.043040 42.939700 -10.300800 10.290000
-22.498800 -3.699730 37.574900 -8.791200 8.180000
-23.011200 -3.736000 37.767100 -8.702400 8.570000
19.197200 2.008970 40.443700 -9.679200 8.020000
-24.387500 -4.013900 37.381800 -8.613600 8.150000
19.381700 2.028290 40.832600 -9.679200 7.850000
-24.309000 -4.470410 37.896600 -8.613600 14.460000
19.566300 2.047600 41.221500 -9.679200 8.750000
19.367200 2.086240 42.264300 -9.679200 6.720000
19.546600 2.105550 42.655600 -9.679200 13.150000
19.725900 2.124870 43.046900 -9.679200 6.810000
19.905200 2.144190 43.438300 -9.679200 8.710000
19.403800 2.312600 44.127700 -9.768000 8.940000
19.577000 2.333250 44.521700 -9.768000 18.670000
19.750300 2.353900 44.915700 -9.768000 17.460000
19.923500 2.374550 45.309700 -9.768000 11.200000
19.651900 2.104320 46.379700 -9.856800 6.090000
19.817200 2.279410 46.769900 -9.856800 12.330000
19.985100 2.298720 47.166200 -9.856800 7.010000
19.743800 2.194240 48.671900 -9.856800 17.750000
-25.592100 -1.544320 45.893900 -9.057600 13.420000
19.908100 2.048450 49.076900 -9.856800 9.880000
-26.157700 -1.556980 46.069800 -8.968800 11.740000
-26.370300 -1.569640 46.444300 -8.968800 9.440000
-11.389100 1.790770 53.936800 -11.721600 8.810000
-11.478100 1.804760 54.358200 -11.721600 8.640000
-11.987600 1.991900 54.683000 -11.721600 9.760000
-4.346280 0.305510 56.279500 -10.389600 9.950000
-12.399500 1.832740 55.038700 -11.721600 6.260000
10.353500 0.307842 55.927700 -10.389600 6.860000
10.431700 0.487413 56.350200 -10.389600 11.360000
10.837800 0.669644 56.710400 -10.389600 9.150000
12.015600 1.214290 56.904100 -10.389600 5.850000
8.022360 4.969250 58.274200 -10.389600 6.270000
8.420100 5.005520 58.651800 -10.389600 15.080000
20.709000 2.331560 56.612100 -10.034400 10.110000
20.856900 2.348220 57.016400 -10.034400 7.340000
20.276600 1.873440 60.434800 -10.034400 11.940000
20.413600 1.886100 60.843200 -10.034400 6.530000
20.548600 2.098560 61.245700 -10.034400 9.110000
20.820400 2.328990 62.055800 -10.034400 7.470000
20.955000 2.548070 62.456800 -10.034400 7.060000
7.653470 1.180000 65.905200 -10.389600 6.740000
21.092000 2.564720 62.865100 -10.034400 5.560000
21.228900 2.581380 63.273300 -10.034400 9.520000
21.368300 2.390280 63.688800 -10.034400 9.220000
21.010700 2.405600 64.260900 -10.123200 6.680000
21.144500 2.420920 64.670200 -10.123200 11.310000
21.275900 2.647990 65.072000 -10.123200 6.150000
21.409700 2.664650 65.481300 -10.123200 17.910000
20.650300 2.895680 66.166900 -10.123200 19.210000
20.778500 2.913670 66.577900 -10.123200 7.970000
20.906800 2.931650 66.988900 -10.123200 11.820000
21.035000 2.949640 67.399800 -10.123200 14.250000
21.165900 2.747920 67.819200 -10.123200 7.930000
20.899500 2.764570 68.352200 -10.123200 10.700000
21.027800 2.558820 68.771900 -10.123200 5.800000
21.153700 2.574150 69.183700 -10.123200 17.290000
21.281800 2.364380 69.602800 -10.123200 18.600000
20.867500 2.378370 70.177600 -10.123200 8.400000
20.990300 2.392360 70.590400 -10.123200 15.400000
21.110800 2.635430 70.995700 -10.123200 6.060000
21.513300 1.509480 82.102100 -10.212000 7.860000
21.288700 -3.615110 83.875900 -10.212000 6.770000
22.043600 -3.633090 84.125800 -10.212000 5.630000
-12.509200 -3.263650 90.866700 -10.300800 5.560000
-14.850600 -3.278970 90.949800 -10.300800 7.150000
22.576200 2.251300 91.155100 -10.300800 7.530000
22.679700 2.261630 91.573300 -10.300800 7.640000
22.783300 2.271960 91.991400 -10.300800 4.970000
22.173900 2.282290 92.583200 -10.300800 5.490000
22.989100 2.514430 92.822300 -10.300800 8.760000
23.094000 2.302940 93.245800 -10.300800 10.580000
23.197500 2.313270 93.664000 -10.300800 9.280000
23.844500 2.323590 93.945900 -10.212000 5.330000
22.675600 2.333920 94.677800 -10.300800 6.590000
22.776000 2.344250 95.096800 -10.300800 9.800000
22.876300 2.354580 95.515700 -10.300800 13.490000
22.976600 2.364900 95.934600 -10.300800 12.300000
-12.869500 0.850223 99.133300 -10.300800 6.010000
-12.925300 0.543387 99.562800 -10.300800 6.300000
19.692000 0.293850 125.144000 -10.389600 13.060000
19.759000 0.294850 125.570000 -10.389600 13.040000
19.825900 0.295849 125.996000 -10.389600 8.790000
-54.838900 -13.070600 119.673000 -9.324000 6.410000
-54.090500 -13.113200 120.483000 -9.324000 4.770000
-59.535100 -12.753200 158.943000 -9.679200 7.850000
-5.485010 2.614240 177.858000 -10.478400 5.300000
-5.498290 2.620570 178.289000 -10.478400 5.750000
-5.511570 2.626900 178.719000 -10.478400 5.860000
-4.565050 1.550190 182.207000 -10.478400 4.090000
5.438450 -0.413593 5.514610 -7.814400 1.550000
-2.324710 1.165160 8.667220 2.397600 6.310000
-2.505320 1.220640 9.060910 2.397600 5.730000
-3.124940 1.306520 9.313950 2.397600 2.100000
-2.389620 1.299890 9.977410 2.486400 9.350000
-2.441600 0.807165 10.461100 2.486400 10.610000
6.322770 -3.730130 8.463150 -8.968800 9.650000
6.707930 -3.839650 8.695850 -8.880000 4.670000
6.708930 -1.842830 11.403000 -9.235200 9.810000
6.537020 0.948101 12.103700 -9.501600 7.730000
6.739830 1.021600 12.479200 -9.501600 7.760000
6.921310 1.582760 12.815200 -9.501600 7.720000
7.122450 1.675680 13.187700 -9.501600 4.390000
-8.780120 1.350830 12.187600 -8.436000 2.780000
6.192120 1.997420 14.082000 -9.856800 5.760000
-8.341840 1.389430 13.004500 -8.791200 6.420000
-9.030980 1.389430 12.535800 -8.436000 4.500000
6.862010 1.869630 14.749000 -9.856800 9.430000
6.397030 1.867180 15.427300 -9.945600 11.230000
-8.254300 1.712150 14.537800 -9.057600 9.510000
6.438910 1.915060 15.873000 -9.945600 4.640000
-8.468590 1.703010 14.915200 -9.057600 6.330000
7.100010 0.996629 16.146700 -9.856800 4.380000
-7.891830 1.269260 15.755200 -9.324000 7.350000
6.792140 1.020940 16.743800 -9.945600 6.560000
-9.037220 1.188540 15.634800 -9.057600 4.160000
6.725010 0.887874 17.242400 -10.034400 4.730000
-8.656620 1.331170 16.328000 -9.235200 4.170000
-9.252400 1.216840 16.007000 -9.057600 5.220000
6.880350 0.967087 17.640600 -10.034400 4.540000
-9.467570 1.245140 16.379300 -9.057600 7.870000
13.845800 1.989980 12.798400 -7.548000 6.790000
7.279420 0.989067 17.945000 -9.945600 4.680000
14.470700 -1.512690 12.818100 3.729600 9.840000
-8.736860 1.836430 17.697000 -9.412800 7.020000
7.356930 -0.485373 18.862500 -10.123200 10.290000
6.840940 -0.495700 19.512800 -10.212000 3.740000
6.427690 -0.047975 19.659000 -10.034400 7.200000
8.295920 1.741050 18.866400 -9.679200 7.750000
7.515600 -0.047975 19.269400 -10.034400 6.040000
6.119890 -1.849860 21.025300 -10.300800 7.390000
7.858380 0.398443 20.979800 -10.123200 12.210000
5.895380 -1.922410 21.979700 -10.300800 12.630000
7.077310 -1.711190 21.645900 -10.123200 10.530000
5.713110 -1.456310 22.509300 -10.389600 11.580000
6.907300 1.903640 22.590500 -10.212000 9.720000
6.855410 1.938250 23.054800 -10.212000 8.660000
-8.282570 1.007190 22.642000 -9.856800 9.150000
6.974210 2.124260 23.454300 -10.300800 9.070000
-8.430480 1.025180 23.046300 -9.856800 8.920000
7.092620 2.315490 23.852500 -10.300800 8.130000
7.074530 2.355420 24.305100 -10.300800 8.470000
-8.727370 0.982588 23.857900 -9.856800 7.320000
7.490890 0.386123 25.191900 -10.300800 4.900000
7.613700 0.392453 25.604900 -10.300800 8.730000
7.736500 0.398783 26.017900 -10.300800 7.590000
7.859300 0.405112 26.430900 -10.300800 10.320000
4.877300 -1.666500 27.530200 -10.478400 7.920000
6.982690 -1.779930 27.511300 -10.300800 9.930000
-13.499200 1.717780 25.462000 -13.497600 4.630000
5.354690 9.584640 27.166600 -10.389600 7.750000
-13.501100 1.743410 25.946900 -13.497600 17.100000
8.937080 9.725590 26.637200 -10.389600 18.460000
-13.485300 2.136070 26.411800 -13.586400 8.930000
7.251310 0.000000 29.278400 -10.389600 8.470000
7.125800 0.000000 29.752500 -10.389600 4.370000
-13.686000 1.466020 27.322700 -13.586400 8.090000
6.642450 -0.551690 30.300400 -10.478400 8.350000
-13.507600 1.294960 27.900000 -13.764000 7.230000
6.732870 -0.924063 30.712800 -10.478400 10.500000
-13.696900 1.215740 28.291000 -13.764000 9.570000
6.825690 -0.838143 31.136200 -10.478400 5.970000
7.340810 -1.149170 31.451800 -10.478400 8.300000
4.830520 -2.150690 32.318700 -10.478400 4.320000
4.890880 -2.486070 32.722500 -10.478400 4.540000
18.313400 1.871720 27.604000 -9.057600 8.470000
4.954400 -2.518350 33.147500 -10.478400 5.450000
18.551200 1.896030 27.962500 -9.057600 12.200000
5.017920 -2.550640 33.572500 -10.478400 5.070000
18.789100 1.920330 28.321000 -9.057600 11.090000
18.365900 1.780320 29.626600 -9.235200 6.600000
5.691010 -1.147210 34.853600 -10.478400 8.860000
18.590300 1.884150 29.988800 -9.235200 10.560000
18.817100 1.907120 30.354500 -9.235200 10.280000
-6.573080 2.488770 35.506600 -10.389600 7.160000
19.043800 1.930100 30.720200 -9.235200 7.030000
-7.066260 2.518390 35.850100 -10.389600 5.520000
8.027570 0.000000 36.618700 -10.478400 7.260000
7.289770 -0.872492 41.147400 -10.478400 8.920000
9.040580 -0.881487 41.239700 -10.478400 20.210000
-6.871510 1.253180 42.083400 -10.478400 8.230000
-6.695080 1.265840 42.547900 -10.478400 7.930000
-16.343100 1.951020 40.288500 -10.833600 6.870000
-16.269400 1.970340 40.782200 -10.833600 7.170000
-16.113200 1.852520 41.312900 -10.833600 6.910000
19.199700 1.870500 40.449100 -9.768000 5.260000
-24.084800 -4.289900 37.547000 -8.702400 5.990000
19.384300 1.888490 40.838000 -9.768000 8.600000
-24.023500 -4.331150 38.094300 -8.791200 9.450000
19.569000 1.906470 41.227000 -9.768000 5.720000
19.753600 1.924460 41.615900 -9.768000 7.250000
19.367200 2.086240 42.264300 -9.856800 8.190000
19.546600 2.105550 42.655600 -9.856800 8.660000
19.725900 2.124870 43.046900 -9.856800 7.750000
19.905200 2.144190 43.438300 -9.856800 8.750000
19.571600 2.596440 44.509400 -9.856800 6.600000
19.747200 2.505640 44.908800 -9.856800 15.300000
19.920500 2.527610 45.302700 -9.856800 13.550000
19.643400 2.571570 46.359700 -9.945600 6.420000
19.811300 2.593550 46.756000 -9.945600 8.900000
19.982300 2.457140 47.159400 -9.945600 10.630000
-26.780600 -0.927146 44.725900 -8.968800 5.510000
19.738300 2.519080 48.658400 -9.945600 10.690000
-26.653600 -0.934808 45.302300 -8.968800 6.640000
19.900100 2.539730 49.057200 -9.945600 11.130000
-26.519200 -0.942470 45.879400 -9.057600 12.790000
-11.296200 2.284170 53.497000 -11.988000 5.460000
-11.385200 2.302160 53.918200 -11.988000 8.810000
-11.472600 2.491890 54.332200 -11.988000 10.290000
-11.561500 2.511210 54.753400 -11.988000 12.710000
10.352000 1.011430 55.919700 -10.478400 8.250000
10.430900 0.841874 56.346100 -10.478400 6.950000
10.509800 0.669644 56.772100 -10.478400 7.520000
-24.538700 0.000000 52.742500 -9.501600 7.330000
20.538000 2.446040 54.831100 -10.123200 5.860000
-25.536500 0.000000 52.745900 -9.501600 6.360000
20.689000 2.464030 55.234200 -10.123200 5.810000
-23.755400 -1.414810 54.024100 -9.590400 11.840000
20.706400 2.517990 56.605000 -10.123200 10.950000
20.735200 2.464800 60.257700 -10.212000 10.520000
20.877700 2.283020 60.671900 -10.212000 13.660000
21.017900 2.298340 61.079100 -10.212000 6.840000
