VERSION .7
FIELDS x y z velocity SNR
SIZE 4 4 4 4 4
TYPE F F F F F
COUNT 1 1 1 1 1
WIDTH 189
HEIGHT 1
VIEWPOINT 0 0 0 1 0 0 0
POINTS 189
DATA ascii
0.0728177580563772 3.12842298959674 -0.243459355121158 0 6.14696501488564
0.455787957956403 3.05891875144453 -0.535610581266548 0 6.14696501488564
-8.16168945706534 8.19065492145888 -1.08095953673794 1.39243236562554 5.77628730077654
-8.72919164181453 8.0082851755683 -1.3877183241906 1.39243236562554 11.1588653206259
-8.12927132790357 8.70360498853231 -0.64760188462228 1.39243236562554 11.1588653206259
-8.74408617563681 8.02194963377938 -1.20268921429852 1.54714707291727 5.97941831119634
-8.40260019732049 8.43242064296584 -0.740116439568321 1.54714707291727 5.97941831119634
-8.13515575078789 8.70990514635763 -0.4625727747302 1.54714707291727 5.97941831119634
-7.48555908437668 9.26905947606254 0.55508732967624 1.54714707291727 5.97941831119634
-8.60281824118697 8.25920473518118 -0.185029109892079 2.01129119479245 6.15555062287405
-8.69532166313522 8.16175996480844 -0.185029109892079 2.16600590208418 5.85697718443329
-8.97419370657463 8.23305357151042 -1.23433893046427 1.39243236562554 8.1524009003897
-8.33942275222785 8.92860362756381 -0.759593187978014 1.39243236562554 8.1524009003897
6.5439905962647 11.4432534118386 0.102252929150886 0.773573536458636 5.99012382720334
0.101462407650912 13.0803430101739 1.63604686641418 0.928288243750363 8.06881203413657
6.72836084440924 11.2900802224122 1.02252929150886 0.928288243750363 8.06881203413657
6.847647946428 11.2572085461067 0.409011716603546 1.08300295104209 6.83470389313596
7.56648912693105 10.7944478257848 0.102252929150886 1.08300295104209 6.83470389313596
7.66896968631648 10.7223701290076 -0 1.23771765833382 5.12828793740777
6.69919518951515 11.7146543964702 0.209375045404195 0.773573536458636 7.15064998356321
6.90417823586604 11.5850989498474 0.52343761351049 0.928288243750363 8.1418477873817
7.01068718324771 11.525237321014 0.418750090808392 1.08300295104209 6.61913609436605
7.74664362995322 11.0514584883035 0.104687522702098 1.08300295104209 6.61913609436605
7.74477897747753 11.0487983518089 -0.314062568106295 1.23771765833382 5.03892175732955
-12.9522122484562 9.22760362092883 3.67136707522706 2.63015002395936 7.90830260592291
10.7877950079117 11.7973068769706 -3.29157048123806 2.63015002395936 7.90830260592291
-13.2142709048739 9.41430326423828 1.77238410528203 2.78486473125109 12.7312438034078
10.4422867322009 11.4194662567045 5.19055345118309 2.78486473125109 12.7312438034078
-13.3844902413657 9.53557340216022 2.58066916428428 2.63015002395936 27.8680146398174
-13.4991064491908 9.617229949633 1.41936804035635 2.78486473125109 43.6964342859064
-13.5448444404973 9.64981527529768 -0.387100374642642 2.93957943854282 17.2181140134316
-13.6689373698928 9.73822336672301 2.36642493177765 2.63015002395936 18.5483547652905
-13.7538065708736 9.798687118494 1.44614856941968 2.78486473125109 30.7206354589047
-13.783782425004 9.82004295291111 -0.920276362357976 2.93957943854282 16.2210930985167
4.72324667782343 16.2418949714084 5.82841696160052 -1.701861780209 6.11342673545195
-8.30756004945767 17.2269756068355 0.891061239743438 -1.85657648750073 5.41543086430095
-8.43661882160114 17.4945983873303 1.20755840140095 -2.01129119479245 7.58864125274801
-8.44374955846518 17.5093850430131 0.905668801050707 -1.85657648750073 13.8729811786174
-8.73343959309134 17.3371626598155 1.35850320157606 -1.701861780209 9.32588458658223
-7.84322432432421 17.7935362153957 0.75472400087559 -1.701861780209 9.32588458658223
-9.81623328398737 16.471480026256 -3.32078560385259 1.39243236562554 7.95835491431238
-7.78059095662689 17.6514429830298 -2.56606160297701 1.39243236562554 7.95835491431238
-8.42342259305798 17.8578674233685 1.07365575608431 -2.01129119479245 6.03026801845652
-8.42951993913877 17.8707939501743 0.766896968631648 -1.85657648750073 11.1951321052918
-8.86356423456302 17.595479220112 1.68717333098963 -1.701861780209 10.9150934322652
-8.11344189093497 17.9910160690821 1.22703514981064 -1.701861780209 10.9150934322652
-12.7166954035756 15.1145282163879 -0.920276362357977 1.23771765833382 16.2149671312802
-7.96396317889118 18.0674505001982 -1.07365575608431 1.23771765833382 16.2149671312802
-12.7166954035756 15.1145282163879 -0.920276362357977 1.39243236562554 64.0663774819288
-7.96708627693892 18.0745357187153 -0.920276362357977 1.39243236562554 64.0663774819288
0.152713524144673 19.6875406798692 -1.84055272471595 1.39243236562554 64.0663774819288
-12.7166954035756 15.1145282163879 -0.920276362357977 1.54714707291727 23.0485495175939
-7.97188865405051 18.0854306348266 -0.613517574905319 1.54714707291727 23.0485495175939
0 19.9854639855592 -2.02558183460803 1.23771765833382 66.0296844148553
0 20.0006430067602 -1.86976784733049 1.39243236562554 247.716417734251
0 20.0006430067602 -1.86976784733049 1.54714707291727 82.7568790286344
0 20.2631620263132 -2.37372871243129 1.23771765833382 63.8274000039978
0 20.2810742095018 -2.21548013160254 1.39243236562554 260.813372752725
0 20.2810742095018 -2.21548013160254 1.54714707291727 83.3365451416336
0 20.3832684221856 -3.69571301073918 1.23771765833382 9.52071619306388
0 20.3832684221856 -3.69571301073918 1.39243236562554 41.5828511100167
0 20.3534796703663 -3.85639618511914 1.54714707291727 17.5940136573595
-12.7635515266789 17.4892167779586 -0.503960865100798 -0.464144121875182 11.8373967994093
-8.89845574567243 23.2977464513003 2.9215122614539 -2.63015002395936 5.08605516055934
7.17306991974844 24.666136707645 1.5970933695948 -1.701861780209 6.94245958367202
9.23239897686589 23.5818056785116 4.59164343758504 -1.701861780209 6.94245958367202
10.1150609940325 22.9475400263732 5.78946346478113 -1.701861780209 6.94245958367202
6.9738179775332 24.7232096413485 1.5970933695948 -1.54714707291727 6.87493694710822
7.73295148767946 24.3650583944412 2.99455006799024 -1.54714707291727 6.87493694710822
9.06063829029604 23.7223693197463 4.19237009518634 -1.54714707291727 6.87493694710822
9.15893907093445 23.9797383204735 4.44556782451235 -1.701861780209 6.30774538304806
10.1788745874452 23.0923107786137 6.46628047201796 -1.701861780209 6.30774538304806
7.83417489360379 24.6839940815666 2.82899770650786 -1.54714707291727 6.99864434376845
9.15893907093445 23.9797383204735 4.44556782451235 -1.54714707291727 6.99864434376845
10.1994114753801 23.138901803441 6.2642092072674 -1.54714707291727 6.99864434376845
-4.32688318409909 26.2085836566452 -2.48328542223581 -2.32072060937591 7.65594810734522
-9.82467724524088 24.4907045288617 3.9318685852067 -2.16600590208418 21.3402144983368
-4.30780237517959 26.0930083208836 -3.51798768150073 -2.16600590208418 21.3402144983368
-9.602219702721 23.9361680481126 6.82903491114848 -2.01129119479245 5.96101683589185
-4.26978412735394 25.8627260631422 -4.96657084447162 -2.01129119479245 5.96101683589185
7.09409596563598 25.1496127858935 5.38045174817759 -2.01129119479245 5.96101683589185
-9.9283334620589 24.7490960989155 4.18750090808392 -2.32072060937591 39.5437347547378
6.8170974198993 25.7452790142122 4.39687595348811 -2.32072060937591 39.5437347547378
-9.9283334620589 24.7490960989155 4.18750090808392 -2.16600590208418 137.126101925187
6.82572925516549 25.7778777866288 4.18750090808392 -2.16600590208418 137.126101925187
8.36264753827401 25.6230910602279 1.46562531782937 -2.16600590208418 137.126101925187
-9.88877607070638 24.6504884439906 4.8156260442965 -2.01129119479245 37.7043357568489
-4.56602918422397 26.3648809689296 3.55937577187133 -2.01129119479245 37.7043357568489
6.82572925516549 25.7778777866288 4.18750090808392 -2.01129119479245 37.7043357568489
8.35886196610252 25.6114920947064 1.67500036323357 -2.01129119479245 37.7043357568489
6.91339420859965 26.1089510494726 4.02438314015274 -2.32072060937591 81.6476462522345
8.25162507254388 25.9993001458618 1.27085783373244 -2.32072060937591 81.6476462522345
6.905098199993 26.0776205515896 4.23619277910815 -2.16600590208418 328.617758690144
8.24839043528014 25.9891084194632 1.48266747268785 -2.16600590208418 328.617758690144
6.89636599454929 26.0446427236798 4.44800241806356 -2.01129119479245 83.4557816747739
8.2446565845889 25.9773437665654 1.69447711164326 -2.01129119479245 83.4557816747739
-12.6990170511701 24.1512191597284 1.05904819477704 -1.54714707291727 5.04949343236651
7.47595649378804 26.503364478535 2.14244232506619 -2.32072060937591 26.339112318859
8.34647133774553 26.298142676274 1.28546539503971 -2.32072060937591 26.339112318859
8.34319952074314 26.287833803595 1.49970962754633 -2.16600590208418 126.516929432569
8.33035152164953 26.2473522036954 2.14244232506619 -2.01129119479245 31.435086753793
-12.2611199114746 25.4252767804243 1.09556709804521 -2.01129119479245 7.85969486380166
-12.2644440831546 25.4321699505133 0.87645367843617 -1.85657648750073 7.08913041693802
19.8645580119783 25.1034324948427 4.51373644394627 2.16600590208418 6.71799788727276
27.5620742416199 16.2823539923995 4.51373644394627 2.16600590208418 6.71799788727276
19.8419952207806 25.0749192248578 4.76449957972106 2.32072060937591 13.514206728101
-23.995100995479 22.0134486070711 2.27877956393404 2.16600590208418 36.4643159556884
-24.0074291352014 22.0247586186543 2.02558183460804 2.32072060937591 81.2143165374039
-24.0183016506242 22.0347332197004 1.77238410528203 2.47543531666763 10.7124020676416
-24.2492468588033 22.2466056545052 1.78942626014051 2.16600590208418 70.8625541485596
-24.2492468588033 22.2466056545052 1.78942626014051 2.32072060937591 149.832392843172
-24.2492468588033 22.2466056545052 1.78942626014051 2.47543531666763 17.6362584699256
-24.4897920661706 22.4672852657748 1.54840149857056 2.16600590208418 21.0210053767557
-24.4691104647245 22.4483116690131 2.06453533142742 2.32072060937591 38.5816575615134
-24.456545245392 22.4367841572071 2.32260224785585 2.47543531666763 5.27620058223973
6.83421788677217 37.6933212175793 4.79128010878439 -2.78486473125109 6.91127462655404
8.06092581684093 37.6364651432891 2.99455006799024 -2.78486473125109 6.91127462655404
7.82998032484051 38.0275178389139 2.71700640315213 -2.93957943854282 5.31867880074941
6.91331699778745 38.1295830179669 3.62267520420283 -2.78486473125109 8.10188276290572
-34.8220402908075 23.4042507977535 2.93611982276117 4.33201180416836 5.81123475970064
-35.0819062631269 23.5789093857964 2.95803116472207 4.33201180416836 7.82911851225073
7.24122684017997 54.4353912777252 5.99883851018534 -3.09429414583454 5.95419758906347
9.84782011937481 54.314488241734 2.14244232506619 -3.09429414583454 5.95419758906347
6.81527232016938 54.4903592657629 5.99883851018534 -2.93957943854282 6.41833232216467
9.84782011937481 54.314488241734 2.14244232506619 -2.93957943854282 6.41833232216467
-31.471443678684 58.5975827291746 6.74138954330486 -3.09429414583454 9.13011192454474
-20.1210869421094 63.3977154887392 6.74138954330486 -3.09429414583454 9.13011192454474
-15.2120574971787 63.5777506398258 14.0013475130178 -3.09429414583454 9.13011192454474
7.72569731179984 65.9498516302267 7.778526396121 -3.09429414583454 9.13011192454474
9.83381231884212 65.997427916184 4.14854741126454 -3.09429414583454 9.13011192454474
-31.4953463366944 58.6420877730014 6.2228211168968 -2.93957943854282 7.0942141932916
-20.067814770384 63.2298650144466 8.29709482252907 -2.93957943854282 7.0942141932916
-15.1857110797953 63.4676375959482 14.5199159394259 -2.93957943854282 7.0942141932916
7.78654657716128 66.4692869459575 5.73103321955206 -3.24900885312627 8.24657938132561
11.4496465787022 66.111835252122 3.12601811975567 -3.24900885312627 8.24657938132561
7.78111765880004 66.4229433803237 6.25203623951134 -3.09429414583454 34.7788504874567
11.4496465787022 66.111835252122 3.12601811975567 -3.09429414583454 34.7788504874567
7.77521236116183 66.3725332377366 6.77303925947061 -2.93957943854282 28.7459934904043
11.4496465787022 66.111835252122 3.12601811975567 -2.93957943854282 28.7459934904043
10.9802791637299 66.5092060015603 3.14062568106294 -3.24900885312627 5.3060825794104
7.81154512920464 66.682685262212 6.80468897563636 -3.09429414583454 23.1875325118749
10.9759748939846 66.4831343909112 3.66406329457342 -3.09429414583454 23.1875325118749
7.80513253996671 66.6279446618832 7.32812658914686 -2.93957943854282 20.8879164363661
10.9802791637299 66.5092060015603 3.14062568106294 -2.93957943854282 20.8879164363661
7.8732305781254 72.0735750891068 6.77790844657304 -3.24900885312627 9.87506232758875
10.7236143987659 71.9691351976946 2.82412851940543 -3.24900885312627 9.87506232758875
-34.7813552841718 63.4113872764247 8.4723855582163 -3.09429414583454 8.82451846268362
7.8732305781254 72.0735750891068 6.77790844657304 -3.09429414583454 8.82451846268362
10.1558462431309 72.027090772361 3.38895422328652 -3.09429414583454 8.82451846268362
-34.7813552841718 63.4113872764247 8.4723855582163 -2.93957943854282 7.89734292905533
7.8732305781254 72.0735750891068 6.77790844657304 -2.93957943854282 7.89734292905533
7.90716691682422 72.3842370506978 6.80712356918758 -3.24900885312627 10.7909525998053
11.3284702117317 72.1403931788781 3.97082208202608 -3.24900885312627 10.7909525998053
7.90116595704358 72.3293027234144 7.37438386661987 -3.09429414583454 12.8706684558144
11.3284702117317 72.1403931788781 3.97082208202608 -3.09429414583454 12.8706684558144
7.90116595704358 72.3293027234144 7.37438386661987 -2.93957943854282 9.54546259484182
11.3284702117317 72.1403931788781 3.97082208202608 -2.93957943854282 9.54546259484182
-1.07536484701233 2.81549723507014 -0.876453678436169 0 5.20071376306085
-0.600519504924181 3.03802404064368 -0.511264645754432 0 5.20071376306085
7.73778760493254 9.77847222589724 -1.46075613072695 -0.726751980304561 5.50152588283951
-7.52321392183145 12.1179370898203 -2.23982606711465 -1.76496909502536 11.2894373609177
-8.44685842735586 12.0503936576547 -1.0298330721625 -1.76496909502536 7.85012945839433
7.46910831448664 14.5115058015711 0.126598864663002 -1.76496909502536 5.04065362824679
7.74107583672172 14.7221173348624 -0.258066916428427 -1.76496909502536 6.90281619030823
7.87644710000226 14.9795688395138 0.920276362357976 -1.86879080649744 5.10413495277323
-7.86023005181235 17.4295357099725 -3.62267520420283 0.5191085573604 5.26144296848001
-12.8279360281526 14.935415518143 -1.84055272471595 0.5191085573604 40.239659162054
-12.8368861328154 14.9458360200676 -1.68717333098963 0.62293026883248 27.3276008193541
0 19.9514210720623 -2.33720980916312 0.41528684588832 17.118692186423
0 19.9514210720623 -2.33720980916312 0.5191085573604 194.76453193712
0 19.9514210720623 -2.33720980916312 0.62293026883248 136.320943823914
-0.629250995470185 20.2713101272714 -2.21548013160254 0.41528684588832 21.1587308206677
0 20.243996993955 -2.53197729326004 0.41528684588832 21.1587308206677
0 20.2631620263132 -2.37372871243129 0.5191085573604 245.235098430306
0 20.2810742095018 -2.21548013160254 0.62293026883248 167.370990141724
-0.4778402634653 20.5291470855561 -2.73161396445939 0.41528684588832 9.2691087745852
-0.477327971647053 20.5071378182515 -2.89229713883936 0.5191085573604 86.3969242954464
0.159280087821766 20.5340897346683 -2.73161396445939 0.5191085573604 86.3969242954464
-0.476785807489632 20.4838451646532 -3.05298031321932 0.62293026883248 56.4547565661925
0.159280087821766 20.5340897346683 -2.73161396445939 0.62293026883248 56.4547565661925
0.643756909278723 20.738617894139 -3.42547312655469 0.62293026883248 8.58108261427428
-0.49611892567019 21.3144416151759 -0.993314168894324 0.5191085573604 5.76077390615766
0.164833645108536 21.2500439084302 -1.98662833778865 0.5191085573604 5.76077390615766
0.490023916018133 21.0525855950751 -3.47659959113014 0.5191085573604 5.76077390615766
16.7903154327382 23.9532735561695 -5.7821596841275 -1.24586053766496 15.6501875569057
17.0282463448103 33.0836674498382 -5.84302452290779 -1.97261251796952 8.67950327519178
17.0487046314474 33.1234152393633 -5.55087329676241 -1.86879080649744 12.5151377527309
17.1701483976837 33.3593646785869 -5.89171639393203 -1.97261251796952 5.59257150137712
17.1907771700428 33.3994436996913 -5.59713057423543 -1.86879080649744 8.82343059146825
