VERSION .7
FIELDS x y z velocity intensity
SIZE 4 4 4 4 4
TYPE F F F F F
COUNT 1 1 1 1 1
WIDTH 725
HEIGHT 1
VIEWPOINT 0 0 0 1 0 0 0
POINTS 725
DATA ascii
7.941090 1.080760 9.587680 -11.188800 3.410000
-7.066050 1.720000 11.204700 -11.632800 3.460000
7.663810 1.751570 12.362800 -12.165600 3.580000
8.213820 1.211410 12.590400 -11.988000 8.320000
-6.798450 2.187570 13.770600 -12.432000 5.190000
-7.088780 2.187570 13.623400 -12.254400 5.350000
8.448500 1.246020 12.950100 -11.988000 7.760000
-7.247500 -0.419072 14.194600 -12.254400 7.480000
-8.049960 1.477130 13.682300 -11.899200 6.760000
-6.264630 0.784633 15.108000 -12.698400 4.380000
-7.443380 -0.430398 14.578200 -12.254400 7.380000
-8.161290 1.466620 14.119400 -11.899200 5.940000
-6.990800 0.896118 15.255700 -12.520800 4.420000
-6.438910 1.915060 15.873000 -12.787200 4.830000
-7.170050 0.919096 15.646900 -12.520800 8.400000
-7.225470 0.942073 16.094200 -12.520800 8.530000
-6.099230 1.453690 16.976900 -12.964800 4.950000
-7.274420 0.965050 16.543300 -12.609600 7.090000
-0.106704 1.602510 18.459000 1.154400 3.470000
-6.344810 1.488300 17.344800 -12.964800 3.270000
0.000000 1.639780 18.888600 1.154400 14.010000
0.000000 1.677050 19.317800 1.154400 18.070000
-6.286950 1.632230 18.270200 -13.053600 6.860000
0.000000 1.424050 19.770200 1.154400 17.810000
-6.287180 1.485180 18.739100 -13.053600 7.440000
-0.778420 1.392520 20.189400 1.154400 12.770000
-6.428060 1.330030 19.159000 -13.142400 8.370000
-0.794983 1.422150 20.618900 1.065600 6.970000
-10.988500 1.852570 17.424600 -13.675200 4.750000
-0.404694 2.151160 21.000300 1.154400 5.470000
-11.220500 1.826120 17.792500 -13.675200 5.490000
-11.249700 1.011760 17.838900 -12.876000 6.410000
-0.536816 2.195060 21.426200 1.154400 7.260000
0.673874 2.238970 21.851200 1.154400 6.350000
9.144320 1.053060 19.955300 -12.876000 7.350000
-0.129338 1.194820 22.374500 1.154400 8.000000
-0.131701 1.570290 22.783300 1.154400 9.030000
-5.894210 1.975190 21.975400 -13.408800 7.100000
8.572500 1.217800 21.132700 -13.142400 4.400000
8.720030 1.815230 21.496400 -13.053600 5.560000
8.456460 1.903640 22.057400 -13.231200 4.480000
-10.584200 1.775760 21.130300 -12.609600 3.730000
-10.776600 1.808050 21.514400 -12.609600 4.900000
-6.026740 1.764580 23.744900 -13.408800 12.000000
-10.969100 1.840340 21.898600 -12.609600 6.400000
-6.125320 2.161530 24.133300 -13.408800 13.710000
-11.164100 1.795540 22.287900 -12.609600 7.090000
7.876640 -1.983300 24.090600 -13.320000 11.080000
9.041160 -2.016920 24.137500 -13.231200 5.550000
7.794870 -2.516190 24.976100 -13.320000 7.140000
9.642220 -3.706710 24.169900 -13.053600 8.100000
7.579550 -2.557440 25.490100 -13.408800 6.080000
9.369050 -0.557675 25.012900 -13.231200 8.690000
9.520160 -0.566670 25.416300 -13.231200 8.700000
9.868730 -0.724881 25.741100 -13.231200 11.160000
9.110350 -0.736207 26.475200 -13.320000 8.770000
9.035780 1.362780 26.931300 -13.408800 5.220000
10.320500 1.450630 26.461000 -13.053600 5.910000
9.172680 1.383430 27.339400 -13.408800 5.050000
-5.250440 1.980900 29.636400 -13.675200 3.970000
-5.325450 2.009200 30.059800 -13.675200 4.810000
10.336300 1.182440 28.770600 -13.408800 7.370000
-5.224160 2.037490 30.513800 -13.675200 5.270000
-5.475460 2.065790 30.906500 -13.675200 5.980000
-5.790570 2.192480 31.279700 -13.675200 9.820000
-6.051980 2.222110 31.667900 -13.675200 9.870000
-4.830520 2.150690 32.318700 -13.764000 6.700000
-8.892240 2.049610 31.451300 -13.320000 5.040000
-10.410200 1.164490 31.027900 -13.142400 8.450000
-4.894080 2.178990 32.743900 -13.764000 6.730000
-10.547200 1.179820 31.436100 -13.142400 6.880000
11.334500 -2.414690 31.549100 -13.320000 5.680000
-5.734290 2.025440 33.493500 -13.675200 6.000000
9.951400 -0.710586 32.546300 -13.497600 6.050000
11.507000 -0.710586 32.029400 -13.320000 5.320000
-5.806870 2.051080 33.917400 -13.675200 6.680000
10.077400 -0.719581 32.958300 -13.497600 6.960000
11.625100 -2.476600 32.358000 -13.231200 7.690000
-18.577700 -2.292180 29.458900 -11.632800 6.420000
-17.882400 -2.211430 30.394200 -11.810400 8.860000
-18.580300 -2.211430 29.972600 -11.632800 7.610000
10.654400 0.414779 34.138300 -13.497600 6.480000
10.581900 0.643638 34.608300 -13.497600 7.790000
10.707200 0.764555 35.018200 -13.497600 7.910000
-18.362300 -5.501290 31.209900 -0.266400 7.030000
10.833200 0.773550 35.430100 -13.497600 9.240000
-18.578400 -5.566010 31.577100 -0.266400 16.960000
19.209200 1.699900 32.649400 -12.254400 7.760000
10.321600 1.978130 37.329800 -13.586400 7.420000
18.865800 1.858340 33.831800 -12.432000 8.180000
11.161600 2.000110 37.536500 -13.497600 7.850000
19.075500 1.878990 34.207700 -12.432000 6.640000
19.285100 1.899640 34.583600 -12.432000 5.620000
-20.095600 1.042020 34.156000 -11.899200 5.170000
19.497500 1.796480 34.964600 -12.432000 8.280000
-20.047400 1.053340 34.682800 -11.899200 9.120000
-20.262900 1.064670 35.055700 -11.899200 7.490000
19.646000 1.582130 35.878200 -12.432000 6.210000
-18.107900 1.582130 36.678500 -12.254400 13.460000
-20.478500 1.075990 35.428600 -11.899200 9.850000
10.481700 -1.087320 40.001600 -13.675200 5.710000
20.131700 1.598790 36.101800 -12.432000 7.880000
-20.694100 1.087320 35.801600 -11.810400 15.990000
-17.330200 -0.534716 42.722000 -12.787200 16.590000
-17.490600 -0.827535 43.117300 -12.787200 5.890000
19.812400 0.254203 42.584100 -12.876000 7.000000
19.994400 0.109944 42.975300 -12.876000 7.080000
20.358000 0.111943 43.756700 -12.876000 6.330000
23.132000 1.166960 42.830300 -12.520800 10.210000
23.336700 1.177290 43.209300 -12.520800 9.860000
-16.307000 -1.070380 48.603300 -13.142400 16.510000
-16.444000 -1.079370 49.011700 -13.142400 16.080000
-15.242000 -1.088370 49.849400 -13.231200 15.690000
-6.605100 2.392090 56.877500 -13.852800 7.900000
-6.654760 2.410070 57.305200 -13.852800 8.130000
-6.704420 2.428060 57.732800 -13.852800 7.880000
15.720400 0.387134 69.779500 -13.764000 8.380000
15.815100 0.389466 70.199800 -13.764000 8.460000
16.453800 0.167914 70.496300 -13.675200 9.750000
-14.582600 0.174911 73.983800 -13.675200 5.970000
-14.666000 0.175910 74.406600 -13.675200 7.980000
16.331400 0.648662 74.497500 -13.764000 8.100000
15.843800 1.363900 75.033600 -13.764000 7.480000
15.933600 1.133050 75.458900 -13.764000 6.830000
14.997700 1.139380 76.089600 -13.764000 8.390000
17.140000 0.904519 76.080800 -13.764000 9.140000
16.792200 0.909516 76.599500 -13.764000 10.110000
16.290300 0.914514 77.148300 -13.764000 6.750000
16.379800 0.674315 77.572200 -13.764000 5.430000
16.468400 0.924508 77.991400 -13.764000 6.720000
16.557400 0.929506 78.413000 -13.764000 7.910000
16.646400 0.934503 78.834600 -13.764000 6.030000
16.913400 0.949495 80.099300 -13.764000 6.620000
17.003400 0.445438 80.525100 -13.764000 7.790000
17.092400 0.447770 80.946700 -13.764000 10.110000
16.711000 0.192902 81.467200 -13.764000 12.700000
16.750400 6.263600 81.659300 -13.764000 12.050000
16.836700 6.295880 82.080300 -13.764000 8.320000
17.399700 6.328170 82.402000 -13.764000 8.980000
17.040200 3.805450 83.072300 -13.764000 16.100000
17.134900 2.770100 83.533900 -13.764000 19.080000
26.755400 0.853888 96.765300 -13.586400 21.350000
26.870200 0.857553 97.180600 -13.586400 17.400000
26.985000 0.861218 97.595900 -13.586400 11.960000
17.081400 -0.901530 104.612000 -13.852800 13.970000
17.150800 -0.905195 105.037000 -13.852800 12.760000
17.220300 -0.908859 105.463000 -13.852800 10.140000
-11.807600 -0.249873 107.076000 -13.852800 10.190000
-12.476000 0.585366 107.432000 -13.852800 10.680000
-10.486700 0.252871 108.512000 -13.941600 9.380000
16.454400 1.983940 170.263000 -13.941600 6.930000
16.495900 1.988940 170.691000 -13.941600 6.320000
16.537300 1.993940 171.120000 -13.941600 5.510000
6.461360 0.017991 4.290580 -3.019200 8.840000
6.820350 0.000000 4.528960 -3.463200 11.170000
7.179310 0.000000 4.767320 -3.463200 9.150000
7.905200 0.712023 5.934880 -8.347200 6.430000
7.958440 1.373830 7.764790 -9.768000 3.400000
7.866590 1.479510 9.027560 -10.478400 5.880000
8.313250 0.540876 8.727330 -10.034400 7.080000
8.521450 0.598799 9.120250 -10.123200 7.480000
7.757520 1.585190 10.218400 -11.011200 7.820000
8.900220 0.769153 9.343540 -10.212000 6.840000
7.970570 1.357360 12.217500 -11.455200 11.060000
8.288760 1.629320 12.493700 -11.544000 11.670000
-11.570000 1.512690 15.486700 -11.544000 6.880000
-11.827100 1.546310 15.830800 -11.544000 5.590000
-11.957000 1.626750 16.264700 -11.632800 11.880000
-11.921500 1.661360 16.820000 -11.632800 7.330000
18.267700 1.443220 12.130400 -7.814400 7.610000
-11.657100 1.741050 16.996300 -11.810400 9.490000
18.481700 1.471520 12.582800 -7.992000 6.380000
-10.971500 1.511040 18.981100 -12.520800 5.260000
18.610300 1.483270 14.598700 -8.702400 9.190000
18.948700 1.510240 14.864100 -8.702400 7.950000
9.491470 -2.180540 25.339700 -12.876000 6.320000
9.646190 -2.066340 25.752800 -12.876000 7.080000
18.446800 1.604330 21.585600 -10.567200 5.460000
9.565770 -3.025870 26.149900 -12.876000 8.440000
18.729500 1.539480 21.916400 -10.567200 12.240000
9.712940 -3.072420 26.552200 -12.876000 12.080000
19.009100 1.562460 22.243500 -10.567200 12.560000
9.738160 -1.985090 27.105800 -12.876000 7.690000
10.253600 -2.014720 27.374500 -12.876000 13.130000
18.541300 1.516570 23.193100 -10.922400 8.210000
18.810000 1.538550 23.529200 -10.922400 10.710000
19.073200 1.725870 23.858400 -10.922400 4.820000
9.241490 0.551690 29.611300 -13.142400 6.290000
10.004000 0.559352 29.817200 -13.053600 6.210000
9.613070 -0.081958 34.000900 -13.142400 7.140000
10.457500 -0.082958 34.201600 -13.142400 7.220000
11.075900 0.950092 38.052200 -13.142400 6.310000
11.196300 0.960419 38.465800 -13.142400 8.260000
11.315100 1.189890 38.873800 -13.142400 6.670000
10.388200 -0.359146 40.928900 -13.320000 10.000000
10.494200 -0.362811 41.346600 -13.320000 7.350000
19.681100 0.781561 39.291300 -12.432000 5.870000
20.176200 -0.110943 43.366000 -12.520800 10.420000
20.104700 -0.111943 43.873600 -12.520800 7.080000
20.284200 -0.112942 44.265300 -12.520800 5.660000
20.463500 -0.265863 44.656500 -12.520800 8.040000
12.189400 -0.727936 48.025400 -13.320000 13.110000
12.667800 -0.888834 48.344400 -13.320000 5.020000
10.500300 -1.493690 49.727700 -13.408800 9.110000
10.592700 -0.753256 50.165400 -13.408800 10.020000
-2.961410 1.347820 51.173800 -13.497600 19.390000
20.274200 -0.973120 50.820800 -12.787200 9.090000
23.839800 -1.311540 49.241200 -12.520800 6.880000
20.433900 -0.980782 51.221000 -12.787200 10.850000
24.027500 -1.321870 49.628900 -12.432000 7.020000
24.600000 -1.332190 49.828500 -12.432000 7.260000
23.117600 0.654652 51.492800 -12.520800 6.840000
-15.402500 -1.057410 57.425100 -13.053600 8.280000
-15.512100 -1.435460 57.833700 -13.053600 6.900000
-15.734400 -1.597000 58.662400 -13.053600 7.930000
-2.044890 1.590370 66.308000 -13.586400 8.230000
-1.286710 0.981132 66.769900 -13.586400 7.130000
16.097700 1.076080 71.454200 -13.320000 5.920000
16.190600 1.538100 71.866700 -13.408800 6.080000
15.241300 2.560250 77.325400 -13.408800 6.330000
15.330200 1.409870 77.776600 -13.408800 8.040000
16.466900 1.417540 77.984300 -13.408800 6.360000
16.556700 1.177360 78.409800 -13.408800 6.890000
16.645700 1.183690 78.831400 -13.408800 6.310000
16.709900 0.964487 81.462000 -13.408800 14.460000
16.796500 0.969484 81.884000 -13.408800 10.160000
16.883000 0.974482 82.306100 -13.408800 9.600000
16.969600 0.979479 82.728200 -13.408800 11.250000
17.057100 0.459430 83.154700 -13.320000 8.750000
17.095700 6.392740 83.343000 -13.408800 6.070000
17.186000 6.160550 83.783000 -13.408800 5.880000
17.283200 5.393720 84.256700 -13.408800 10.470000
17.358700 6.222460 84.625100 -13.408800 16.620000
16.789100 6.253420 85.178000 -13.408800 17.680000
16.864400 6.823910 85.559900 -13.408800 13.800000
17.329800 1.593770 87.921400 -13.320000 10.400000
18.070600 4.802270 88.095700 -13.408800 8.490000
17.557500 4.848230 89.076700 -13.408800 8.230000
17.286600 2.239700 105.869000 -13.497600 13.270000
17.356000 2.248690 106.294000 -13.497600 14.610000
18.246200 2.592100 106.574000 -13.497600 11.740000
-10.871800 1.394260 119.720000 -13.497600 8.810000
-10.910800 1.399260 120.149000 -13.497600 9.980000
-10.988700 1.409250 121.008000 -13.497600 12.060000
-10.988700 1.409250 121.008000 -13.497600 9.880000
-9.786910 1.474220 126.730000 -13.497600 6.760000
-9.820090 1.479210 127.159000 -13.497600 6.850000
-53.143100 -14.661800 115.972000 -12.076800 9.350000
-9.853570 1.088430 127.593000 -13.497600 6.120000
30.868800 1.092100 124.638000 -13.320000 8.000000
-53.321500 -14.711000 116.361000 -12.076800 8.840000
16.577200 3.064940 171.534000 -13.497600 6.610000
6.461360 0.017991 4.290580 -2.664000 3.580000
6.820330 0.018990 4.528950 -3.108000 7.380000
6.820330 0.018990 4.528950 -3.108000 6.730000
7.179290 0.019990 4.767310 -3.552000 1.250000
7.865500 0.849094 5.222980 -7.636800 4.920000
8.223030 0.887689 5.460390 -7.725600 7.350000
8.573020 1.021810 5.692800 -7.903200 6.220000
7.876760 1.498060 8.430260 -10.300800 3.590000
7.359460 1.498060 8.885440 -10.744800 4.330000
8.168500 1.553550 8.742490 -10.300800 5.070000
8.147770 0.866811 8.856160 -10.478400 6.870000
8.509200 0.897768 9.107140 -10.300800 6.490000
7.815390 1.570700 9.623150 -10.833600 6.740000
8.188280 0.897768 9.396730 -10.567200 7.090000
7.684260 1.505810 10.285500 -11.188800 8.140000
8.219180 1.038350 9.923420 -10.656000 4.200000
7.964870 1.155300 10.661100 -11.188800 9.870000
8.233650 1.072960 10.463700 -10.744800 3.430000
8.221800 1.192570 11.005000 -11.188800 7.060000
-11.202900 0.809352 15.806100 -11.899200 8.060000
-11.434700 1.362900 16.133100 -11.899200 10.250000
-12.458600 2.063360 15.832900 -11.455200 7.770000
-12.723700 2.107260 16.169800 -11.455200 5.970000
18.429000 1.599920 14.115300 -8.702400 4.490000
-10.969100 1.578830 18.977000 -12.698400 11.320000
18.770200 1.629550 14.376700 -8.702400 9.900000
19.115500 1.584720 14.641100 -8.702400 12.830000
19.283300 1.613020 15.126500 -8.791200 5.610000
-10.686800 1.872620 22.514400 -12.432000 6.140000
-10.694200 1.904910 22.985600 -12.432000 4.560000
-11.055300 1.937200 23.290700 -12.432000 12.380000
-11.249100 1.645090 23.699100 -12.343200 13.230000
8.317350 -2.677980 24.790000 -13.053600 10.200000
-11.803400 1.672050 23.908500 -12.254400 4.240000
18.803100 1.406670 20.124400 -10.212000 5.160000
19.096900 1.428650 20.438800 -10.212000 5.640000
9.765900 -0.835454 26.697000 -13.053600 6.870000
9.179270 -0.848113 27.359000 -13.053600 11.930000
18.549300 1.241010 23.203100 -10.922400 9.520000
9.067190 1.332870 28.284400 -13.142400 11.410000
18.818100 1.258990 23.539300 -10.922400 6.340000
10.675600 1.564750 35.902000 -13.320000 7.010000
10.798300 1.582730 36.314700 -13.320000 6.160000
10.828100 0.000000 40.370400 -13.320000 8.410000
10.939600 0.228549 40.786000 -13.320000 8.760000
10.494500 0.230881 41.347500 -13.408800 14.590000
19.444400 1.562870 39.385700 -12.432000 17.580000
-10.762500 2.008970 43.455600 -13.320000 11.850000
19.710000 1.084340 40.711200 -12.609600 9.200000
20.104700 0.111943 43.873600 -12.698400 9.810000
20.284300 0.000000 44.265500 -12.698400 5.490000
20.463700 -0.113942 44.657100 -12.698400 10.490000
10.792600 -1.208270 49.231700 -13.408800 14.610000
10.501800 -1.218600 49.734900 -13.408800 14.820000
-16.037800 -1.869320 50.028800 -12.964800 18.010000
-15.780100 -1.884640 50.562000 -12.964800 8.320000
20.400100 -1.594960 50.289800 -12.876000 8.930000
-15.594100 1.142340 52.443000 -12.964800 10.630000
24.010200 -1.645590 50.583600 -12.520800 8.730000
23.505200 -1.658250 51.294400 -12.609600 5.250000
24.715800 -3.435550 52.070200 -12.520800 7.910000
-15.615800 -0.860864 56.477000 -13.053600 10.170000
-6.126730 2.281600 58.670200 -13.497600 10.560000
-6.171450 2.298260 59.098400 -13.497600 9.070000
14.800900 0.914514 77.447800 -13.497600 7.090000
16.976700 0.919511 77.441300 -13.497600 6.510000
16.468400 0.924508 77.991400 -13.497600 4.680000
16.557400 0.929506 78.413000 -13.497600 6.070000
16.646400 0.934503 78.834600 -13.408800 6.620000
16.736300 0.438441 79.260300 -13.497600 7.690000
16.824900 0.692639 79.680200 -13.497600 7.490000
17.529600 1.202680 79.963300 -13.408800 6.960000
16.943300 6.927930 80.240500 -13.497600 8.120000
16.709900 0.964487 81.462000 -13.497600 6.800000
16.796500 0.969484 81.884000 -13.497600 9.490000
16.883000 0.974482 82.306100 -13.497600 8.110000
17.447600 0.979479 82.628700 -13.408800 7.890000
17.658600 6.887730 83.628000 -13.497600 7.580000
17.798100 5.829500 86.767200 -13.408800 5.620000
18.162100 4.336130 88.541500 -13.497600 16.950000
16.674300 2.239700 105.967000 -13.586400 14.200000
16.741300 2.248690 106.392000 -13.586400 9.580000
16.809300 1.923250 106.824000 -13.586400 12.450000
16.878600 0.587698 107.265000 -13.586400 11.800000
-10.910300 1.772370 120.145000 -13.586400 6.270000
-10.949300 1.778700 120.574000 -13.586400 9.350000
-10.987100 2.536520 120.989000 -13.497600 9.580000
-11.026000 2.545520 121.419000 -13.586400 9.330000
-9.785440 2.653460 126.711000 -13.586400 12.770000
-9.818610 2.662450 127.140000 -13.586400 12.350000
-10.834000 3.067140 127.481000 -13.586400 10.060000
-10.870400 3.077470 127.910000 -13.586400 7.640000
7.686080 0.615419 9.279790 -10.833600 5.610000
8.072430 0.615419 8.945730 -10.478400 5.550000
7.948550 0.936311 9.596680 -10.833600 9.440000
8.271080 0.637398 9.345340 -10.567200 8.730000
8.126620 0.968598 10.006400 -10.922400 9.550000
8.468710 0.968598 9.718540 -10.656000 8.560000
7.770770 1.396560 10.235800 -11.277600 7.840000
8.118900 1.319840 10.525000 -11.100000 7.120000
8.653840 1.000880 10.126300 -10.744800 6.920000
7.948030 1.443110 10.638600 -11.366400 9.910000
8.020490 1.362410 11.133100 -11.366400 7.430000
8.153100 1.447560 12.086000 -11.544000 4.840000
8.392900 1.490140 12.441500 -11.544000 4.070000
8.434410 1.532710 12.928500 -11.721600 5.870000
8.704820 0.616199 13.343000 -11.810400 7.870000
8.423830 1.512690 17.399500 -12.609600 7.430000
8.611030 1.546310 17.786100 -12.609600 6.460000
8.123080 1.704780 18.473400 -12.787200 6.290000
9.147420 1.799810 20.375200 -12.698400 10.640000
9.163000 1.834420 20.838300 -12.787200 8.110000
-5.677240 1.994950 22.922800 -13.320000 8.850000
-10.517600 1.718430 22.606100 -12.520800 8.090000
-10.696600 1.826490 22.990900 -12.520800 11.490000
-10.875400 1.937200 23.375200 -12.520800 15.080000
-10.919100 1.969480 23.828300 -12.520800 14.200000
18.493400 1.782810 19.792900 -10.389600 7.760000
8.130670 -2.084150 25.363000 -13.231200 8.770000
18.786900 1.811110 20.107100 -10.389600 7.490000
19.080500 1.839400 20.421300 -10.389600 8.640000
9.453600 -1.811110 25.843200 -13.053600 9.180000
18.731800 1.472610 21.919100 -10.656000 10.890000
9.770120 0.000000 26.708500 -13.053600 11.450000
19.011400 1.494590 22.246200 -10.656000 9.110000
9.729720 -2.318980 27.082300 -13.142400 6.700000
-5.871270 2.195490 28.622900 -13.408800 8.420000
10.459700 -2.195490 27.282500 -13.053600 5.690000
10.185500 -2.227770 27.844000 -12.964800 5.620000
-5.124050 2.389210 31.381400 -13.497600 10.580000
-5.194480 2.321810 31.812700 -13.497600 4.990000
-5.512040 2.352770 32.195300 -13.497600 10.060000
-6.026580 2.178990 32.554500 -13.497600 9.410000
9.596010 1.088620 35.776800 -13.408800 9.930000
19.254200 1.976060 31.601000 -11.988000 7.220000
10.680300 1.101280 35.917800 -13.320000 7.930000
10.592800 1.113940 36.392500 -13.320000 13.400000
-4.411370 2.873510 37.987000 -13.586400 6.000000
10.925800 1.126600 36.743500 -13.320000 14.950000
-4.460940 2.905790 38.413800 -13.586400 11.640000
-4.285910 2.938080 38.866100 -13.586400 6.710000
19.286400 1.098650 37.065300 -12.432000 14.850000
19.483600 1.240520 37.444200 -12.432000 10.700000
19.682400 1.253180 37.826300 -12.432000 12.020000
-7.284760 1.888490 44.614200 -13.497600 10.840000
19.713600 0.664638 40.718500 -12.609600 9.870000
-7.702890 1.624160 44.991900 -13.497600 7.270000
19.900300 0.812210 41.104300 -12.609600 8.840000
-7.775560 1.639490 45.416300 -13.497600 8.260000
19.765300 -0.410453 44.025800 -12.698400 9.970000
-16.557500 -2.433940 51.649800 -12.964800 7.050000
20.097500 -2.433940 50.378000 -12.964800 6.490000
20.550200 -2.453260 50.659800 -12.964800 6.240000
20.723900 -1.620270 51.088100 -12.964800 6.050000
20.885800 -1.632930 51.487200 -12.964800 7.540000
21.050800 -1.342520 51.893800 -12.964800 6.020000
21.615100 -1.352850 52.127900 -12.876000 9.490000
24.315800 -4.437220 51.227400 -12.609600 8.830000
20.817300 -1.506390 53.373900 -12.964800 7.480000
23.801600 -4.470840 51.941300 -12.698400 8.980000
-15.283600 -2.099150 56.981900 -13.231200 6.290000
-15.842600 -1.425140 57.297200 -13.142400 7.610000
-15.957400 -1.435460 57.712400 -13.142400 8.400000
14.716700 1.879530 77.007600 -13.586400 5.780000
14.797600 1.889860 77.430800 -13.586400 6.220000
16.379300 0.919511 77.569800 -13.497600 7.860000
17.069000 0.924508 77.862200 -13.497600 6.100000
17.161200 0.929506 78.283000 -13.497600 8.470000
16.646400 0.934503 78.834600 -13.497600 7.880000
17.345800 0.939500 79.124800 -13.497600 7.460000
17.437300 1.196350 79.542400 -13.497600 16.590000
16.912800 1.202680 80.096000 -13.497600 19.470000
16.999900 1.718000 80.508700 -13.497600 17.030000
17.181000 0.707298 81.366500 -13.586400 14.750000
17.270100 0.710963 81.788100 -13.586400 15.970000
17.359100 0.714627 82.209700 -13.586400 10.010000
17.448500 0.457098 82.633100 -13.586400 7.270000
17.537100 0.721957 83.052900 -13.586400 14.820000
17.626100 0.725622 83.474500 -13.586400 20.110000
17.621600 6.044150 85.906900 -13.497600 11.470000
17.708000 6.073770 86.328000 -13.497600 8.900000
17.357000 1.915590 106.300000 -13.586400 8.050000
17.428600 0.919854 106.738000 -13.586400 13.810000
-11.027200 1.791360 121.432000 -13.675200 8.150000
-11.066200 1.797690 121.861000 -13.675200 9.490000
-9.820090 1.479210 127.159000 -13.675200 7.950000
-9.852370 2.275720 127.577000 -13.675200 4.690000
-9.885540 2.283380 128.007000 -13.675200 7.340000
29.905100 1.886300 124.863000 -13.408800 6.930000
16.574100 4.530500 171.501000 -13.675200 5.550000
16.616500 4.141160 171.940000 -13.675200 5.250000
8.035650 0.598799 9.551030 -10.833600 7.410000
8.140160 0.619447 10.023000 -11.011200 5.130000
8.019130 1.597020 10.563000 -11.366400 7.820000
8.193530 1.648540 10.967200 -11.366400 8.910000
8.189420 1.675680 12.553000 -11.810400 4.270000
8.429070 1.628160 12.920300 -11.810400 3.270000
8.733710 1.484970 12.733900 -11.632800 4.170000
-7.204110 0.402756 15.177300 -12.432000 5.660000
9.273960 0.999899 13.978700 -11.810400 6.960000
-7.270230 0.199894 15.626400 -12.432000 8.800000
8.400130 2.094830 17.350500 -12.609600 5.970000
9.992470 2.141390 16.983900 -12.432000 5.640000
-5.903690 1.579920 19.308200 -13.142400 6.470000
-6.033420 1.422150 19.732500 -13.142400 8.100000
-6.130960 1.215400 20.618500 -13.142400 8.440000
8.271460 1.937920 20.733800 -13.053600 6.920000
9.805610 1.043120 21.075800 -12.698400 6.800000
-10.691500 1.718430 22.524400 -12.520800 3.850000
-6.126540 2.103770 24.138100 -13.320000 4.730000
-10.875900 1.748060 22.912800 -12.520800 10.370000
-11.062500 1.697910 23.306000 -12.520800 11.860000
-11.246900 1.726210 23.694400 -12.520800 9.280000
18.509300 1.384690 19.809900 -10.478400 6.720000
8.805640 -2.310600 25.116800 -13.231200 9.000000
18.803100 1.406670 20.124400 -10.478400 7.530000
8.925710 -3.016220 25.459300 -13.231200 10.760000
7.689430 -3.016220 25.859600 -13.231200 10.410000
8.908930 -3.297080 25.889800 -13.231200 10.740000
8.845200 -3.348590 26.363300 -13.231200 9.370000
9.604520 -1.362780 26.733800 -13.142400 7.710000
-5.027380 1.717780 28.377300 -13.497600 5.490000
9.707340 -3.030200 27.020000 -13.142400 7.250000
-5.330870 0.951348 28.796500 -13.497600 4.440000
10.056100 -1.313560 27.490200 -13.053600 4.770000
-5.972340 0.781512 29.115600 -13.408800 5.930000
-6.054890 1.352190 29.518100 -13.408800 5.540000
-5.731540 1.914770 29.991200 -13.497600 5.620000
10.116500 0.993319 28.855800 -13.231200 5.510000
10.256700 1.199090 29.255800 -13.231200 5.630000
-5.556090 1.527970 31.361600 -13.497600 6.960000
-5.631170 1.548620 31.785400 -13.497600 9.150000
-5.702690 1.948520 32.189100 -13.497600 9.190000
-5.147330 2.076580 32.711800 -13.586400 10.200000
18.825900 1.564680 29.348700 -11.899200 7.620000
19.058400 1.584000 29.711100 -11.899200 6.220000
19.290800 1.603310 30.073400 -11.899200 4.920000
19.523200 1.622630 30.435700 -11.899200 6.140000
10.558400 0.974058 35.508100 -13.408800 5.920000
10.681200 0.985385 35.920900 -13.408800 7.950000
10.804000 0.996711 36.333800 -13.320000 9.250000
10.915000 2.044990 36.707100 -13.320000 8.440000
10.780800 1.164570 38.131000 -13.408800 13.670000
19.227400 1.796480 35.113800 -12.343200 8.400000
10.899500 0.960419 38.551000 -13.408800 7.180000
19.436800 1.690650 35.496100 -12.343200 7.230000
11.016700 0.970746 38.965500 -13.408800 6.400000
19.643600 1.708630 35.873800 -12.343200 8.730000
19.487800 0.881487 37.452200 -12.432000 8.490000
-8.390640 3.395150 42.569200 -13.497600 6.130000
19.675700 1.291160 39.280500 -12.520800 7.890000
-8.910540 1.852520 43.439600 -13.408800 8.400000
-7.810720 1.870500 44.088000 -13.497600 5.270000
19.394500 1.189260 40.859500 -12.698400 4.930000
19.579300 1.200580 41.248700 -12.698400 8.760000
-7.961920 1.765330 44.941400 -13.497600 6.740000
19.765100 1.105000 41.640200 -12.698400 5.370000
20.104700 0.000000 43.873700 -12.787200 5.890000
20.284300 0.000000 44.265500 -12.787200 6.180000
20.460500 -0.873509 44.650100 -12.787200 4.980000
-3.283600 1.838680 51.570900 -13.675200 13.120000
-3.711650 1.854000 51.973600 -13.675200 11.720000
-3.743880 1.097360 52.424800 -13.675200 12.530000
-15.784600 -1.393130 50.576500 -13.053600 9.950000
-17.234600 -1.884640 50.084800 -12.876000 5.130000
-15.617900 -1.404460 51.078800 -13.053600 8.890000
20.110800 -1.427110 50.411200 -12.964800 8.240000
20.254100 -2.622330 50.770500 -12.964800 10.910000
13.028700 2.987060 54.398900 -13.497600 6.710000
23.988200 -1.187310 51.559300 -12.698400 10.640000
24.078000 -5.133160 51.752300 -12.698400 6.980000
-15.179200 -1.042080 56.592800 -13.231200 9.170000
-15.289900 -1.232280 57.005500 -13.231200 7.570000
-14.625700 -1.241280 57.624100 -13.320000 6.730000
-13.946500 -1.435460 58.231100 -13.231200 9.160000
32.535300 0.655991 69.930200 -12.698400 7.480000
15.497800 0.894524 75.552800 -13.586400 6.080000
32.717800 0.419784 70.322400 -12.787200 7.160000
16.023300 0.899522 75.883500 -13.586400 6.040000
15.671800 0.422116 76.401000 -13.586400 7.530000
15.165800 0.424448 76.942300 -13.586400 8.440000
16.379300 0.919511 77.569800 -13.586400 5.620000
16.468400 0.924508 77.991400 -13.586400 8.320000
16.557400 0.929506 78.413000 -13.586400 10.930000
16.646400 0.934503 78.834600 -13.586400 9.330000
16.735900 0.688974 79.258600 -13.586400 7.330000
16.824900 0.692639 79.680200 -13.586400 6.820000
16.914000 0.696304 80.101800 -13.586400 8.900000
16.537200 0.699968 80.620300 -13.586400 9.140000
16.623300 0.959490 81.039900 -13.586400 10.780000
16.709900 0.964487 81.462000 -13.586400 8.710000
16.797000 0.710963 81.886600 -13.586400 12.710000
16.883600 0.714627 82.308700 -13.586400 11.160000
16.970200 0.718292 82.730800 -13.586400 8.780000
17.056700 0.721957 83.152900 -13.586400 16.030000
17.292500 4.595480 84.302100 -13.586400 14.740000
16.742000 2.544340 84.939300 -13.586400 15.440000
16.828900 1.816940 85.380100 -13.586400 11.770000
17.747200 1.570780 86.519100 -13.586400 12.630000
17.833800 1.578450 86.941100 -13.586400 19.850000
17.196700 6.958370 87.245800 -13.586400 21.710000
17.295100 5.886090 87.745500 -13.586400 19.070000
26.984200 1.174380 97.592900 -13.408800 6.680000
27.099000 1.179370 98.008100 -13.408800 8.860000
27.213900 1.184370 98.423400 -13.408800 8.650000
17.289200 1.244340 105.885000 -13.675200 8.350000
17.359500 0.583034 106.315000 -13.675200 8.180000
17.429200 0.000000 106.742000 -13.675200 6.920000
-13.405200 2.865540 108.152000 -13.675200 5.830000
-13.458100 2.876870 108.580000 -13.675200 6.170000
-10.987700 2.160790 120.997000 -13.675200 6.100000
-11.026700 2.168450 121.426000 -13.675200 6.060000
-9.786510 1.867310 126.724000 -13.764000 5.080000
-9.819690 1.873640 127.154000 -13.675200 6.620000
-9.852860 1.879970 127.584000 -13.675200 7.950000
-42.849000 -19.826400 163.526000 -13.142400 5.280000
16.533700 4.120510 171.083000 -13.764000 7.370000
16.575100 4.130830 171.511000 -13.764000 9.420000
16.617700 3.606900 171.952000 -13.764000 7.470000
7.683840 0.680625 9.277090 -11.011200 4.600000
7.790450 0.704933 9.744970 -11.188800 4.130000
7.958270 0.704933 9.608410 -11.011200 4.790000
8.173810 1.902270 10.940800 -11.544000 3.430000
-7.181810 1.751570 12.648900 -11.899200 3.840000
8.248500 1.402470 12.026400 -11.721600 3.380000
-7.393040 1.803090 13.020900 -11.899200 3.760000
-7.508240 1.723550 13.464400 -11.899200 3.200000
-6.906940 0.139261 14.845500 -12.432000 8.020000
-7.627490 1.718620 14.386900 -12.076800 7.070000
-7.083660 0.649507 15.225400 -12.432000 8.320000
8.805440 1.763850 14.204400 -12.076800 7.870000
-7.265290 0.666161 15.615700 -12.432000 5.630000
8.918670 1.809070 14.637800 -12.076800 5.560000
-7.815890 0.628214 15.831500 -12.343200 5.770000
-7.144200 1.076810 16.593100 -12.609600 5.570000
-0.213446 1.559690 18.461700 1.154400 7.640000
-0.109207 1.595960 18.892000 1.154400 15.600000
-6.619910 1.814960 17.673400 -12.876000 8.120000
-11.593200 4.951980 14.733200 -12.165600 10.650000
-0.228099 1.897460 19.729100 1.154400 15.840000
-11.841100 5.121270 15.048200 -12.165600 10.590000
-1.048310 1.938700 20.132000 1.154400 8.220000
-6.414260 1.876350 19.117900 -13.053600 7.840000
-0.398210 0.799394 20.663900 1.154400 8.040000
-6.550730 1.916270 19.524600 -13.053600 7.130000
-0.403893 2.524330 20.958800 1.154400 4.730000
-6.701600 1.386630 19.974300 -13.053600 7.710000
-1.242950 1.148870 21.478400 1.154400 3.580000
-11.044200 1.414930 18.444800 -13.142400 10.060000
0.549633 1.171850 21.937700 1.154400 6.650000
-11.102100 1.900650 18.869900 -13.053600 4.710000
-11.104300 1.849860 18.873600 -12.609600 10.500000
0.560214 1.333200 22.360100 1.154400 7.310000
-11.319800 1.937920 19.239900 -13.053600 6.680000
-11.173400 1.886140 19.330400 -12.609600 8.350000
-0.570988 1.358840 22.790100 1.154400 6.360000
-11.372900 2.256490 19.675500 -13.320000 5.220000
-14.657900 1.781610 17.422200 -12.343200 4.970000
-5.705840 1.869030 22.480600 -13.320000 5.300000
-14.934500 1.815230 17.750900 -12.254400 6.630000
-5.813950 1.775760 22.906600 -13.320000 7.120000
8.610210 1.938250 22.458500 -13.142400 5.250000
-10.689200 1.795540 22.519500 -12.609600 4.800000
-6.252570 0.609298 24.634700 -13.408800 6.340000
-11.049700 1.826490 22.823300 -12.609600 4.500000
-6.213630 0.619625 25.088600 -13.408800 8.320000
-11.239400 1.777690 23.215200 -12.609600 9.180000
-6.296570 2.212580 25.423500 -13.408800 10.920000
-11.426800 1.807320 23.602100 -12.609600 9.530000
9.121160 -2.968340 24.934500 -13.142400 5.850000
9.127800 -2.849290 25.406900 -13.142400 4.930000
8.728800 -8.027280 24.897700 -13.320000 7.060000
9.117370 -7.570740 25.377800 -13.320000 6.830000
7.449360 -7.687210 26.347900 -13.497600 10.420000
9.038290 -1.187050 26.938800 -13.231200 10.850000
8.805550 -1.205040 27.468200 -13.320000 8.700000
9.082230 2.575300 29.101000 -13.408800 6.060000
10.221800 1.604490 29.705200 -13.320000 10.190000
-5.629630 1.723300 31.776700 -13.586400 5.930000
-5.703720 1.847410 32.194900 -13.586400 7.170000
-5.590120 1.871720 32.651400 -13.586400 6.380000
-4.692060 2.157490 34.083000 -13.675200 7.860000
18.834900 1.133220 29.362800 -11.988000 5.070000
19.067500 1.147210 29.725300 -11.988000 7.750000
-19.767600 -0.746565 29.795900 -11.366400 5.640000
19.300000 1.161200 30.087800 -11.988000 8.850000
-17.246300 -4.549610 31.495800 -0.444000 8.220000
-17.969900 -4.549610 31.088700 -0.266400 11.260000
-20.081500 -4.549610 29.768400 -0.444000 8.150000
-19.270500 -1.953080 31.085900 -11.632800 7.620000
10.353600 0.888129 35.570600 -13.497600 8.510000
10.681800 0.898456 35.923000 -13.497600 8.150000
10.804600 0.908783 36.335900 -13.497600 8.160000
10.927400 0.919110 36.748800 -13.497600 12.450000
-18.415200 -1.498860 34.096900 -12.076800 6.370000
-19.356600 -0.818524 34.091400 -11.899200 5.220000
18.814000 2.022090 34.835300 -12.432000 16.980000
-19.567900 -0.950092 34.463700 -11.899200 6.680000
10.887200 2.136900 38.507200 -13.497600 16.760000
19.018500 2.044070 35.213900 -12.432000 6.580000
19.225900 1.940930 35.598000 -12.432000 8.680000
11.122600 2.088030 39.340100 -13.497600 8.100000
19.427500 2.088030 35.971200 -12.432000 6.960000
-20.203100 1.202550 35.582400 -11.988000 6.890000
11.023700 -0.351817 39.869000 -13.497600 9.160000
-20.415700 1.215210 35.956900 -11.988000 7.310000
-20.347800 1.227860 36.489400 -11.988000 6.050000
-20.557600 1.240520 36.865600 -11.899200 5.570000
-19.885500 0.899476 38.216600 -12.165600 13.370000
-8.573090 2.126770 43.494900 -13.586400 17.270000
-8.402320 2.147420 43.966400 -13.586400 16.850000
-8.226380 2.168060 44.437500 -13.586400 7.520000
19.901300 0.670967 41.106300 -12.787200 12.590000
-18.154700 -0.403123 43.782500 -12.698400 6.360000
19.925200 0.000000 43.482000 -12.876000 8.100000
-18.319700 -0.406788 44.180600 -12.698400 5.620000
20.104700 0.000000 43.873700 -12.876000 9.550000
20.284200 0.112942 44.265300 -12.876000 4.980000
11.441400 -0.113942 47.771400 -13.675200 6.330000
20.463700 0.113942 44.657100 -12.876000 7.740000
-19.557800 -3.101390 45.424900 -12.609600 8.220000
-3.255460 2.140290 51.128900 -13.852800 15.190000
-2.984730 2.158270 51.576600 -13.852800 10.310000
-3.009980 2.015140 52.012900 -13.852800 13.710000
-16.945600 -2.498440 49.245000 -13.053600 17.570000
-3.337950 2.031790 52.424400 -13.852800 10.110000
-15.643700 -2.519080 50.125000 -13.142400 10.020000
-16.839400 -2.539730 50.190200 -13.053600 15.260000
-16.976300 -2.560380 50.598300 -13.053600 7.850000
-16.736200 -0.957795 51.187400 -13.053600 8.730000
-16.870100 -0.965457 51.596900 -13.053600 6.140000
12.287200 3.505920 54.540200 -13.675200 7.780000
12.381700 3.532890 54.959800 -13.675200 6.060000
16.004700 0.168914 71.041400 -13.675200 9.030000
16.099400 0.169913 71.461800 -13.675200 7.290000
15.778300 0.170913 71.974500 -13.675200 7.270000
-14.395900 1.126720 75.328700 -13.586400 5.570000
-14.476800 1.133050 75.751900 -13.586400 5.590000
16.607600 0.899522 75.757800 -13.675200 8.800000
16.699200 1.145710 76.175600 -13.675200 6.370000
16.198900 1.637050 76.715100 -13.675200 7.980000
16.881900 1.646040 77.008800 -13.675200 5.240000
16.379300 0.919511 77.569800 -13.675200 5.580000
16.468900 0.677980 77.993800 -13.675200 5.370000
16.735900 0.688974 79.258600 -13.675200 6.360000
16.825500 0.188904 79.682800 -13.675200 7.240000
16.914500 0.189903 80.104500 -13.675200 7.360000
17.003400 0.445438 80.525100 -13.675200 5.360000
17.092000 0.703633 80.944900 -13.675200 6.310000
16.709900 0.964487 81.462000 -13.764000 9.970000
16.797000 0.710963 81.886600 -13.764000 10.330000
16.883600 0.714627 82.308700 -13.675200 5.530000
17.448100 0.718292 82.631300 -13.675200 7.910000
17.013300 6.098630 82.941000 -13.675200 9.000000
17.099600 6.129590 83.362000 -13.675200 11.420000
17.203100 4.837300 83.866300 -13.675200 13.060000
15.409300 0.478087 86.978800 -13.764000 9.840000
16.156800 1.029450 87.276500 -13.764000 7.740000
18.427700 0.482752 87.270600 -13.675200 7.310000
17.967200 6.162660 87.591300 -13.675200 14.040000
18.057300 5.914390 88.030800 -13.675200 18.020000
18.654700 5.942690 88.345600 -13.764000 16.790000
26.340500 1.808320 98.205200 -13.586400 11.260000
26.452100 1.815980 98.621300 -13.497600 8.900000
17.290100 -0.580701 105.890000 -13.764000 9.630000
17.359500 -0.583034 106.315000 -13.764000 11.030000
17.429200 -0.250872 106.742000 -13.764000 11.920000
18.323500 0.923518 107.026000 -13.764000 8.250000
-11.321000 1.938580 108.411000 -13.764000 8.310000
-11.994700 1.946240 108.772000 -13.764000 8.040000
-12.673000 1.953900 109.129000 -13.764000 9.050000
16.576200 3.597910 171.523000 -13.852800 7.180000
16.618700 3.072610 171.962000 -13.852800 9.800000
