VERSION .7
FIELDS x y z velocity intensity
SIZE 4 4 4 4 4
TYPE F F F F F
COUNT 1 1 1 1 1
WIDTH 893
HEIGHT 1
VIEWPOINT 0 0 0 1 0 0 0
POINTS 893
DATA ascii
0.454078 0.411500 1.138220 0.000000 0.000000
-5.984540 1.458380 8.307050 -11.632800 2.370000
-6.167020 1.519140 8.700970 -11.721600 3.020000
-5.870290 1.175900 9.469590 -12.165600 3.950000
-6.413700 1.579910 9.049010 -11.721600 5.210000
-6.020100 1.221120 9.880490 -12.165600 3.760000
-6.629320 1.006230 9.507710 -11.721600 6.770000
-5.893410 1.532350 10.912000 -12.698400 2.910000
-5.947440 1.443110 11.873500 -12.876000 3.880000
-5.984440 1.235050 12.360900 -12.964800 7.460000
-5.787850 1.579920 12.892000 -13.142400 9.360000
-6.269520 1.273640 12.699200 -12.964800 10.130000
9.237790 0.120937 10.809600 -11.544000 12.130000
-6.071470 1.492640 13.249500 -13.142400 9.060000
-6.476350 0.781231 13.118200 -12.964800 8.990000
-5.145850 1.756770 14.067200 -13.408800 6.150000
-5.901290 1.806970 14.231800 -13.320000 6.640000
-5.360770 1.673390 14.921500 -13.586400 5.990000
-6.092340 1.096240 14.692500 -13.320000 5.850000
-5.389110 1.668250 15.371700 -13.586400 6.030000
-6.256990 1.125870 15.089600 -13.320000 3.960000
-5.444580 1.556970 15.822300 -13.675200 3.700000
-6.093260 1.103640 15.622600 -13.497600 5.600000
-5.368400 1.691210 16.746300 -13.764000 4.910000
-5.366960 1.732460 17.196600 -13.852800 5.490000
9.741640 1.411840 15.186800 -12.609600 6.150000
-5.392880 1.773710 17.637600 -13.852800 4.490000
9.975950 1.388320 15.552000 -12.698400 9.380000
-5.379030 1.814960 18.089700 -13.852800 5.560000
10.082600 1.479070 15.988100 -12.698400 11.120000
-5.395830 1.796500 18.537800 -13.941600 5.190000
10.185400 1.512690 16.430500 -12.698400 9.700000
-5.770820 1.836430 18.873600 -13.852800 5.100000
9.646420 0.766086 17.298800 -13.053600 5.170000
-9.701740 1.455000 17.717600 -12.698400 7.260000
-9.803390 1.485960 18.151600 -12.698400 11.340000
1.118380 1.281920 21.477700 0.976800 14.960000
1.140750 1.307560 21.907300 0.976800 15.020000
2.022450 1.402370 22.271200 0.888000 6.010000
1.183750 1.834420 22.733100 0.888000 11.310000
-4.703900 1.781610 22.276900 -14.208000 5.300000
-4.661370 1.815230 22.724500 -14.296800 4.020000
-5.059430 1.848840 23.079200 -14.208000 5.930000
0.741543 1.882460 24.045400 0.888000 8.310000
10.677500 0.708870 21.627900 -13.497600 7.630000
0.754785 1.916070 24.474800 0.888000 4.630000
10.227500 0.721529 22.319000 -13.497600 6.470000
-5.252070 -0.294843 24.872900 -14.208000 10.170000
-5.186860 1.458480 25.286300 -14.208000 13.320000
-5.421820 1.482790 25.676900 -14.208000 11.350000
-5.006850 1.507100 26.199100 -14.385600 5.160000
-5.239470 1.699020 26.582000 -14.385600 11.310000
-8.616340 1.782810 25.681200 -13.764000 6.560000
12.343800 -0.314833 24.175900 -13.320000 11.320000
10.003100 1.640860 25.647000 -13.852800 10.490000
12.539700 -0.319830 24.559700 -13.320000 10.700000
-8.403700 1.640860 26.214700 -13.852800 10.420000
-8.535000 1.666500 26.624300 -13.852800 10.500000
-9.762820 1.099170 26.688500 -13.675200 7.780000
-9.911880 1.026590 27.096000 -13.675200 8.570000
-3.988250 1.833870 28.970500 -14.474400 5.300000
-8.172860 1.833870 28.078500 -13.941600 5.710000
-10.059800 1.041920 27.500500 -13.586400 5.430000
-3.821620 1.677250 29.437700 -14.474400 8.950000
-3.878730 1.445380 29.877600 -14.474400 7.810000
-3.807990 2.037490 30.722700 -14.474400 9.040000
-16.250800 -3.351740 26.214800 -0.532800 4.500000
-3.860880 2.065790 31.149400 -14.474400 5.250000
10.560600 6.415290 29.395100 -25.219200 7.060000
20.388600 -3.714320 24.233500 -0.710400 7.540000
-4.401180 1.723300 31.970000 -14.474400 6.800000
10.875400 6.501980 29.730000 -25.219200 8.250000
20.676900 -3.590740 24.576200 -0.710400 7.480000
-5.874370 1.723300 31.732400 -14.474400 5.400000
-5.518460 1.746280 32.232800 -14.474400 9.460000
-4.897690 1.769260 32.768100 -14.474400 7.590000
-4.775620 -0.493731 33.265500 -14.474400 8.610000
10.689800 0.493731 31.861100 -14.119200 5.230000
-4.642010 -0.500061 33.719400 -14.474400 6.960000
-8.182740 0.500061 33.039200 -14.119200 7.510000
-4.700770 -0.506391 34.146200 -14.474400 5.220000
-18.374300 -1.332320 29.136400 -12.165600 7.210000
-8.388980 0.728576 33.871900 -14.119200 10.140000
12.539800 -1.050650 33.477800 -13.941600 9.670000
-16.237600 -2.017570 31.802200 -12.876000 13.330000
-17.152800 -1.907120 31.325000 -12.698400 5.610000
-16.680800 -2.041870 32.057800 -12.787200 13.610000
-17.359500 -1.930100 31.702400 -12.609600 6.340000
-16.882300 -1.953080 32.444900 -12.787200 10.070000
-17.080900 -1.976060 32.826600 -12.787200 5.560000
-10.458400 2.230550 35.930700 -13.941600 7.330000
-19.236400 -1.796400 32.126400 -12.343200 7.290000
-10.580500 2.139110 36.350300 -13.941600 7.610000
-10.702600 2.044990 36.769600 -13.941600 8.080000
-16.975800 -0.444763 34.385400 -12.964800 7.250000
-17.367800 -0.329828 34.673000 -12.964800 8.830000
-17.830400 -0.333493 34.921900 -12.876000 7.630000
11.808600 0.704937 37.836700 -14.208000 6.830000
11.934700 1.053340 38.240800 -14.208000 5.750000
12.360600 1.064670 38.557800 -14.208000 10.100000
12.495500 0.474748 38.978900 -14.208000 11.510000
12.323100 0.479745 39.485300 -14.208000 8.970000
19.330600 -2.844300 36.461200 -13.142400 5.590000
12.451900 0.355481 39.897900 -14.208000 5.990000
12.018700 2.251780 40.419100 -14.208000 7.540000
19.048100 -2.297740 38.582900 -13.320000 6.350000
13.985200 0.258867 45.738900 -14.208000 10.220000
14.110900 0.410453 46.150000 -14.208000 9.910000
14.237200 0.263531 46.563000 -14.208000 9.180000
14.363200 0.265863 46.975100 -14.208000 6.740000
-16.348400 -3.712960 46.631500 -13.675200 6.410000
13.591900 1.622890 48.073600 -14.296800 7.830000
14.536700 0.289185 51.415300 -14.296800 6.550000
14.582400 0.803895 52.739500 -14.296800 7.590000
30.604000 0.000000 45.366800 -12.520800 7.470000
14.925200 1.169320 53.979400 -14.296800 17.110000
15.042300 0.654652 54.402800 -14.296800 22.020000
15.157600 0.483748 54.819800 -14.296800 17.470000
14.956000 1.026760 55.760600 -14.296800 5.870000
15.069000 0.674641 56.181800 -14.296800 8.530000
14.854200 -0.135931 56.688400 -14.296800 8.130000
14.963400 0.000000 57.105400 -14.296800 16.590000
15.072600 0.000000 57.522200 -14.296800 21.420000
15.530900 15.586500 56.170100 -14.296800 11.680000
15.615700 16.060500 56.476600 -14.296800 9.070000
12.468100 0.335827 60.783100 -14.474400 7.570000
16.998500 0.338159 60.122800 -14.474400 15.130000
13.826500 0.000000 61.373200 -14.385600 8.720000
16.297900 0.000000 60.763700 -14.385600 7.630000
13.563600 -0.342824 61.872100 -14.385600 8.470000
13.175500 0.147925 62.397200 -14.474400 10.880000
15.790400 1.538740 62.213000 -14.385600 7.890000
15.899200 0.949482 62.641800 -14.385600 12.520000
16.492500 0.000000 62.941000 -14.385600 18.900000
16.601800 0.000000 63.357800 -14.385600 20.770000
16.322400 1.180000 64.309000 -14.385600 14.660000
16.429900 0.774588 64.732500 -14.296800 15.210000
16.160100 0.000000 65.249000 -14.385600 11.530000
16.749000 0.000000 65.989800 -14.385600 8.290000
15.448900 0.000000 80.838900 -14.563200 9.390000
15.529800 0.191902 81.262000 -14.563200 10.020000
15.610700 0.192902 81.685200 -14.563200 10.850000
15.691500 0.193901 82.108400 -14.474400 6.920000
-14.656900 0.974482 82.731600 -14.385600 9.560000
-14.732100 0.979479 83.155800 -14.385600 8.330000
-14.807200 0.984476 83.580100 -14.385600 6.870000
-15.529400 0.989474 83.887200 -14.385600 7.020000
-13.532300 0.220887 94.262200 -14.474400 6.340000
-14.140700 0.221887 94.608600 -14.474400 5.940000
-14.204400 0.222886 95.034800 -14.474400 5.950000
-14.268100 0.000000 95.461200 -14.474400 7.290000
-13.961000 0.000000 97.248200 -14.474400 5.740000
-13.457400 0.000000 97.754100 -14.474400 7.660000
-12.561700 0.236879 101.347000 -14.563200 6.550000
-12.614700 0.237879 101.775000 -14.474400 7.420000
-12.667800 0.000000 102.203000 -14.474400 11.490000
-12.720800 0.000000 102.631000 -14.474400 10.780000
-12.773800 0.000000 103.058000 -14.474400 6.070000
13.285800 3.067210 146.303000 -14.652000 12.950000
13.324700 3.076210 146.732000 -14.652000 15.760000
13.362800 3.542190 147.151000 -14.652000 14.070000
-6.097860 0.283119 4.049200 -5.416800 3.750000
-6.456550 0.299773 4.287390 -5.683200 4.600000
-5.962040 1.054190 5.511020 -9.679200 2.970000
-6.933290 0.619150 5.080950 -8.436000 6.020000
-6.230930 1.109680 5.849270 -9.768000 3.140000
-7.168310 0.594269 5.490430 -8.613600 6.700000
-6.178500 1.191560 7.090340 -10.833600 2.950000
-6.213460 1.040220 7.650680 -11.188800 6.330000
-5.837850 1.040220 7.941000 -11.544000 5.760000
-6.421890 1.085440 8.033050 -11.188800 5.780000
-6.005410 1.180820 8.336030 -11.632800 6.290000
-6.562700 0.773938 8.507570 -11.277600 6.480000
-5.859000 1.031230 8.980840 -11.988000 6.960000
-6.430780 0.773938 8.607720 -11.455200 8.890000
-6.019370 1.106960 9.383920 -12.076800 7.050000
-6.688010 0.804896 8.952030 -11.455200 5.900000
-6.183940 0.979340 9.805950 -12.076800 3.990000
-5.701790 1.266350 10.557200 -12.609600 6.680000
-9.722170 1.118030 8.446110 -9.679200 6.570000
-6.052370 1.311580 10.853600 -12.609600 7.320000
-9.642260 1.088160 8.541080 -9.768000 7.510000
-5.759350 1.317040 11.497900 -12.787200 8.250000
-6.349460 1.317040 11.182900 -12.520800 9.060000
-9.963670 1.124430 8.825780 -9.768000 4.830000
-6.059950 0.918473 11.868700 -12.787200 8.990000
-6.579820 0.918473 11.588600 -12.520800 7.560000
-5.537170 0.948101 12.592500 -13.053600 7.360000
9.577510 -1.448740 10.410200 -11.100000 9.800000
-5.785820 1.623620 12.887500 -13.142400 5.770000
8.117030 -0.889964 11.641400 -12.165600 6.940000
-5.473070 1.627800 13.492100 -13.320000 5.550000
8.456790 -0.871707 11.931600 -12.076800 7.370000
9.146210 0.305822 11.440900 -11.632800 9.350000
9.505710 0.314817 11.704400 -11.544000 14.410000
-5.472340 0.804209 14.030600 -13.408800 10.580000
-6.453830 0.791253 14.083900 -13.053600 7.140000
9.684220 0.323812 12.113900 -11.632800 15.890000
-5.739760 0.827186 14.387700 -13.408800 6.510000
-6.633100 0.813233 14.475100 -13.053600 5.370000
9.953230 0.332806 12.450400 -11.632800 12.680000
-9.955540 4.328370 12.258300 -11.366400 13.340000
-10.022400 4.442280 12.736900 -11.455200 8.380000
-5.518350 1.315240 15.360100 -13.497600 6.150000
-5.205630 1.349860 15.921400 -13.675200 6.970000
9.976700 0.996629 14.546200 -12.254400 8.590000
-5.383620 1.051180 16.793800 -13.675200 6.870000
10.097000 1.244380 14.967700 -12.254400 7.840000
-5.381150 1.132680 17.242100 -13.764000 6.110000
10.100000 1.274010 15.481600 -12.343200 5.390000
-5.270680 1.159650 17.725300 -13.852800 5.610000
9.431470 0.989067 16.913300 -12.876000 8.200000
9.774030 1.011050 17.214400 -12.787200 8.140000
10.562500 0.888583 16.749100 -12.520800 7.570000
9.656930 1.661360 18.214800 -12.964800 6.970000
10.317200 1.661360 17.849100 -12.698400 7.210000
10.116800 1.451780 18.475600 -12.964800 6.060000
10.325400 1.414930 18.856600 -12.964800 11.320000
-5.288870 1.414930 20.837800 -14.030400 13.300000
10.527400 1.578830 19.225500 -12.964800 5.000000
10.733800 1.609790 19.602500 -13.053600 12.200000
-4.787730 1.471520 21.839800 -14.119200 6.710000
-8.900940 1.023800 21.006800 -13.231200 4.090000
-4.708090 1.499820 22.296700 -14.119200 6.050000
-4.796920 1.528120 22.717400 -14.119200 4.830000
-10.320700 0.842726 21.317600 -12.964800 8.280000
-10.508400 0.858049 21.705200 -12.964800 6.010000
-10.696000 0.873371 22.092700 -12.964800 8.880000
-4.462960 1.461390 24.108200 -14.208000 4.340000
-4.352060 1.487030 24.565400 -14.296800 6.590000
-4.428640 1.355670 24.997700 -14.296800 5.790000
-4.994750 1.159020 25.340500 -14.208000 8.900000
10.895100 1.159020 23.417600 -13.320000 8.560000
-5.078680 1.097120 25.766200 -14.208000 12.350000
10.924000 -1.807320 23.839000 -13.408800 11.010000
-5.514680 1.115110 26.116600 -14.208000 7.790000
11.103100 -1.836950 24.229800 -13.408800 10.590000
18.826300 -0.319830 20.149200 -10.922400 10.570000
10.037200 -1.782810 25.159900 -13.675200 14.090000
12.179200 -1.896200 24.669700 -13.320000 10.580000
19.120500 -0.324827 20.464100 -10.922400 8.920000
-3.913310 1.470550 27.258900 -14.385600 14.640000
12.013000 -0.724881 24.813000 -13.320000 10.750000
-2.529430 1.493530 27.854000 -14.296800 11.390000
12.585300 -0.747533 25.492200 -13.231200 9.900000
-18.022200 -0.691915 22.543700 -11.100000 9.390000
-4.576460 1.516510 28.027800 -14.296800 9.310000
12.925400 -0.758859 25.804100 -13.231200 8.770000
-18.291100 -0.702242 22.880100 -11.100000 7.440000
-18.380600 -0.712569 23.359000 -11.188800 7.390000
-8.550830 1.833870 27.965700 -13.764000 9.860000
-7.687350 1.860830 28.660800 -13.941600 5.550000
-8.026950 1.608420 29.030800 -13.941600 6.610000
-8.142610 1.560530 29.449100 -13.941600 8.600000
-18.306300 -0.962038 27.136900 -11.810400 7.270000
-18.968800 -0.974697 27.204800 -11.721600 7.770000
-16.590200 -0.805513 29.219200 -12.343200 4.930000
-16.802900 -0.815840 29.593800 -12.343200 6.490000
-7.265870 1.622630 35.421700 -14.208000 8.990000
11.772400 1.063310 34.211100 -13.941600 8.690000
-16.889300 -1.641950 32.458500 -12.698400 9.270000
10.434800 1.075960 35.092100 -14.030400 7.440000
-17.088000 -1.661260 32.840400 -12.698400 9.220000
-17.772800 -1.976060 32.457300 -12.520800 7.520000
-8.628270 0.974058 36.025800 -14.030400 9.700000
-18.232000 -1.999030 32.695100 -12.520800 9.480000
-8.728600 0.985385 36.444700 -14.030400 6.770000
-18.441500 -2.022010 33.070900 -12.520800 9.000000
-8.615690 0.996711 36.914000 -14.030400 8.750000
-9.823770 1.379010 37.490800 -13.941600 7.710000
-9.930550 1.636690 37.898300 -13.941600 5.190000
-10.035400 2.022090 38.298200 -13.941600 7.970000
12.318600 1.215210 39.470900 -14.030400 8.390000
12.446900 1.227860 39.882100 -14.030400 6.410000
12.580500 0.228549 40.310000 -14.030400 7.090000
-2.708970 1.516910 42.546000 -14.474400 6.400000
12.709000 0.098949 40.721900 -14.030400 10.680000
12.599400 0.099949 41.206700 -14.030400 11.460000
12.957600 -1.547550 41.518400 -14.030400 8.610000
13.877600 0.414117 46.670400 -14.119200 7.420000
14.000400 0.417782 47.083400 -14.119200 7.270000
14.123200 0.421447 47.496400 -14.119200 7.310000
14.246000 0.425112 47.909400 -14.119200 7.680000
14.368400 0.584689 48.320900 -14.119200 7.340000
-26.306800 0.447100 45.511900 -12.432000 18.630000
14.691800 0.121938 50.474900 -14.119200 21.800000
14.931700 -0.619670 51.299100 -14.119200 20.470000
14.650900 1.124350 51.819400 -14.208000 14.200000
14.770400 0.629665 52.241900 -14.208000 7.850000
14.887600 0.634663 52.656500 -14.208000 7.230000
15.004800 0.639660 53.071100 -14.208000 8.320000
14.622500 0.654652 54.517100 -14.208000 14.410000
15.072400 0.321835 57.521400 -14.208000 17.710000
15.181600 0.324167 57.938200 -14.208000 20.210000
15.290900 0.326499 58.355000 -14.208000 17.670000
15.712200 2.781650 59.962800 -14.208000 14.610000
15.943900 -1.118700 60.847200 -14.208000 24.640000
16.043600 2.448140 61.227900 -14.296800 25.770000
16.112900 -0.151922 63.483700 -14.208000 10.240000
24.943800 0.909516 74.345600 -14.030400 7.190000
25.657100 0.670650 74.560900 -14.030400 13.190000
15.691400 0.452434 82.107500 -14.385600 13.470000
15.772200 0.454766 82.530700 -14.385600 11.820000
15.853100 0.457098 82.953900 -14.385600 9.290000
14.324800 0.196900 83.669700 -14.296800 7.600000
-14.392500 2.242600 84.065600 -14.296800 8.150000
-14.467900 1.524810 84.506000 -14.296800 9.400000
-13.886300 1.265980 85.044500 -14.296800 13.540000
-13.715900 0.522398 95.540700 -14.385600 8.840000
-13.777300 0.000000 95.968600 -14.385600 9.920000
-13.838500 0.000000 96.395100 -14.385600 12.010000
-13.899700 0.226884 96.821400 -14.385600 10.020000
-13.960500 -0.835564 97.244700 -14.385600 5.850000
-13.457200 -0.534059 97.752700 -14.385600 7.910000
-14.083300 -0.536391 98.099800 -14.385600 13.600000
-14.144700 0.000000 98.527800 -14.385600 14.450000
-12.870000 -0.231882 99.136600 -14.385600 12.250000
-12.925400 -0.232881 99.563900 -14.385600 10.290000
-12.980900 -0.233881 99.991300 -14.385600 8.650000
-11.929200 0.559712 102.724000 -14.385600 6.380000
-11.978900 0.562044 103.152000 -14.385600 6.080000
-12.028600 0.564376 103.580000 -14.385600 6.650000
-12.078100 0.890536 104.006000 -14.385600 8.990000
14.255600 3.094200 147.510000 -14.474400 6.880000
14.297000 3.103190 147.939000 -14.474400 10.570000
14.338500 3.112190 148.368000 -14.474400 14.570000
-6.354790 0.887689 7.553190 -10.922400 4.200000
-6.470420 1.268150 7.967070 -11.188800 4.790000
-6.570140 0.926285 7.932460 -11.011200 5.610000
-9.644650 1.149530 6.404400 -6.748800 3.730000
-6.004940 0.865292 8.901610 -11.721600 4.570000
-6.675850 1.320990 8.350730 -11.277600 6.690000
-10.001900 1.192110 6.641590 -6.926400 3.660000
-6.159130 1.426670 9.766610 -12.165600 3.260000
-5.498160 1.221120 10.180200 -12.609600 4.180000
-6.387240 1.479510 10.128300 -12.165600 4.240000
-5.620260 1.266350 10.600900 -12.698400 6.950000
-6.452410 0.928726 11.162900 -12.432000 7.630000
-5.512600 1.356800 11.613700 -12.964800 5.170000
-6.667490 0.959683 11.535000 -12.343200 8.750000
-5.537480 1.319840 12.084200 -13.053600 5.620000
-6.044610 1.319840 11.838700 -12.787200 5.480000
-6.241480 1.319970 12.224300 -12.787200 5.180000
8.201380 -1.021600 11.571200 -12.076800 5.780000
8.357770 -1.052560 11.986700 -12.076800 7.970000
9.505710 0.314817 11.704400 -11.632800 10.910000
9.684220 0.323812 12.113900 -11.721600 14.950000
9.953230 0.332806 12.450400 -11.721600 14.150000
-6.611720 5.511380 13.929300 -13.142400 6.410000
-5.513980 1.466620 15.347900 -13.497600 6.160000
-5.659090 1.505210 15.751800 -13.497600 5.400000
9.626500 0.879170 14.270200 -12.343200 6.950000
9.867160 0.901150 14.626900 -12.343200 8.480000
9.336040 1.033030 17.942300 -13.053600 5.660000
-5.496540 1.549760 19.879200 -13.941600 5.020000
9.675630 1.055000 18.250000 -13.053600 8.470000
10.023500 0.946534 18.559100 -13.053600 12.410000
10.228000 0.965851 18.937800 -13.053600 12.190000
-5.063940 1.556420 23.099800 -14.119200 9.660000
-4.838320 1.584720 23.587200 -14.208000 7.910000
-5.709500 1.537210 23.839000 -14.030400 4.320000
-5.809670 1.564180 24.257200 -14.030400 6.150000
-3.943270 1.669610 25.059900 -14.296800 4.490000
10.051500 -0.530691 23.345600 -13.497600 4.500000
-6.011140 1.538310 25.098400 -14.119200 6.290000
10.406100 -0.299841 23.665400 -13.497600 6.710000
-6.113460 1.401620 25.525600 -14.030400 11.050000
10.764700 -0.304838 23.977600 -13.497600 7.570000
-6.413450 1.424600 25.895400 -14.030400 13.490000
18.182700 0.566670 20.149700 -11.100000 12.580000
-17.928700 -0.153921 22.075700 -11.011200 11.350000
-8.025590 1.701560 29.025900 -13.941600 8.650000
-8.137240 1.914770 29.429700 -13.941600 6.520000
-18.175900 -1.215740 25.644100 -11.721600 7.680000
-4.048450 0.753877 31.185000 -14.385600 5.570000
-17.882200 -1.164490 27.410400 -11.988000 6.210000
-19.035100 0.500061 28.217200 -11.810400 8.050000
-4.824870 2.445640 33.608600 -14.296800 6.450000
-3.976400 0.186571 34.241400 -14.385600 7.240000
-4.293190 0.188903 34.637300 -14.385600 8.340000
-7.926180 1.456830 33.959800 -14.030400 5.120000
-17.896900 -1.693160 30.418900 -12.254400 6.870000
-8.024040 1.474820 34.379000 -14.030400 5.210000
-18.112400 -1.824280 30.785200 -12.343200 11.220000
-8.121890 1.492810 34.798300 -14.030400 6.530000
20.215600 -1.846260 29.967300 -12.343200 8.150000
-18.330600 -1.846260 31.156100 -12.343200 7.660000
-8.423180 1.510790 35.169400 -14.030400 6.050000
-7.560450 1.528780 35.805100 -14.208000 7.030000
-16.127100 -1.890220 33.310600 -12.964800 10.780000
-17.279500 -1.999030 33.208400 -12.698400 9.340000
-16.061300 -1.564750 33.837200 -12.964800 9.210000
-15.979500 -1.699900 34.345800 -13.053600 9.230000
-15.691100 -1.719210 34.950900 -13.053600 7.850000
12.758600 0.484742 39.799500 -13.941600 8.210000
12.579800 0.489740 40.307900 -14.030400 10.300000
-2.600520 12.038000 40.842700 -14.474400 7.480000
12.708600 0.362811 40.720500 -14.030400 5.540000
12.837200 0.233213 41.132700 -14.030400 5.260000
-4.316210 12.925300 41.332500 -14.474400 10.170000
12.153900 -1.682060 41.755500 -14.119200 6.260000
-2.424660 13.053300 41.898600 -14.474400 9.910000
11.942200 -2.241880 42.238800 -14.119200 6.510000
12.387700 -2.263860 42.558700 -14.119200 7.030000
-16.625900 -0.256535 44.386700 -13.497600 6.120000
13.999900 0.569697 47.081900 -14.119200 5.680000
14.123200 0.421447 47.496400 -14.119200 6.970000
14.690900 -0.609676 50.471700 -14.119200 21.720000
14.811300 -0.614673 50.885400 -14.119200 6.610000
14.931100 -0.784905 51.297000 -14.119200 7.660000
14.353300 0.624668 51.911100 -14.119200 6.550000
14.770400 0.629665 52.241900 -14.119200 7.820000
14.887600 0.634663 52.656500 -14.119200 14.730000
15.004200 0.810225 53.069000 -14.119200 16.130000
14.928200 0.303177 53.990400 -14.208000 21.620000
15.043000 0.305510 54.405700 -14.208000 21.800000
15.387700 0.133932 55.652300 -14.208000 18.430000
15.392700 -15.272400 54.443200 -14.208000 19.160000
15.732300 0.000000 56.898400 -14.208000 15.770000
15.401500 1.241280 57.421600 -14.208000 8.910000
15.514900 0.879853 57.844100 -14.208000 14.300000
15.626500 0.886183 58.260200 -14.208000 10.330000
15.738100 0.892513 58.676400 -14.208000 10.920000
15.507100 1.088060 59.180200 -14.208000 13.250000
15.610500 2.000630 59.574900 -14.208000 21.030000
16.064500 2.206410 59.893400 -14.208000 23.090000
16.310500 -12.570500 58.989500 -14.208000 21.100000
15.224300 -11.320200 59.982600 -14.208000 15.790000
13.561700 1.126370 61.863200 -14.296800 13.090000
16.494900 3.597590 61.497900 -14.208000 9.720000
15.690500 0.969484 82.103100 -14.385600 11.700000
15.771400 0.974482 82.526300 -14.385600 6.790000
15.852300 0.979479 82.949600 -14.385600 6.640000
-14.881800 1.253320 84.000900 -14.208000 6.320000
-14.956200 1.524810 84.420900 -14.208000 6.250000
-15.030500 1.798950 84.840100 -14.296800 8.860000
-15.104600 2.075740 85.258400 -14.296800 9.620000
-13.777300 0.000000 95.968600 -14.296800 6.620000
-13.838500 0.000000 96.395100 -14.296800 7.510000
-13.899600 -0.529394 96.820200 -14.296800 13.290000
-13.960100 1.139390 97.241600 -14.296800 13.600000
-14.022000 0.534059 97.673300 -14.296800 8.560000
-12.759000 0.229883 98.282000 -14.385600 10.770000
-12.814500 0.230882 98.709300 -14.385600 14.300000
-12.869100 1.159380 99.130200 -14.385600 13.220000
-12.773700 0.240877 103.058000 -14.385600 9.520000
-12.826600 0.564376 103.484000 -14.385600 8.930000
-12.879600 0.566709 103.912000 -14.385600 8.670000
14.256400 2.635850 147.519000 -14.474400 8.610000
14.297900 2.643510 147.948000 -14.474400 12.820000
14.340000 2.190140 148.384000 -14.474400 13.050000
-5.820130 1.133370 7.396490 -11.188800 3.420000
-6.009900 1.184890 7.790960 -11.366400 5.290000
-5.867980 1.299890 8.415810 -11.721600 4.870000
-6.363810 1.021810 8.087430 -11.188800 6.610000
-6.044730 1.354050 8.813320 -11.810400 5.150000
-6.637930 0.906797 8.435780 -11.188800 6.900000
-5.719700 1.077900 10.073700 -12.432000 6.840000
-6.546260 1.185330 9.544550 -11.810400 3.420000
-5.850850 1.117820 10.492200 -12.520800 6.760000
-6.157820 0.782090 10.845400 -12.432000 6.140000
-6.455160 0.848956 11.167700 -12.432000 8.820000
-5.544960 1.124430 12.100500 -13.053600 7.240000
8.589840 -0.640095 10.209700 -11.366400 7.000000
-5.712490 1.447260 12.466100 -13.053600 3.990000
8.869390 -0.575540 10.542000 -11.366400 7.690000
-5.419940 1.404990 13.071000 -13.231200 6.980000
9.041970 -0.916933 11.491000 -11.721600 7.970000
-5.646360 1.350830 13.919200 -13.231200 4.980000
9.324160 0.314817 11.849600 -11.721600 9.040000
-5.912670 1.532710 14.259200 -13.231200 5.140000
9.472700 0.323812 12.280000 -11.810400 15.190000
-6.609250 1.575290 14.423100 -13.142400 6.660000
9.735830 0.332806 12.621100 -11.810400 16.900000
-10.607900 1.226890 12.412900 -10.833600 6.490000
-10.788600 1.259180 12.823100 -10.922400 11.350000
-5.198530 1.608710 15.899600 -13.764000 9.610000
-6.024410 1.450870 16.083600 -13.497600 6.680000
9.295420 0.825929 14.491100 -12.520800 7.750000
-5.460010 1.854300 16.699400 -13.764000 3.890000
9.526350 0.901150 14.851100 -12.520800 3.120000
-5.604280 1.523420 17.140600 -13.764000 8.360000
9.298130 -1.093860 16.980600 -13.053600 6.130000
-5.642740 1.579920 19.386100 -13.941600 13.520000
-4.800350 1.741050 20.043000 -13.941600 5.940000
9.922410 0.991115 18.120700 -13.053600 4.950000
-5.175870 1.777320 20.392600 -13.941600 5.200000
10.269800 1.076980 18.416700 -12.876000 5.940000
-5.162770 1.730580 20.845600 -14.030400 6.650000
10.474500 1.281920 18.783700 -12.876000 4.630000
10.531900 1.443220 19.233700 -12.964800 5.560000
-5.405620 1.671710 22.570200 -14.030400 11.440000
-5.156010 1.584720 23.519800 -14.208000 7.140000
-4.739540 1.613020 24.045600 -14.208000 5.850000
-5.013960 1.409870 24.443500 -14.208000 4.720000
-4.906810 1.591150 24.894300 -14.208000 4.850000
10.206000 -1.538310 23.704400 -13.586400 4.420000
-4.989980 1.618120 25.316200 -14.208000 5.530000
10.050100 -1.563950 24.237300 -13.675200 5.610000
18.667600 0.575665 20.290700 -11.100000 10.710000
10.882200 1.811110 25.274900 -13.675200 9.870000
18.962200 0.324827 20.610800 -11.100000 9.060000
11.249700 1.839400 25.583900 -13.675200 9.210000
19.254500 0.241874 20.928600 -11.100000 8.610000
9.742650 2.130910 26.633400 -13.852800 5.270000
-8.968130 0.848113 27.429000 -13.764000 7.900000
-9.316270 0.860771 27.767400 -13.764000 7.270000
-8.689870 0.873429 28.420400 -13.764000 6.840000
-9.670150 0.873429 28.102000 -13.764000 6.140000
-8.031380 1.258990 29.046800 -13.941600 6.560000
-9.974940 0.886088 28.452100 -13.675200 6.450000
-8.138780 1.820330 29.435200 -13.941600 6.790000
-17.568400 -1.604490 26.043000 -11.810400 7.820000
-18.364500 -2.856040 25.910300 -11.632800 8.250000
-3.672370 1.798790 31.623300 -14.385600 7.950000
-3.721990 1.823100 32.050600 -14.385600 5.850000
-3.771620 1.847410 32.478000 -14.385600 7.960000
10.781900 1.692400 31.332900 -13.941600 6.570000
10.922000 1.714380 31.739800 -13.941600 7.420000
10.810700 1.920330 32.221700 -13.941600 5.250000
-5.358020 0.399787 34.050700 -14.296800 5.520000
-7.923980 1.672510 33.950300 -14.119200 6.120000
-4.759000 0.728576 34.569300 -14.385600 6.090000
-8.020580 1.802300 34.364200 -14.119200 6.260000
-8.319320 1.824280 34.735800 -14.119200 6.040000
-16.638700 -1.641950 32.587700 -12.787200 7.260000
10.435700 -0.962732 35.095200 -14.030400 5.360000
10.435700 -0.962732 35.095200 -14.119200 6.010000
-15.874600 -1.661260 33.443800 -12.964800 9.180000
-17.352100 -0.974058 32.729300 -12.698400 8.830000
-8.904910 1.088620 35.955100 -14.119200 8.740000
-16.061300 -1.564750 33.837200 -12.964800 7.960000
-8.828170 1.113940 36.860400 -14.119200 7.300000
-18.417700 -0.444763 33.635100 -12.609600 7.580000
12.346100 0.620328 40.378300 -14.119200 11.070000
12.579800 0.489740 40.307900 -14.119200 9.220000
12.836000 0.632988 41.128900 -14.119200 6.090000
-17.006800 -2.696860 39.499900 -13.231200 7.700000
19.854600 -2.563840 38.157200 -13.053600 9.820000
19.453000 -2.723830 38.835900 -13.231200 4.880000
19.963500 -2.106120 39.099600 -13.142400 9.690000
-16.664300 -2.126770 41.080400 -13.320000 6.510000
12.750100 -2.666400 42.878700 -14.030400 7.300000
-15.977400 -1.654810 43.677200 -13.497600 5.950000
-18.320100 -0.258867 44.181500 -13.320000 5.680000
-2.117420 1.848600 47.747200 -14.474400 6.670000
-2.507750 1.865250 48.159500 -14.474400 8.320000
13.999900 0.569697 47.081900 -14.119200 6.840000
14.122800 0.574694 47.494900 -14.119200 6.190000
14.122800 0.574694 47.494900 -14.119200 5.510000
14.419400 -0.286852 51.000700 -14.119200 7.950000
14.419700 0.000000 51.001400 -14.119200 7.420000
14.467500 0.797565 52.324300 -14.208000 14.570000
14.581600 0.973120 52.736900 -14.208000 20.300000
14.928200 0.303177 53.990400 -14.208000 7.970000
-26.249200 1.383830 51.410500 -12.787200 11.510000
14.955100 1.205300 55.757200 -14.208000 14.490000
15.070000 0.000000 56.185600 -14.208000 22.000000
15.181400 -0.317170 56.600900 -14.208000 18.830000
14.963200 -0.319502 57.104600 -14.208000 10.090000
15.072100 0.505736 57.520100 -14.208000 15.560000
15.181300 0.509401 57.937000 -14.208000 11.040000
15.290100 0.699628 58.352000 -14.208000 14.990000
15.399300 0.704625 58.768800 -14.208000 10.950000
15.215700 0.969484 82.192500 -14.385600 9.800000
15.294100 0.974482 82.616100 -14.385600 10.100000
14.732500 0.718292 83.158400 -14.385600 7.760000
-14.321700 1.771970 83.651700 -14.296800 8.170000
-14.395200 1.517150 84.081300 -14.296800 9.250000
-14.467900 1.524810 84.506000 -14.296800 6.630000
-14.541400 1.265980 84.934900 -14.296800 6.320000
-13.955800 1.272310 85.469700 -14.296800 6.150000
-13.716100 0.000000 95.542100 -14.296800 4.860000
-13.777300 0.224885 95.968300 -14.296800 10.570000
-13.838500 0.225885 96.394900 -14.296800 12.410000
-13.339900 0.000000 96.900400 -14.385600 9.980000
-13.398600 -0.227884 97.327000 -14.385600 9.200000
-13.457400 -0.228883 97.753900 -14.385600 13.810000
-13.516100 -0.229883 98.180700 -14.385600 13.670000
-13.692300 0.543387 99.460200 -14.385600 6.220000
-12.980800 0.545719 99.990100 -14.385600 5.310000
-12.667600 0.557380 102.202000 -14.385600 9.770000
-12.720300 0.879541 102.627000 -14.385600 12.480000
-12.773300 0.883206 103.055000 -14.385600 10.200000
-12.826300 0.886871 103.482000 -14.385600 7.620000
13.402700 3.094200 147.590000 -14.563200 6.290000
13.441600 3.103190 148.019000 -14.563200 5.910000
-6.129320 1.367260 7.667080 -11.100000 2.800000
-5.937200 1.236400 8.376730 -11.721600 2.680000
-6.198640 1.363320 8.164980 -11.455200 3.770000
-6.457280 1.426710 7.950900 -11.100000 4.270000
-6.184590 1.287920 8.725760 -11.721600 4.200000
-6.456910 1.420130 8.505190 -11.455200 3.810000
-6.473950 1.340540 10.092600 -12.165600 6.530000
-6.549740 1.273140 10.565600 -12.254400 6.730000
-6.248330 1.585190 11.205000 -12.609600 7.710000
-6.525090 1.237470 11.090500 -12.432000 6.770000
-6.456610 1.638030 11.578500 -12.609600 7.510000
-6.897900 1.638030 11.321200 -12.343200 7.000000
-6.664890 1.690870 11.952000 -12.609600 5.350000
-5.354850 1.319970 12.637800 -13.231200 5.070000
-5.421580 1.361220 13.074900 -13.320000 7.540000
9.233470 0.351121 11.369200 -11.632800 8.620000
-5.485040 1.312240 13.521600 -13.408800 8.080000
9.683550 0.371775 12.113000 -11.721600 14.410000
-9.744720 1.305790 11.998700 -11.100000 8.370000
-9.918090 1.378910 12.406400 -11.100000 11.410000
-5.994490 1.414600 15.635700 -13.497600 3.920000
-5.235880 1.703010 16.332900 -13.764000 4.440000
9.532730 0.628214 14.861100 -12.609600 7.210000
-5.383620 1.051180 16.793800 -13.675200 5.320000
9.648630 0.587597 15.300000 -12.698400 5.970000
10.230900 0.587597 14.916900 -12.432000 5.610000
10.118600 0.601588 15.510100 -12.520800 4.570000
9.231890 0.395770 16.555400 -12.964800 7.460000
-5.643710 1.856210 18.457900 -13.852800 4.160000
9.430330 -1.033980 16.911300 -12.964800 7.320000
-4.956260 1.661360 20.011700 -14.119200 3.090000
-5.177520 1.695970 20.399100 -14.030400 6.020000
9.941470 0.566313 19.105900 -13.231200 4.640000
-9.771990 1.547880 19.138900 -12.964800 5.780000
-9.266970 0.577639 19.918100 -13.142400 3.630000
-5.371530 1.775760 23.014300 -14.119200 6.510000
-5.469190 1.808050 23.432800 -14.119200 4.500000
-4.459330 1.764580 24.088500 -14.296800 3.670000
-4.538550 1.718430 24.516500 -14.296800 4.670000
10.222600 -1.274800 22.770200 -13.586400 5.890000
-5.764750 1.748060 24.699100 -14.119200 6.420000
10.040600 -1.296780 23.320300 -13.586400 4.160000
-5.862460 1.777690 25.117700 -14.208000 8.370000
10.213800 -1.159020 23.722600 -13.764000 9.940000
10.756400 -1.318760 23.473200 -13.497600 10.410000
10.751400 -1.340730 23.948000 -13.586400 13.010000
10.918300 -1.754510 24.319700 -13.586400 11.390000
10.384500 1.384690 25.043700 -13.764000 7.150000
18.474700 -0.234544 20.473300 -11.188800 10.800000
-8.559120 1.406670 26.178000 -13.764000 6.620000
18.763300 -0.238209 20.793200 -11.188800 7.970000
-8.539020 1.428650 26.636800 -13.764000 8.530000
-12.920200 0.995949 24.830500 -12.876000 8.340000
18.847700 -0.241874 21.295700 -11.188800 9.260000
-13.120400 0.923367 25.215100 -12.876000 8.980000
-8.417900 2.163200 27.531000 -13.852800 8.780000
-8.287870 2.136070 28.473600 -13.941600 7.020000
-8.185100 2.167030 28.950200 -13.941600 6.630000
-4.748790 1.631390 30.179000 -14.385600 5.650000
-4.815680 1.654370 30.604100 -14.385600 8.120000
11.971400 0.774531 30.008400 -13.852800 8.510000
11.896300 0.784858 30.501100 -13.852800 6.320000
18.552200 -0.590002 27.501500 -12.343200 7.010000
19.007300 -0.597664 27.713000 -12.343200 9.120000
-3.580280 0.186571 34.285100 -14.385600 7.710000
-7.659980 1.861170 34.001100 -14.119200 8.250000
11.512900 -0.307839 34.314400 -14.030400 4.260000
11.649900 -0.311504 34.722900 -14.030400 4.750000
-16.567100 -2.204910 33.074500 -12.787200 7.440000
-16.122400 -2.090490 33.300900 -12.964800 11.630000
-17.273500 -2.230550 33.196800 -12.698400 6.730000
-16.049700 -2.114800 33.812800 -12.964800 7.080000
-8.729110 0.898456 36.446800 -14.119200 12.470000
-8.829440 0.908783 36.865700 -14.119200 11.790000
-10.033600 1.978130 37.408300 -14.030400 6.390000
-10.143900 2.090940 37.819400 -14.030400 9.330000
-17.753700 -0.337158 35.443500 -12.787200 7.050000
-16.691500 -0.712599 36.425100 -13.142400 9.280000
-17.362700 -1.064670 36.579000 -12.964800 7.290000
11.965300 1.075990 39.133000 -14.119200 6.510000
-17.552900 -0.348152 36.979600 -12.964800 8.780000
12.089100 1.343080 39.537700 -14.119200 6.250000
-18.025100 -0.351817 37.231000 -12.964800 5.920000
12.221000 0.355481 39.969200 -14.119200 5.810000
-18.212900 -0.355481 37.618900 -12.964800 9.090000
12.346100 0.620328 40.378300 -14.119200 8.840000
12.470700 0.890482 40.785900 -14.119200 7.080000
12.032000 1.798560 41.337000 -14.208000 8.570000
19.591500 -0.766236 38.371000 -13.231200 8.490000
11.830200 1.816550 41.842700 -14.208000 7.360000
-16.357000 -0.773898 40.322700 -13.408800 10.020000
-17.680400 -1.562870 40.208500 -13.142400 7.440000
-16.132900 -0.835197 44.102500 -13.586400 8.100000
-17.378700 -0.554705 44.557500 -13.497600 11.020000
13.876600 0.715277 46.667000 -14.119200 6.570000
13.999900 0.569697 47.081900 -14.119200 10.610000
14.122800 0.574694 47.494900 -14.119200 7.270000
14.245600 0.579692 47.907900 -14.119200 7.340000
14.368400 0.584689 48.320900 -14.119200 6.520000
-15.633700 -3.310930 47.815600 -13.764000 7.060000
-15.767300 -3.339230 48.224200 -13.764000 7.070000
14.691900 0.000000 50.475100 -14.208000 6.210000
14.812300 0.000000 50.888800 -14.208000 12.480000
14.932700 -0.123937 51.302400 -14.208000 19.790000
14.651800 0.957795 51.822500 -14.208000 21.720000
30.968000 0.129934 46.678400 -12.520800 19.270000
31.206200 0.130933 47.037500 -12.520800 9.050000
15.043200 0.130933 54.406300 -14.208000 11.220000
15.263300 2.037870 55.202200 -14.208000 7.750000
-25.661100 1.196300 51.229700 -12.876000 9.920000
15.382500 1.517720 55.633200 -14.208000 7.700000
-26.251100 1.205300 51.414100 -12.876000 12.170000
15.498200 1.394160 56.051600 -14.208000 16.770000
15.072100 0.505736 57.520100 -14.296800 19.030000
15.181300 0.509401 57.937000 -14.296800 11.560000
15.290500 0.513066 58.353800 -14.296800 7.990000
15.399300 0.704625 58.768800 -14.296800 18.030000
16.072900 0.911503 59.924800 -14.296800 12.860000
16.381500 0.949482 62.517400 -14.296800 12.430000
15.951200 0.974802 64.405500 -14.296800 9.220000
15.555300 0.774588 64.948200 -14.296800 9.410000
15.570700 1.006450 66.712700 -14.385600 11.270000
14.595800 1.693640 69.123100 -14.385600 9.950000
18.124600 1.880160 69.169500 -14.385600 23.480000
-13.095100 -1.724620 70.737700 -14.296800 23.240000
-13.173600 -1.734950 71.161300 -14.296800 18.160000
15.216100 0.710963 82.195000 -14.474400 9.080000
15.294900 0.454766 82.620500 -14.474400 10.020000
15.373000 0.718292 83.042400 -14.474400 9.440000
-14.806600 1.246990 83.576700 -14.296800 8.990000
-13.747500 1.253320 84.194000 -14.296800 7.270000
-13.816200 1.524810 84.615000 -14.296800 5.620000
-13.885600 1.532470 85.040200 -14.296800 6.450000
-13.163600 0.000000 95.619800 -14.385600 9.010000
-13.222300 0.224885 96.046400 -14.385600 8.970000
-13.281100 0.225885 96.473300 -14.385600 11.300000
-13.339400 0.831900 96.896900 -14.385600 13.990000
-13.574900 0.230882 98.607600 -14.385600 12.810000
-13.633700 0.231882 99.034500 -14.385600 13.690000
-13.692300 0.543387 99.460200 -14.385600 9.970000
-12.980500 0.857553 99.987900 -14.385600 5.350000
-12.667600 0.557380 102.202000 -14.385600 5.930000
-11.929200 0.559712 102.724000 -14.474400 6.570000
-11.978900 0.562044 103.152000 -14.474400 5.390000
-12.028600 0.564376 103.580000 -14.474400 5.550000
13.402700 3.094200 147.590000 -14.563200 12.050000
13.441600 3.103190 148.019000 -14.563200 15.610000
13.480600 3.112190 148.448000 -14.563200 14.800000
-0.435788 0.274333 0.691035 0.000000 1.020000
-6.013580 1.080670 10.403800 -12.432000 4.370000
-5.883950 1.685650 10.894500 -12.698400 4.560000
-6.228350 1.119260 10.775300 -12.520800 3.840000
-5.672620 1.704150 11.490200 -12.964800 3.770000
-5.930240 1.760960 11.839100 -12.964800 5.680000
-5.521430 1.404840 12.556700 -13.231200 3.450000
-6.121540 1.817760 12.221000 -12.964800 3.810000
9.058730 -0.031984 10.395600 -11.544000 6.460000
-5.793610 1.448740 12.904800 -13.231200 4.640000
9.341820 -0.032983 10.720500 -11.544000 8.660000
-5.446210 1.675680 13.963600 -13.497600 7.060000
-5.927140 1.675680 13.766400 -13.320000 6.080000
-5.712340 1.723550 14.319000 -13.497600 5.460000
-6.340900 0.970870 14.123900 -13.231200 6.670000
-6.518270 0.948623 14.519000 -13.231200 7.840000
9.858060 0.234206 12.528100 -11.988000 6.340000
10.124500 0.240535 12.866700 -11.988000 13.480000
-5.998930 1.259180 15.647300 -13.497600 7.320000
-6.151290 1.344610 16.044700 -13.586400 7.120000
-6.305070 1.378230 16.445900 -13.586400 8.530000
9.737080 1.378230 14.676800 -12.520800 6.560000
9.642630 0.867226 15.290500 -12.698400 6.510000
-5.256780 1.773710 17.678600 -13.852800 4.020000
-5.145310 1.796500 18.608900 -14.030400 4.210000
-5.262580 1.714310 19.033000 -14.030400 4.460000
9.486130 1.668510 17.323900 -13.142400 6.720000
1.049200 1.751580 20.149100 0.888000 7.130000
-5.382030 1.517470 19.465000 -14.030400 12.280000
1.071520 1.788850 20.577800 0.888000 6.880000
-5.496540 1.549760 19.879200 -14.030400 18.280000
0.243410 1.582040 21.053300 0.888000 5.890000
0.248636 1.281920 21.505400 0.888000 8.290000
-9.622000 1.614330 19.209300 -12.964800 9.400000
1.387280 2.509230 21.788100 0.888000 8.430000
-10.115300 1.646620 19.439900 -12.787200 11.400000
-5.202990 1.748000 21.724100 -14.208000 7.360000
-10.309300 1.799810 19.812700 -12.787200 3.930000
1.617270 2.467250 22.646400 0.888000 6.380000
1.336430 2.513800 23.093800 0.888000 6.200000
-5.505720 1.702660 22.988100 -14.119200 4.970000
-4.736440 1.840340 24.029900 -14.296800 6.120000
-4.818390 1.949690 24.445700 -14.296800 6.180000
-4.086320 1.826490 25.026000 -14.385600 6.650000
-5.194940 0.219885 25.325700 -14.296800 8.860000
-5.280880 0.467404 25.744700 -14.296800 6.250000
10.379700 1.401620 24.107900 -13.675200 8.660000
-5.363630 1.115110 26.148100 -14.296800 10.550000
-5.245190 1.133090 26.611000 -14.296800 10.200000
12.017400 -0.062968 24.341800 -13.408800 7.390000
18.800800 1.470550 20.121900 -11.188800 9.810000
12.017200 -0.063967 24.821500 -13.408800 6.310000
19.094600 1.493530 20.436300 -11.188800 6.860000
12.204100 -0.324827 25.207700 -13.408800 6.950000
19.227800 1.516510 20.899500 -11.188800 7.230000
-9.973510 -0.593654 26.626600 -13.586400 7.050000
-8.187130 0.611644 28.127500 -13.941600 8.540000
-7.921830 0.620639 28.650600 -14.030400 7.080000
-9.669230 0.965339 28.099300 -13.764000 9.700000
-8.022630 1.887800 29.015200 -14.030400 4.280000
-9.808330 1.072560 28.503600 -13.764000 5.900000
-4.340590 1.725870 30.235200 -14.474400 5.730000
-8.137240 1.914770 29.429700 -14.030400 5.110000
-4.401720 1.750180 30.661000 -14.474400 8.140000
-9.624470 1.845970 29.436400 -13.852800 7.340000
-4.643270 1.677350 31.065900 -14.474400 5.080000
-3.672990 1.700330 31.628700 -14.474400 6.150000
-3.969580 1.723300 32.026500 -14.563200 6.800000
-4.968300 -0.181906 33.240500 -14.474400 8.220000
-5.291320 -0.184239 33.626800 -14.474400 5.270000
-5.358360 -0.079959 34.052900 -14.474400 7.110000
-7.663180 1.564680 34.015300 -14.208000 6.500000
-7.558610 1.584000 34.479500 -14.208000 6.050000
10.906900 1.603310 34.023300 -14.208000 5.340000
10.772600 1.622630 34.517200 -14.208000 5.150000
10.902300 -1.528780 34.932800 -14.208000 6.450000
-17.392100 -1.415590 32.202600 -12.787200 8.440000
10.826100 -1.546760 35.407000 -14.208000 7.060000
-17.596800 -1.432250 32.581500 -12.698400 6.920000
10.952000 -1.564750 35.818700 -14.208000 6.610000
-18.179700 -2.256180 33.200500 -12.698400 5.840000
-10.020700 2.786180 37.360300 -14.119200 11.370000
-10.132100 2.817130 37.775400 -14.119200 10.250000
-10.251700 2.358740 38.221600 -14.119200 10.380000
-17.080300 -1.064670 36.711800 -13.142400 6.860000
-17.547400 -1.075990 36.968200 -13.142400 10.180000
12.751400 1.486260 39.777000 -14.208000 8.390000
12.344800 0.881487 40.373900 -14.208000 9.980000
12.472100 0.626658 40.790400 -14.208000 6.550000
12.039900 0.899476 41.364000 -14.296800 11.470000
11.837900 0.908471 41.870100 -14.296800 9.060000
-15.730000 -1.115330 43.783900 -13.675200 10.230000
-16.130900 -1.125650 44.096800 -13.586400 11.270000
-16.619000 -1.392420 44.368200 -13.586400 9.530000
13.878000 0.112942 46.671900 -14.208000 8.230000
13.999900 0.569697 47.081900 -14.208000 7.640000
-16.150400 -2.711330 48.136800 -13.764000 8.050000
-16.652000 -3.209270 48.391700 -13.764000 8.700000
13.768100 2.158270 49.794600 -14.296800 5.610000
-16.791900 -3.236230 48.798300 -13.764000 8.010000
14.302400 0.000000 50.586800 -14.296800 8.520000
14.124600 0.000000 51.084000 -14.296800 8.060000
14.651800 0.957795 51.822500 -14.296800 8.040000
14.770400 0.629665 52.241900 -14.296800 7.120000
14.887600 0.634663 52.656500 -14.296800 7.090000
15.004200 0.810225 53.069000 -14.296800 4.850000
30.491200 0.298513 45.959700 -12.520800 7.290000
30.729400 0.300845 46.318800 -12.520800 9.330000
14.623500 0.130933 54.520700 -14.296800 11.430000
14.734600 0.483748 54.935000 -14.296800 10.200000
14.844400 1.019090 55.344400 -14.296800 10.530000
-26.055200 1.196300 51.030400 -12.876000 15.390000
14.957400 0.669644 55.765600 -14.296800 15.750000
-26.251100 1.205300 51.414100 -12.876000 16.260000
14.744000 0.674641 56.268000 -14.296800 21.540000
15.768200 15.840300 54.172800 -14.296800 9.020000
15.071600 0.689633 57.518400 -14.385600 12.820000
15.180800 0.694631 57.935200 -14.385600 12.490000
15.290100 0.699628 58.352000 -14.385600 16.250000
14.945300 0.892513 58.883300 -14.385600 15.660000
15.051300 0.898843 59.300900 -14.385600 10.610000
16.993900 1.497430 60.106400 -14.296800 13.580000
14.199200 1.898760 63.027500 -14.474400 6.830000
14.295100 1.710270 63.453100 -14.474400 10.440000
16.850300 1.710270 62.822900 -14.474400 10.090000
16.596000 1.721590 63.335900 -14.385600 9.980000
16.213300 1.732920 63.879500 -14.385600 8.570000
16.323900 0.769591 64.314900 -14.385600 13.560000
16.055400 0.774588 64.826400 -14.385600 19.150000
15.856800 0.579031 66.207300 -14.385600 15.420000
17.474900 0.586361 66.690000 -14.385600 8.820000
17.066400 0.590026 67.240400 -14.385600 8.120000
14.510700 0.380138 68.720400 -14.474400 6.990000
14.599700 0.382470 69.142000 -14.474400 10.850000
14.688800 0.384802 69.563600 -14.474400 10.760000
14.777800 0.387134 69.985200 -14.474400 11.760000
25.075400 1.889860 74.737700 -14.119200 9.130000
15.216700 -0.193901 82.197800 -14.563200 11.560000
15.295100 0.194901 82.621500 -14.563200 12.220000
15.373500 0.195900 83.045200 -14.563200 8.440000
15.451800 0.459430 83.467900 -14.563200 5.750000
-14.882900 0.725622 84.007000 -14.385600 7.060000
-14.958000 0.729286 84.431200 -14.385600 5.390000
-15.032700 0.999469 84.852900 -14.385600 6.470000
-15.107900 1.004470 85.277100 -14.385600 6.350000
-13.716100 0.000000 95.542100 -14.474400 8.510000
-13.777300 0.224885 95.968300 -14.474400 8.450000
-13.838500 0.225885 96.394900 -14.474400 5.370000
-13.899700 0.226884 96.821400 -14.474400 5.870000
-14.522900 0.000000 97.165900 -14.474400 10.000000
-14.022200 0.000000 97.674700 -14.474400 13.480000
-12.720600 0.559712 102.629000 -14.563200 12.750000
-12.773300 0.883206 103.055000 -14.563200 9.290000
-12.826700 0.241877 103.486000 -14.563200 13.280000
-12.078500 0.242876 104.009000 -14.563200 15.400000
13.401700 3.552520 147.580000 -14.652000 6.150000
13.440700 3.562840 148.009000 -14.652000 5.850000
13.481400 2.651180 148.457000 -14.652000 5.000000
