VERSION .7
FIELDS x y z velocity SNR
SIZE 4 4 4 4 4
TYPE F F F F F
COUNT 1 1 1 1 1
WIDTH 317
HEIGHT 1
VIEWPOINT 0 0 0 1 0 0 0
POINTS 317
DATA ascii
-0.601279885056862 3.04187079849945 -0.486918710242316 0 5.07529678380514
4.2969952706138 9.52830031959149 2.15218069927104 4.17729709687663 7.385723902654
4.44401873540174 9.42143131571887 2.31773306075342 4.33201180416836 9.31456257168626
4.92320271449096 9.36303552049215 1.40719507260029 4.33201180416836 9.31456257168626
-1.94515220851684 9.84051162989518 3.64215195261252 4.64144121875182 8.67598718835536
0.157795685255526 10.170443631171 3.22827104890655 4.64144121875182 8.67598718835536
5.17948157805172 9.24747809182968 -1.24164271111791 4.64144121875182 8.67598718835536
0.164948650232699 10.6314754203373 -0.910537988153131 4.79615592604354 7.966971537388
-0.76020041914934 10.8630505332468 -1.44858316297089 -4.17729709687663 9.59201989551888
6.20358574309423 8.5004440680046 3.152798648819 -4.17729709687663 9.59201989551888
5.06800279432893 9.63841891815368 1.44858316297089 4.33201180416836 13.824670215926
5.62323433422238 9.43569588654657 -0.17042154858481 4.33201180416836 13.824670215926
5.26380251477881 9.59666514096865 0.937318517216458 4.48672651146009 14.5087280761226
5.28306800612913 9.63178888824948 -0 4.64144121875182 16.3233977964409
4.50891498957951 9.99821815723909 2.71700640315212 3.71315297500145 5.57907068690609
4.440758485185 10.074529767676 2.54171566746489 3.86786768229318 9.88002005821775
4.440758485185 10.074529767676 2.54171566746489 4.02258238958491 5.80417115074831
5.41042199826844 9.86397343801082 1.0517444141234 4.33201180416836 6.67909789845481
5.78024224398087 9.69915260917456 0.438226839218085 4.33201180416836 6.67909789845481
5.43384933439836 9.90668482381083 0.0876453678436166 4.48672651146009 7.15711317178035
6.65608399994018 9.49565250885874 -0.630559729763799 -4.64144121875182 13.8983668112903
6.56613691885991 9.55807076485834 -0.630559729763799 -4.48672651146009 9.13673833511257
4.23057292183617 10.8059182452469 -0.450399806974142 3.71315297500145 6.26410277767257
4.23363082102095 10.8137288678749 -0.0900799613948282 3.86786768229318 7.45436683620211
4.87491746702701 10.3349474473449 2.07183911208105 4.17729709687663 10.1364937873967
-6.93281769700546 9.30992399244077 -0.360319845579314 4.48672651146009 8.98041170924451
-1.77978845976831 11.3338020812335 1.80159922789657 4.48672651146009 8.98041170924451
5.41018032984227 9.86353284189145 2.88255876463451 4.48672651146009 8.98041170924451
0.269841243240819 11.593017574674 0.630559729763799 4.64144121875182 6.43377713158579
4.01389430703203 10.7762731696948 1.62143930510691 4.64144121875182 6.43377713158579
5.21456912187674 10.3516869960771 0.720639691158629 4.64144121875182 6.43377713158579
5.936507351298 9.96136292136973 -0.630559729763799 4.79615592604354 13.455689422911
-9.94940715758382 6.28426477194976 -1.94280565386684 4.17729709687663 30.0419343141094
-2.00266879726515 11.5636852787788 -2.12783476375892 4.17729709687663 30.0419343141094
5.36439122135778 10.6491059088721 0.277543664838121 4.17729709687663 30.0419343141094
-2.01309563162289 11.6238912554892 -1.75777654397476 4.33201180416836 103.445116670622
-2.01754777907571 11.6495985676666 -1.57274743408268 4.48672651146009 38.3865387232224
5.92021900468781 10.3524852806016 -0.185029109892079 4.64144121875182 8.39188061447538
9.51867389741725 7.16546618239918 -0.55508732967624 4.64144121875182 8.39188061447538
-2.25119188965289 11.8814525688387 -1.89898296994503 4.17729709687663 77.7794964578984
-2.33891188951312 11.8325391448948 -2.08888126693954 4.33201180416836 340.416447497841
-2.32108858525027 11.7423711713481 -2.56362700942579 4.48672651146009 117.226517103303
-2.0727320420115 11.9682400973106 -1.51918637595603 4.48672651146009 117.226517103303
-3.25316885893633 11.8987405740417 -2.33720980916312 4.17729709687663 87.1418580612779
-2.37648060716671 12.0225990288317 -2.72674477735697 4.33201180416836 194.361513604146
-2.31444652829408 11.7087690509394 -3.89534968193853 4.48672651146009 59.9150391207866
-2.12373450429022 12.2627353343859 -1.65552361482387 4.48672651146009 59.9150391207866
-3.32409068104086 12.1581431439212 -2.59527672559155 4.17729709687663 35.673565490615
-3.34849675945723 12.2474104423919 -2.09618504759317 4.33201180416836 40.5138943907313
-1.96146945906456 12.4907578287791 -2.39564005439219 4.48672651146009 8.90272371186144
-3.51091944326105 12.4467254105667 -2.55632322877216 4.17729709687663 5.9778329308056
-3.53105468895418 12.5181078157363 -2.14731151216861 4.33201180416836 5.62590091629644
-2.73948500657463 12.7906563468309 -1.63604686641418 4.33201180416836 5.62590091629644
-5.38735659967935 15.6347258753772 1.80646841499899 3.09429414583454 10.1381580945414
-4.73254927603763 15.796291519837 2.19356878964163 3.09429414583454 10.1381580945414
-1.3902043522574 16.2340312980688 3.35486991356956 3.09429414583454 10.1381580945414
4.90327141214012 15.8962109297649 -0 3.09429414583454 10.1381580945414
6.18689483776942 15.4225334472283 0.774200749285282 3.09429414583454 10.1381580945414
-5.26740457089486 15.7031364494622 1.54840149857056 3.24900885312627 17.5593462986906
-1.27471335632055 16.3843475606573 2.58066916428428 3.24900885312627 17.5593462986906
5.01714353008437 15.8080643954074 1.29033458214214 3.24900885312627 17.5593462986906
-5.2634069971354 15.6912189205603 1.67743495678478 3.403723560418 7.53646167779215
-1.92844377845583 16.4620196641857 1.41936804035635 3.403723560418 7.53646167779215
-1.27471335632055 16.3843475606573 2.58066916428428 3.403723560418 7.53646167779215
5.13081580921843 15.7207822153407 1.80646841499899 3.403723560418 7.53646167779215
6.18689483776942 15.4225334472283 0.774200749285282 3.403723560418 7.53646167779215
3.59323867803606 16.1496411289171 3.68110544943191 2.63015002395936 6.46195532965836
4.72928910871162 16.2626731637308 -0.657340258827127 3.09429414583454 31.1989092734833
5.63933446472694 15.9395961421703 1.18321246588883 3.09429414583454 31.1989092734833
6.16709060173493 15.7522581656515 1.0517444141234 3.09429414583454 31.1989092734833
5.12725401885159 16.1550015891721 -0 3.24900885312627 70.4118348831932
5.64478708833496 15.9550079995039 0.920276362357976 3.24900885312627 70.4118348831932
6.17230310466147 15.7655721733564 0.788808310592552 3.24900885312627 70.4118348831932
5.25096473333484 16.0889176424687 0.920276362357976 3.403723560418 29.3957667709864
5.6422318271192 15.9477855458488 1.0517444141234 3.403723560418 29.3957667709864
6.17230310466147 15.7655721733564 0.788808310592552 3.403723560418 29.3957667709864
2.96409587318153 16.3481205484805 4.68659258608229 2.63015002395936 6.0529421555891
3.80946701496692 16.5012975831786 3.34756613291592 2.63015002395936 6.0529421555891
4.80873481488344 16.5358642341084 -1.20512380784973 3.09429414583454 40.1929244153042
5.60696737034103 16.2720614842322 1.33902645316637 3.09429414583454 40.1929244153042
6.27807045276449 16.0357278562235 1.20512380784973 3.09429414583454 40.1929244153042
5.74671760169548 16.243114907809 1.0712211625331 3.24900885312627 149.709489906075
6.28129598324854 16.0439666502006 1.0712211625331 3.24900885312627 149.709489906075
5.6034026770226 16.2617163359518 1.47292909848301 3.403723560418 73.202995138932
6.28129598324854 16.0439666502006 1.0712211625331 3.403723560418 73.202995138932
3.04375393426541 16.7874651719254 4.2264544049033 2.63015002395936 6.6387481998833
5.70130490140115 16.5458398040065 1.63604686641418 3.24900885312627 13.5666583556946
5.71219408313427 16.5774414565525 1.22703514981064 3.403723560418 7.35081008420612
4.84067724713985 17.1609122539038 3.67136707522706 2.93957943854282 9.75386252350499
-9.31710054235826 15.6339433921578 0.423619277910816 4.02258238958491 5.78139640276949
4.96657185056968 17.6072271252321 2.87282039042967 2.93957943854282 13.1278719825591
5.73456809302382 17.570674809159 1.14912815617187 2.93957943854282 13.1278719825591
5.79200319351878 17.7466555381447 -2.48328542223581 2.93957943854282 7.75348861140354
5.00759715221364 17.752667848866 3.79796593989007 3.09429414583454 5.05660035946519
5.47832266444143 18.2855321307295 1.48510206623906 2.93957943854282 6.43730392066627
5.74774836925003 19.1848205961752 1.55813987277541 2.78486473125109 5.1798862527499
-9.78101972073833 23.8032387167295 0.399273342398698 2.78486473125109 6.49479765160948
-9.78219688876813 23.8061034907943 -0 2.93957943854282 6.69195889326234
-9.90119410528591 24.095696931179 0.202071264750561 2.78486473125109 23.8451475404215
-9.9014919727775 24.0964218260479 -0 2.93957943854282 21.3774259920713
-10.0204856005303 24.3860065327595 0.204505858301772 2.78486473125109 10.6118113532619
-10.0207870567869 24.3867401613015 -0 2.93957943854282 9.54292694618124
16.3615257317092 22.4193297407769 -5.25872207061701 -4.33201180416836 11.5567827467546
-5.10879996311441 30.9447714489727 1.21729677560579 4.79615592604354 5.91127409564706
1.46071218666623 31.3523137261399 0.243459355121157 4.79615592604354 5.91127409564706
3.38528207715799 30.9897417032015 -3.65189032681737 4.79615592604354 5.91127409564706
4.61890416358158 30.9987403363043 -1.7042154858481 4.79615592604354 5.91127409564706
-4.66847006153169 31.3313907541688 1.22946974336185 4.64144121875182 8.99055408033973
2.92182576583953 31.2543582102687 4.42609107610265 4.64144121875182 8.99055408033973
16.7162608476793 26.9255399931379 -0.737681846017111 4.64144121875182 8.99055408033973
-4.91255014634207 31.2834206600169 1.47536369203422 4.79615592604354 27.4707391756071
16.4729120085207 27.0806862870798 -0.491787897344738 4.79615592604354 27.4707391756071
15.8930267023092 27.7915943429765 -0 4.64144121875182 11.3299509199319
16.6375118061283 27.3512805499291 -0.24832854222358 4.79615592604354 36.9974188237619
15.7904717570616 28.1924048638105 1.00305254309917 4.79615592604354 6.9679472417679
16.5498690749284 27.7704115232787 0.250763135774792 4.79615592604354 6.9679472417679
-20.440740138591 25.8315709770297 1.02252929150887 2.63015002395936 5.80605924737852
-9.04549289290791 34.1609814272579 3.02619978415599 4.17729709687663 7.00332376552486
-2.20087257029527 35.399260427473 -0 4.17729709687663 7.00332376552486
-0.547829467566605 35.3093857437109 3.3013088554429 4.17729709687663 7.00332376552486
-9.03918621484902 34.1371637851915 3.3013088554429 4.33201180416836 5.53390581324462
-0.548560444024705 35.3564995469228 2.75109071286909 4.33201180416836 5.53390581324462
16.2236207742841 31.520384639742 1.10043628514764 4.33201180416836 5.53390581324462
14.6099102215633 32.3965011517081 4.1631549725718 4.17729709687663 19.5635221933999
14.6099102215633 32.3965011517081 4.1631549725718 4.33201180416836 14.110239256746
16.066510267404 31.8943869608861 2.22034931870496 4.33201180416836 14.110239256746
14.7092747768737 32.6168354235644 4.75963039261864 4.17729709687663 9.73402048666259
16.1991218258952 32.1576404173997 2.51980432550399 4.17729709687663 9.73402048666259
15.0161440708222 32.553847016362 4.19967387583998 4.33201180416836 6.83945765579697
16.1898148745345 32.1391647494926 2.79978258389332 4.33201180416836 6.83945765579697
-2.58191039209087 36.8947745293052 -5.2148993866952 4.02258238958491 14.6501765397565
12.7091260394397 35.0024337303548 2.89716632594178 4.02258238958491 14.6501765397565
12.8356915703741 35.3510101466505 2.04505858301773 3.86786768229318 5.86604871194361
16.0446144629676 34.014985568321 2.04505858301773 3.86786768229318 5.86604871194361
12.8232928396892 35.3168625783762 2.62936103530851 4.02258238958491 24.7837195440583
16.3289396547119 33.860513007736 2.33720980916312 4.02258238958491 24.7837195440583
12.543971307411 35.4555733322309 2.04505858301773 4.17729709687663 5.89801960332099
15.7186360809985 34.0767957388593 3.21366348759929 4.17729709687663 5.89801960332099
-8.44654927234915 37.962615831774 1.50944800175118 3.71315297500145 6.19390036489163
-6.9080702972067 38.1006454608683 3.92456480455306 3.71315297500145 6.19390036489163
-3.61383707300331 38.6567055824224 2.71700640315213 3.71315297500145 6.19390036489163
0.892384843998854 38.3389620341273 6.64157120770519 3.71315297500145 6.19390036489163
-8.44374955846518 37.9500326502653 1.81133760210141 3.86786768229318 15.2452485177295
-3.6117607995963 38.6344959785631 3.01889600350236 3.86786768229318 15.2452485177295
0.888477573396677 38.1710964542922 7.5472400087559 3.86786768229318 15.2452485177295
14.6071218666623 36.4122603444088 0.304324193901447 3.71315297500145 23.2139198800811
16.1117053066912 35.7266315540954 -1.82594516340868 3.71315297500145 23.2139198800811
14.6005286704222 36.3958249932022 1.21729677560579 3.86786768229318 59.7478206799781
16.1170475026823 35.7384775172776 -1.52162096950724 3.86786768229318 59.7478206799781
14.6071218666623 36.4122603444088 0.304324193901447 4.02258238958491 8.88426042918234
16.4092647916714 35.5740257392053 -2.13026935731013 4.02258238958491 8.88426042918234
14.7204347126914 36.6947237131438 0.92027636235798 3.71315297500145 18.7197476593461
16.2405989491447 36.0124446065282 -1.84055272471595 3.71315297500145 18.7197476593461
14.7173328997855 36.6869915931478 1.22703514981064 3.86786768229318 48.7066430158282
16.5604890517778 35.9018683201935 -0.92027636235798 3.86786768229318 48.7066430158282
14.7226498932368 36.7002456586347 0.613517574905316 4.02258238958491 6.49738811424525
16.2459838827038 36.0243853374159 -1.5337939372633 4.02258238958491 6.49738811424525
-7.78304012275053 37.7995454432903 12.2484401561455 3.71315297500145 7.24447118162298
-2.67236325192642 38.1873204981298 -13.1906278604643 3.71315297500145 7.24447118162298
0.309024252209573 39.8388261322456 7.22343906644476 3.71315297500145 7.24447118162298
14.7604966462622 37.7019195663747 0.314062568106293 3.71315297500145 7.24447118162298
17.8578924716353 36.2286054516369 2.82656311295665 3.71315297500145 7.24447118162298
-2.50132432183655 40.2317845555161 6.32994323315011 3.55843826770973 23.6504875115956
14.4599905867177 37.858837983363 4.74745742486258 3.55843826770973 23.6504875115956
-9.3912356020685 39.2500248844643 6.01344607149261 3.71315297500145 48.5909827596053
-2.50132432183655 40.2317845555161 6.32994323315011 3.71315297500145 48.5909827596053
14.4317412905176 37.7848762804442 5.38045174817759 3.71315297500145 48.5909827596053
-9.36810427681722 39.1533490975718 6.64644039480761 3.86786768229318 6.27131688013809
-2.50432949388493 40.2801203244315 6.01344607149261 3.86786768229318 6.27131688013809
14.3998945898384 37.7014959300844 6.01344607149261 3.86786768229318 6.27131688013809
14.3169150170393 38.4372321166082 2.87038579687845 3.55843826770973 87.5940865596718
15.610722469985 37.9904922086813 1.9135905312523 3.55843826770973 87.5940865596718
14.3086894580781 38.4151486077862 3.18931755208717 3.71315297500145 177.825185851886
15.6046030663316 37.9755999346522 2.23252228646102 3.71315297500145 177.825185851886
14.5574397262952 38.1139772356853 5.10290808333947 3.86786768229318 18.9625941962038
15.5975392326779 37.9584092813751 2.55145404166974 3.86786768229318 18.9625941962038
14.4262044446503 38.7306461022312 2.89229713883936 3.55843826770973 48.1993931026968
15.7298882903666 38.2804959659994 1.92819809255957 3.55843826770973 48.1993931026968
16.6863990414863 37.8556105718439 2.2495644413195 3.55843826770973 48.1993931026968
14.4087497409153 38.6837847149705 3.53502983635921 3.71315297500145 93.5503771886506
15.7237221737082 38.2654900104892 2.2495644413195 3.71315297500145 93.5503771886506
16.6788455044557 37.8384742349051 2.57093079007943 3.71315297500145 93.5503771886506
14.3987037050692 38.6568136942439 3.85639618511914 3.86786768229318 6.68288397449704
15.7166044176602 38.2481681308513 2.57093079007943 3.86786768229318 6.68288397449704
14.5681695416845 40.1224590402966 0.331104722964774 3.55843826770973 7.88448808671398
14.3404647025559 40.5333674176491 0.667078633031971 3.403723560418 8.10853656643771
14.3352857329095 40.5187290440765 1.33415726606395 3.55843826770973 18.6731276630673
14.4429662012419 40.8230882177261 1.0079217302016 3.55843826770973 6.92154700122264
14.1314995801409 42.1286922536066 3.45712284272045 3.403723560418 7.51000245276531
4.33086595070322 46.3266623788712 4.71580770869683 2.16600590208418 18.0689740288725
4.33086595070322 46.3266623788712 4.71580770869683 2.32072060937591 7.34357376241747
4.35993216513747 46.6375795760448 4.74745742486258 2.01129119479245 7.73599459296465
6.5684570954328 46.5846807957624 1.82594516340869 2.01129119479245 7.73599459296465
4.35635304556281 46.5992942386467 5.11264645754432 2.16600590208418 35.7136138692017
6.92835624537236 46.4981105044564 2.55632322877216 2.16600590208418 35.7136138692017
4.35635304556281 46.5992942386467 5.11264645754432 2.32072060937591 15.1327994983292
5.45785975034669 46.5906216910917 4.01707935949911 2.32072060937591 15.1327994983292
6.56627989857603 46.5692397235092 2.19113419609042 2.32072060937591 15.1327994983292
4.38152223129305 46.8685254692938 5.51435439349423 2.16600590208418 10.3015488047917
5.49424548201567 46.901225835699 4.04385988856243 2.16600590208418 10.3015488047917
6.97728038111653 46.8264538790753 2.20574175739769 2.16600590208418 10.3015488047917
4.3853953991999 46.9099562002376 5.14673076726128 2.32072060937591 5.27240949115385
5.49774073325647 46.9310627929907 3.67623626232949 2.32072060937591 5.27240949115385
6.97728038111653 46.8264538790753 2.20574175739769 2.32072060937591 5.27240949115385
-15.9781143167263 45.1621890694825 3.35243532001835 3.24900885312627 7.75465833871737
14.127448683407 45.8006268253562 2.97994250668298 3.24900885312627 7.75465833871737
13.8718967327069 46.3015833416481 0.374927406886582 3.09429414583454 27.1335870915454
16.8697030026671 45.2908108541564 0.749854813773164 3.09429414583454 27.1335870915454
13.8706446910819 46.2974042801422 0.749854813773164 3.24900885312627 34.3826117478712
16.8671647749589 45.2839963660163 1.12478222065975 3.24900885312627 34.3826117478712
13.9623940161984 46.6036449554643 -0 3.09429414583454 27.8147431137083
16.5959342553799 45.7071624881666 1.50944800175118 3.09429414583454 27.8147431137083
13.961973984218 46.6022429737367 0.377362000437794 3.24900885312627 35.0673848558184
16.5959342553799 45.7071624881666 1.50944800175118 3.24900885312627 35.0673848558184
-19.3457004883094 45.9775016458924 1.54840149857057 3.09429414583454 5.07980597602559
-17.7293129459388 46.418507837286 4.64520449571169 3.09429414583454 5.07980597602559
-7.33274823627717 49.2120967393254 3.87100374642641 3.09429414583454 5.07980597602559
-5.32467197058256 48.7434149538167 9.29040899142339 3.09429414583454 5.07980597602559
13.8645842851372 47.6763415382758 5.03230487035433 3.09429414583454 5.07980597602559
16.7494997404394 47.3425123329544 0.389534968193852 2.93957943854282 5.59313857531169
13.9517829284399 47.9761927429191 5.06395458652008 3.09429414583454 21.1428131260404
16.7419395420841 47.3211434091404 1.55813987277541 3.09429414583454 21.1428131260404
13.6074497122599 48.2404090562897 3.11627974555083 3.24900885312627 5.9577263731824
16.3584998813742 47.4742402225424 0.779069936387703 3.24900885312627 5.9577263731824
14.8836372258733 48.2521600086823 1.95984780872532 2.93957943854282 5.11239852205568
16.4547958115658 47.7537020408949 1.56787824698026 2.93957943854282 5.11239852205568
14.8661388106439 48.1954308423682 3.13575649396052 3.09429414583454 16.9018055686241
16.4503358812284 47.7407588122524 1.95984780872532 3.09429414583454 16.9018055686241
16.4582638107175 47.763766571629 1.1759086852352 3.24900885312627 5.4803210883459
13.6595869939758 49.961096099701 5.65799541301571 2.93957943854282 8.19684060038353
16.5618663551489 49.3740785869572 1.61657011800449 2.93957943854282 8.19684060038353
13.6708095222422 50.0021434471385 5.25385288351459 3.09429414583454 9.8735278952709
16.5573774042651 49.3606961692418 2.02071264750561 3.09429414583454 9.8735278952709
16.2390946382763 49.756467523931 2.84603986136633 2.93957943854282 7.61510116830422
16.2390946382763 49.756467523931 2.84603986136633 3.09429414583454 8.74609858782857
16.2021941687343 55.714713616485 2.25199903487071 2.78486473125109 15.4346073902563
16.1968237498209 55.696246281219 2.70239884184485 2.93957943854282 14.1923169525061
16.2897735966734 56.0158742306282 2.26417200262677 2.78486473125109 12.1033022508341
16.2897735966734 56.0158742306282 2.26417200262677 2.93957943854282 11.0660371623205
16.2708508687735 57.6825575843457 1.39502210484424 2.63015002395936 5.70202507630143
13.4592257064656 58.3007249436665 3.7200589462513 2.78486473125109 7.22956514374231
16.2708508687735 57.6825575843457 1.39502210484424 2.78486473125109 7.22956514374231
13.4164801459425 58.1155659143899 6.04509578765835 2.93957943854282 5.11369252753006
16.722126141707 57.5026110254747 2.79004420968847 2.93957943854282 5.11369252753006
13.5296928567613 58.6059643412773 3.73953569466099 2.78486473125109 5.77669896235335
13.2533793320735 61.8800322191597 7.41333736343926 2.63015002395936 10.0649787191422
16.2916700150225 61.5267120754196 2.9653349453757 2.63015002395936 10.0649787191422
13.3186669149901 62.1848599640816 7.44985626670744 2.63015002395936 5.93268069442852
15.8623985217201 61.9067169220563 3.9732566755773 2.63015002395936 5.93268069442852
-7.55454378940953 5.07748644345307 -0 1.14203882619288 6.06805844015281
0.826265938444345 8.8384502317041 -3.14062568106294 0.31146513441624 10.4094925873326
-1.38169378988038 9.27292827473918 -0.876453678436169 0.41528684588832 11.0557596733277
4.52616388783087 8.60793993482982 0.301889600350236 0.20764342294416 20.6051680914269
4.8156810661284 8.42101741737759 -0.75472400087559 0.31146513441624 47.1850313893133
4.67315387704489 8.8874881415524 0.233720980916312 0.20764342294416 39.7030769691149
4.97102561664867 8.6926631405188 -0.779069936387706 0.31146513441624 93.8611692461978
6.74336174874595 7.37439929791377 -1.01279091730402 1.0382171147208 7.03505816292473
5.29728993471769 8.36074231822676 -3.05298031321932 0.20764342294416 26.2993389744478
5.58043242080018 8.63077831207542 -1.28546539503971 0.41528684588832 60.8240489703653
6.26664380081861 8.24700897482327 -0 0.830573691776641 18.251601124489
5.34966342694524 8.79459302226782 -2.81439014520059 0 7.07039162811968
4.96597317827431 9.44437715821362 -0.165552361482387 0.10382171147208 10.2284192894129
4.59055921209973 8.91885936499766 -3.64215195261252 0.20764342294416 12.1478718158394
5.76006680468861 8.90860347465395 -1.15886653037671 0.41528684588832 17.7351620452415
6.45168452484734 8.49052568971512 -0.413880903705969 0.830573691776641 18.2851140840164
6.45576513175661 8.4958958372571 0.165552361482387 0.934395403248721 14.6356405963926
5.18517617665462 9.65442809293996 -0.766896968631648 0.20764342294416 30.4535774447575
6.08482299887147 9.22235146871099 -2.36642493177766 0.5191085573604 8.49337072446859
-9.69946077054664 6.71474963808219 -1.75777654397476 1.76496909502536 26.3112506394257
-6.85091373141788 9.38744323046875 -2.68292209343516 1.76496909502536 26.3112506394257
-9.72091202645568 6.72959992886217 -1.57274743408268 1.86879080649744 61.9227283116612
-6.86327599349745 9.40438258163003 -2.59040753848912 1.86879080649744 61.9227283116612
-9.81261874368639 6.59516180390496 -1.57274743408268 1.97261251796952 9.82117937640299
-9.43392938928438 7.29253907169174 -0.277543664838121 1.97261251796952 9.82117937640299
-6.83809416662903 9.36987726169252 -2.7754366483812 1.97261251796952 9.82117937640299
-2.24535541393259 11.8506485268738 -2.08888126693954 1.76496909502536 163.804661962953
-2.25119188965289 11.8814525688387 -1.89898296994503 1.86879080649744 333.213462783258
-2.25119188965289 11.8814525688387 -1.89898296994503 1.97261251796952 46.341897025538
-2.38457007248268 12.0635235781667 -2.53197729326004 1.76496909502536 298.181465657642
-2.30292862967446 12.1545113096142 -2.14244232506619 1.86879080649744 493.374389931877
-2.30599489890885 12.1706946179493 -2.04505858301773 1.97261251796952 61.2652037594169
-3.24569003744744 12.257591532111 -2.19600338319285 1.66114738355328 12.0187998471483
-3.16949235328564 12.3696845488282 -1.5970933695948 1.76496909502536 142.530075169727
-3.07606928939463 12.417342604165 -1.39745669839545 1.86879080649744 145.281856956449
-2.44011876910925 12.3445440519301 -2.69509506119122 1.97261251796952 14.2692874064772
-3.20998349098153 12.527710675568 -2.55632322877216 1.76496909502536 27.9916424911505
-3.20486217741673 12.5077235526439 -2.65857615792305 1.86879080649744 19.1555130551901
-3.96085553099042 12.8409361201298 -1.25625027242518 1.76496909502536 9.27140229310101
-3.51628476781253 12.8611092909378 -2.09375045404196 1.76496909502536 9.27140229310101
-3.16214266065791 12.7647998424517 -3.03593815836084 1.76496909502536 9.27140229310101
-3.96614055547067 12.8580699593251 -1.04687522702098 1.86879080649744 8.78191984878889
-3.52050934621132 12.8765610441611 -1.98906293133986 1.86879080649744 8.78191984878889
-2.06840280459561 13.1717159322443 -2.09375045404196 1.86879080649744 8.78191984878889
-3.01638820206325 14.0835174525986 -1.00792173020159 1.76496909502536 6.06187809278328
-3.01465518353401 14.0754259885471 -1.11991303355733 1.86879080649744 7.0180105841368
-1.64535335001305 14.0454388689191 -2.91177388724905 1.86879080649744 7.0180105841368
-3.07375217642192 14.3513498667017 -1.48753665979027 1.76496909502536 6.34218152055202
-3.06851639708106 14.3269040113325 -1.71638845360416 1.86879080649744 9.66979211825688
-1.74529741879627 14.8986041226894 -1.40232588549787 1.86879080649744 15.8277752494225
-1.7803056340978 15.1974491992948 -1.55083609212178 1.86879080649744 8.17042242849955
4.12459655851294 16.0972018964166 -0.774200749285282 -0.31146513441624 6.4909821826229
4.6450647535986 15.9730496858372 0.129033458214213 -0.31146513441624 6.4909821826229
-1.2610327808042 27.0664513677765 -3.38895422328652 0.830573691776641 7.49934051741358
16.4878635271983 21.6983065906352 -4.499128882639 0.726751980304561 23.2388450661034
16.5087405241212 21.7257810708295 -4.28488465013238 0.830573691776641 44.6883660128993
16.5087405241212 21.7257810708295 -4.28488465013238 0.934395403248721 6.34194039644462
16.5020865592245 22.1602785905387 -4.11689769509878 0.726751980304561 26.2312263431541
18.4127130624191 20.9975023492891 -0.650036478173494 0.726751980304561 26.2312263431541
16.5020865592245 22.1602785905387 -4.11689769509878 0.830573691776641 49.7597290579273
16.5208514631174 22.1854775553181 -3.90021886904095 0.934395403248721 7.16499816519827
16.7064790076468 22.4347525840296 -3.94404155296276 0.830573691776641 6.22266147821549
18.4049735519945 21.4286949199151 -0.219113419609042 0.830573691776641 6.22266147821549
16.2075505727684 32.1743727201769 -7.12118613729387 0 13.4147095759559
7.34471594786477 44.4880515982752 -8.17536514496848 -0.726751980304561 8.62848066817567
7.41521484680379 44.9150740557649 -7.51559029259015 -0.62293026883248 12.8309426904174
7.1101509383023 45.2778773006008 -7.56671675716559 -0.726751980304561 16.4189135367055
16.9200159655001 59.9839432571468 -9.78706607587056 -0.5191085573604 6.58747619015661
