VERSION .7
FIELDS x y z velocity SNR
SIZE 4 4 4 4 4
TYPE F F F F F
COUNT 1 1 1 1 1
WIDTH 243
HEIGHT 1
VIEWPOINT 0 0 0 1 0 0 0
POINTS 243
DATA ascii
-7.48937916840753 2.75410257276013 -1.70908467295053 3.71315297500145 27.4112778098054
-5.77557035352848 5.42117022366332 -1.96228240227653 3.71315297500145 27.4112778098054
-5.80811860391544 5.45172125066662 -1.77238410528203 3.86786768229318 30.5873025303354
-2.61075397782711 7.78315494813615 -2.1034888282468 3.55843826770973 16.394328753988
-2.62111157979859 7.814032932703 -1.97202077648138 3.71315297500145 272.276931086117
-2.62111157979859 7.814032932703 -1.97202077648138 3.86786768229318 345.870423743088
-2.62602545037382 7.82868211696429 -1.90628675059867 4.02258238958491 17.7444669589731
-3.32108006370673 7.89296640809105 -1.9768899635838 3.55843826770973 58.4936245371296
-2.7181897864578 8.10344155984015 -2.04505858301773 3.71315297500145 487.880911613365
-2.7181897864578 8.10344155984015 -2.04505858301773 3.86786768229318 560.181464982339
-2.7181897864578 8.10344155984015 -2.04505858301773 4.02258238958491 29.087972387403
4.15944474941478 8.08126004751823 0.49422249089595 -4.33201180416836 17.3728911108627
4.15542690316443 8.0734538949339 0.635428916866223 -4.17729709687663 22.250819239546
4.21780209542432 8.02149192874489 -0.84723855582163 -3.86786768229318 6.98265745273335
-3.52091283854887 8.17442622190632 -1.90628675059867 3.55843826770973 71.0348924873805
-2.81526799311701 8.3928501869773 -2.11809638955408 3.71315297500145 167.190894405034
-2.82054585410522 8.40858449599868 -2.04749317656894 3.86786768229318 120.741016372627
4.30456126684429 8.36320256273089 0.438226839218084 -4.33201180416836 20.1594091124337
4.29871748603217 8.35184885682818 0.657340258827127 -4.17729709687663 19.9569855493459
4.82035021599855 8.08846937571224 0.0730378065363472 -3.71315297500145 6.18910571785466
-4.03771312271494 8.0154546712107 2.84847445491755 3.55843826770973 29.6153319401759
-3.90680587774858 8.28252656718999 -2.19113419609042 3.55843826770973 29.6153319401759
-3.78870015718089 8.59523719690145 -0.657340258827127 3.71315297500145 31.3259597402955
-4.15701374722342 8.43340338981202 0.511264645754431 3.86786768229318 24.0220201334151
-2.74513040675848 8.8996036131106 -1.3877183241906 3.86786768229318 24.0220201334151
-2.44878384595825 8.68129862078625 -2.70239884184485 3.86786768229318 24.0220201334151
-2.26246855509352 9.13303457649853 0.365189032681737 3.86786768229318 24.0220201334151
4.87883036829957 8.18659812150417 -1.96228240227653 -4.64144121875182 5.49021736299794
0.3015624842309 9.7148303055559 0.452834400525354 -4.33201180416836 7.7258270339598
4.31617609669528 8.20858137470287 -2.9434236034148 -4.33201180416836 7.7258270339598
4.50791025375515 8.04845054149527 -3.09436840358992 -4.17729709687663 9.5090595351817
-1.65453417039986 9.12538771569635 -2.9434236034148 -3.71315297500145 6.27371312203925
4.70284182842045 8.39648256727985 -1.43397560166362 -3.71315297500145 6.27371312203925
5.00059769592413 8.0546597398838 -2.18869960253921 -3.71315297500145 6.27371312203925
4.79289087570024 8.38116498780315 -1.20755840140094 -3.55843826770973 11.0039264160179
5.08465458087267 7.86400106153389 -2.64153400306456 -3.55843826770973 11.0039264160179
4.82310834765571 8.43400525154816 -0.528306800612912 -3.403723560418 7.56802707845913
-3.83970189006602 8.91455178066695 -0.679251600788031 3.55843826770973 8.55682268085653
-3.82633009168601 8.88350676923841 -1.05661360122583 3.71315297500145 14.2321907524344
-3.15109536962377 9.14483966295649 -1.05661360122583 3.86786768229318 23.2299165637815
-2.75867211264088 9.20788910103118 -1.50944800175118 3.86786768229318 23.2299165637815
-3.15607949898992 9.15930417721788 -0.905668801050708 4.02258238958491 5.08139572839558
-2.76512718928873 9.22943484024378 -1.35850320157606 4.02258238958491 5.08139572839558
5.0248049503309 8.6068566515552 -1.24651189822033 -3.55843826770973 7.61536114891803
5.2604240897091 8.13584875189121 -2.6488377837182 -3.55843826770973 7.61536114891803
5.2604240897091 8.13584875189121 -2.6488377837182 -3.403723560418 6.60946990884265
-3.94976009464362 9.17007150372998 -1.09069791094279 3.71315297500145 6.72296125702474
-3.18031974091765 9.48113898835453 -0.934883923665247 3.86786768229318 5.98526267075416
-2.85432484055611 9.52715854476778 -1.40232588549787 3.86786768229318 5.98526267075416
5.02783496620366 8.7920037146771 2.16922285412952 -4.95087063333527 5.90053757429671
2.96340639252238 9.60724567877609 2.49058920288945 4.79615592604354 5.67336415776149
5.24256210056562 8.97984716470895 2.40050924149462 -4.95087063333527 19.3100335021042
4.3022891148844 9.76039113625561 -0.331104722964775 -4.79615592604354 5.35862249441192
3.14553726033937 9.91098924546056 2.40050924149462 4.79615592604354 7.5516778143177
3.55040291824935 9.53191807828822 3.22827104890655 4.79615592604354 7.5516778143177
5.83408843992746 9.20797439994732 1.36337238867848 -4.95087063333527 14.1106526677135
6.39062694734662 9.11694816446089 1.92819809255957 -4.95087063333527 5.6552386757369
-0.515890203907746 11.072921598657 -2.19113419609042 -4.79615592604354 6.4198818798204
6.38171013865354 9.1042273338887 2.01584346040319 -4.79615592604354 6.4198818798204
5.33606420859335 9.93537084296578 -0.701162942748936 -4.48672651146009 10.869165505606
6.83119537925012 8.98996837734542 -0.438226839218085 -3.55843826770973 12.5002557156424
6.48263472966744 9.24820761506835 -0.350581471374468 -3.403723560418 21.4265516263473
6.09633586292806 8.69710883038413 -3.85639618511914 -3.24900885312627 6.23969930193125
0.0889894229884153 11.4723492563944 1.80159922789657 -4.17729709687663 13.2501102899415
6.02441167339938 10.1088649462122 -1.94280565386684 -4.48672651146009 5.18803614027175
0 11.7007624119972 2.312863873651 -4.17729709687663 9.71370837228231
5.50638790649828 10.9309902227434 -0.189898296994503 -4.64144121875182 5.76206447952899
5.86537994503924 10.6934268713651 -1.04444063346977 -4.64144121875182 5.76206447952899
-5.67159118186102 13.479253080364 -3.62267520420283 4.33201180416836 5.68006086624977
-4.85454640353079 14.0884496624968 2.22034931870496 4.33201180416836 5.68006086624977
4.08962497034355 14.4983215538501 0.233720980916311 4.33201180416836 5.68006086624977
5.23589225638881 14.0570231615432 1.40232588549787 4.33201180416836 5.68006086624977
4.17331777829567 14.7950248579999 -0.47718033603747 4.33201180416836 12.6035275177227
4.84319138908549 14.4384761432421 2.14731151216861 4.33201180416836 12.6035275177227
4.73491235704258 14.5077369255886 1.90872134414988 4.64144121875182 7.31162593569153
3.92799606734661 14.834371359484 3.28670129413563 4.17729709687663 23.5195219347917
4.69561780103425 14.7949980162761 2.312863873651 4.17729709687663 23.5195219347917
3.92799606734661 14.834371359484 3.28670129413563 4.33201180416836 10.824901017707
4.706002594734 14.8277185247795 2.06940451852984 4.33201180416836 10.824901017707
4.82666932793231 14.7888796151206 2.06940451852984 4.64144121875182 5.22280202501696
4.01323143198836 15.1562690982745 3.22827104890656 4.17729709687663 24.5804802798467
4.66672169148942 15.129326142288 2.35912115112402 4.17729709687663 24.5804802798467
4.67202832854538 15.1465300485944 2.23495688001223 4.33201180416836 8.81888675181736
4.90815776466744 15.464670990861 1.77238410528203 4.33201180416836 5.55011779920642
5.52435113532875 15.6145954093439 1.54840149857056 4.33201180416836 6.2613729405102
4.84966268655471 16.1871923780229 1.31468051765425 4.17729709687663 6.1619899712643
4.63197863322373 16.9418540786272 -0.681686194339243 4.17729709687663 7.45011978436464
5.86179579082576 16.5683837619588 -0.272674477735696 4.17729709687663 7.45011978436464
4.30179738973204 17.365308442879 0.13877183241906 4.02258238958491 7.99267131117163
5.27317099386508 17.0954106639206 0.13877183241906 4.02258238958491 7.99267131117163
4.43414799703831 17.3052987205737 0.97140282693342 4.17729709687663 30.2735074697825
5.27332963192428 17.0959249622 -0 4.17729709687663 30.2735074697825
4.36671979654567 17.6273843885904 1.27085783373245 4.02258238958491 14.6132242811385
5.22448058764287 17.4382586611402 0.141206425970271 4.02258238958491 14.6132242811385
5.36584418687032 17.3958534703088 -0 4.17729709687663 60.4388043777744
5.4568807251743 17.6909903072403 0.430923058564451 4.17729709687663 22.8849503792987
-13.4823734829293 20.434314509241 0.189898296994503 3.71315297500145 6.16538773735206
-7.52960415157441 23.0706521995881 3.22827104890655 3.71315297500145 6.16538773735206
10.9289507669697 21.6955753948257 -3.03837275191205 3.71315297500145 6.16538773735206
-10.2879221447379 21.8106532936003 5.76998671637145 3.71315297500145 14.387994206628
1.26549314271742 23.2727483465449 8.46264718401145 3.71315297500145 14.387994206628
3.63680787083871 23.1594155975839 8.07798140292002 3.86786768229318 13.2168803853379
4.49769128627711 23.7381388644841 5.57765382582573 3.86786768229318 13.2168803853379
4.99632228096918 24.2654166148736 4.09011716603545 3.71315297500145 18.6301678591281
4.55462408736923 24.0386216349206 5.64825703881086 3.86786768229318 13.8197599226125
5.17435957188125 24.1590864487415 4.47965213422931 3.86786768229318 13.8197599226125
6.14178543155673 23.1949127086389 7.4011643956832 3.86786768229318 13.8197599226125
4.51869162480988 23.8489754961162 6.42732697519857 4.02258238958491 7.73932805756404
5.90389711940581 23.8325948912003 5.25872207061701 4.02258238958491 7.73932805756404
3.49757285631808 24.8054166609069 4.33844570825904 3.71315297500145 15.989976178099
4.87036706896058 24.6391534678456 3.94404155296276 3.71315297500145 15.989976178099
6.10023369349334 23.8075874782983 6.50766856238855 3.86786768229318 11.6091770901189
13.307481841814 21.8768691803107 -2.59527672559154 -2.47543531666763 7.29678275096518
2.86857536240824 24.4873843623151 7.38655683437594 3.71315297500145 10.7500293779322
3.7424375546875 25.1165310805311 4.19237009518634 3.71315297500145 10.7500293779322
-11.2393599188517 23.827725266899 1.02252929150886 4.33201180416836 5.31147657575881
16.1912307921574 25.0415940968822 -6.14004493615561 -3.86786768229318 48.0789956426907
-13.8713605888462 27.5366918472787 3.85639618511914 3.55843826770973 14.870619196116
-8.84004487410803 29.5062803861106 4.09742094668909 3.55843826770973 14.870619196116
-6.34089072163435 29.6056207493697 6.98971808552844 3.55843826770973 14.870619196116
4.30490501033157 30.53116170947 3.85639618511914 3.55843826770973 14.870619196116
-13.8573676404937 27.5089137858298 4.09742094668909 3.71315297500145 15.0077159222668
-6.34089072163435 29.6056207493697 6.98971808552844 3.71315297500145 15.0077159222668
5.10510460185332 30.9223880887959 1.7042154858481 3.403723560418 6.76751581701766
5.84232138620507 30.8348945112851 0.486918710242314 3.403723560418 6.76751581701766
4.35635304556281 30.8960404418717 3.40843097169621 3.55843826770973 62.7233381533907
5.83669324317869 30.8051900179783 1.46075613072695 3.55843826770973 62.7233381533907
4.11771371151872 30.9546105933901 3.16497161657505 3.71315297500145 61.3323457242883
5.83440525926093 30.7931143826128 1.7042154858481 3.71315297500145 61.3323457242883
4.16204953899055 31.2879019222377 2.95072738406843 3.55843826770973 65.2416891594391
5.89506017561048 31.1132419181581 1.47536369203422 3.55843826770973 65.2416891594391
4.16204953899055 31.2879019222377 2.95072738406843 3.71315297500145 39.0629902897447
5.89274931185354 31.101045526439 1.72125764070659 3.71315297500145 39.0629902897447
14.1104797231958 40.9502282539391 -0.335973910067197 4.64144121875182 9.72317648859414
-14.1012158643535 42.038410727894 6.96293755646512 4.64144121875182 6.27322289249239
14.0215713268922 42.9619922724367 0.701162942748933 4.48672651146009 39.0305128585191
14.0127084702567 42.934836544351 1.75290735687234 4.64144121875182 22.2731583564192
15.0459515389845 42.5274281222636 2.80465177099574 4.64144121875182 22.2731583564192
14.1206425970272 43.2655459215057 -0 4.48672651146009 26.9189150799948
16.5512766481973 42.276009802771 3.17714458433111 4.48672651146009 26.9189150799948
14.1100189457446 43.2329951314645 1.7650803246284 4.64144121875182 15.270739671157
15.1504373135608 42.8227574842238 2.82412851940544 4.64144121875182 15.270739671157
16.541767371807 42.2517207844409 3.53016064925679 4.64144121875182 15.270739671157
13.7536980075377 47.2950353314675 1.52892475016087 4.33201180416836 10.033495062773
16.4339631992794 46.4506473326344 0.764462375080434 4.33201180416836 10.033495062773
13.8375496143784 47.5833770346196 1.92332890545715 4.33201180416836 8.64867731716359
16.532665297808 46.7296291165262 1.53866312436572 4.33201180416836 8.64867731716359
13.1546548560578 56.9814290374425 5.00795893484222 4.02258238958491 19.4945185304435
13.1355067397447 56.8984859999524 5.91849692299535 4.17729709687663 7.5999032389431
15.9224265517066 56.4473421739721 2.27634497038283 4.17729709687663 7.5999032389431
13.2410213185578 57.3555387733504 4.11933228865 3.86786768229318 5.67790038211162
13.6499062094302 57.0488465088377 6.40785022678888 4.02258238958491 25.596473744156
16.0022673083816 56.7303893902257 2.74622152576666 4.17729709687663 10.5186893553332
-24.6676455147666 55.9622708296516 9.11268366218495 3.403723560418 7.58763171333779
-3.34718961199146 61.5556883546391 -4.79614929588681 3.403723560418 7.58763171333779
5.26559705829772 61.4887065406027 3.83691943670945 3.403723560418 7.58763171333779
12.930500655837 60.372511579496 3.35730450712077 3.403723560418 7.58763171333779
12.9902546717395 60.6515030983098 3.85639618511915 3.403723560418 5.20986672143761
4.76363672714431 6.52735840791096 1.13938978196702 0.934395403248721 6.26021324526547
-7.65093205960007 2.81351113297124 0.379796593989006 1.5573256720812 27.6252186740572
5.06151660574635 6.39638900383592 0.253197729326005 1.5573256720812 27.6252186740572
-7.58129341111623 2.97731516349835 0.506395458652009 1.66114738355328 14.6945024429733
5.06151660574635 6.39638900383592 0.253197729326005 1.66114738355328 14.6945024429733
4.60013584771607 7.1146373100197 0.197202077648138 0.934395403248721 13.9427384777908
4.97032266825672 6.81056917581639 0.854542336475264 0.934395403248721 13.9427384777908
3.14953866490882 7.66476531372695 1.77481869883324 1.0382171147208 12.8170160679342
-5.99770767481803 5.62967677072729 -2.03775480236409 1.45350396060912 42.3729312563857
-2.56659905574005 7.86404078604699 -1.84055272471595 1.45350396060912 42.3729312563857
-5.95659431426257 5.71867620431358 -1.90628675059867 1.5573256720812 217.539388578336
-2.56659905574005 7.86404078604699 -1.84055272471595 1.5573256720812 217.539388578336
-5.95659431426257 5.71867620431358 -1.90628675059867 1.66114738355328 114.889392314245
-2.56659905574005 7.86404078604699 -1.84055272471595 1.66114738355328 114.889392314245
-0.476260739929096 8.75855899456588 0.545348955471395 0.934395403248721 12.806169769566
3.41582730188315 7.93045143302249 1.63604686641418 0.934395403248721 12.806169769566
4.77122913206748 7.37925268326888 0.136337238867848 0.934395403248721 12.806169769566
-0.885231808548768 8.73416621651643 -0.409011716603545 1.0382171147208 12.2352483327872
3.28667654288012 7.99850614440285 1.56787824698026 1.0382171147208 12.2352483327872
-2.66165828002671 8.15530155590058 -1.90872134414988 1.45350396060912 189.749016765152
-2.66165828002671 8.15530155590058 -1.90872134414988 1.5573256720812 1036.38695892248
-2.66627611844133 8.16945057912052 -1.84055272471595 1.66114738355328 545.25342813765
4.74289573332853 7.63956903488673 1.41206425970272 0.726751980304561 5.07155433256469
-0.564553775256325 9.0803921977775 0.282412851940544 1.0382171147208 9.15554489500986
-0.280973406197748 9.0515535065534 0.917841768806765 1.0382171147208 9.15554489500986
-2.75671750431338 8.44656232575417 -1.9768899635838 1.45350396060912 171.069150628237
-2.75671750431338 8.44656232575417 -1.9768899635838 1.5573256720812 884.512434218236
-2.76150026552852 8.46121667123197 -1.90628675059867 1.66114738355328 445.063578409024
5.37406225261214 7.21670658152093 -2.7754366483812 0.830573691776641 7.14368091897167
-3.1838463144233 8.54780793665724 -2.33720980916312 1.45350396060912 50.5964215386116
-2.91234619977621 8.68225881411444 -2.19113419609042 1.45350396060912 50.5964215386116
-0.726058840927136 9.33229446467553 -1.02252929150886 1.45350396060912 50.5964215386116
-2.85177672860005 8.73782309560776 -2.04505858301773 1.5573256720812 130.791536654026
-2.85177672860005 8.73782309560776 -2.04505858301773 1.66114738355328 47.9178454305653
4.56672583274936 7.98567788229546 3.16984080367748 0.726751980304561 14.6884480413331
5.64662042656768 7.89482246874732 -0.679251600788031 1.0382171147208 19.4686022888555
6.0348851837745 7.6264638122659 -0.301889600350236 1.0382171147208 19.4686022888555
6.47107143261004 7.22700165964438 0.75472400087559 1.0382171147208 19.4686022888555
-5.46689115509559 7.95794135423764 -1.20755840140094 1.45350396060912 14.25314625884
-3.9479694298849 8.55889449645574 -2.41511680280189 1.45350396060912 14.25314625884
-3.26273700263909 8.98596294977701 -1.81133760210141 1.45350396060912 14.25314625884
-3.28452445159524 9.04596815673416 -1.43397560166362 1.5573256720812 17.2310738163821
-2.97461614666284 9.11420217656302 -1.6603928019263 1.5573256720812 17.2310738163821
-2.90778952413498 9.16189137707287 -1.50944800175118 1.66114738355328 11.5451593446927
4.71403956928967 8.24328039462757 3.27209373282836 0.726751980304561 27.8137385721278
5.07481299886205 8.17420125252029 2.88255876463451 0.726751980304561 27.8137385721278
-3.71062519409051 9.2497517198177 -1.24651189822033 1.5573256720812 12.0802026890359
-3.40462654617032 9.37674350613234 -1.16860490458156 1.5573256720812 12.0802026890359
-3.00158918620385 9.45743626020425 -1.55813987277541 1.5573256720812 12.0802026890359
-3.00861266977536 9.47956592022148 -1.40232588549787 1.66114738355328 14.9611749191816
6.02561903924866 8.4247193870774 -0 0.934395403248721 19.1169760746588
-3.81428645991705 9.50815587591101 -1.52649015660966 1.5573256720812 7.48919767041715
-3.82272210772239 9.5291840433259 -1.3658069822297 1.66114738355328 7.5068313004697
-3.4279799156344 9.68919573408012 -1.28546539503971 1.66114738355328 7.5068313004697
-3.0991077486826 9.76469869074223 -1.52649015660966 1.66114738355328 7.5068313004697
6.01747159833061 7.76038321783794 3.29400507478927 1.66114738355328 7.5068313004697
-3.85237423581812 9.83990627545507 -1.48997125334149 1.5573256720812 9.24749845194064
-3.43451070344479 9.96734342174498 -1.65552361482388 1.5573256720812 9.24749845194064
-2.26240953802271 10.1682925626515 -2.31773306075342 1.5573256720812 9.24749845194064
-2.27011070900351 10.2029051110393 -2.15218069927104 1.66114738355328 12.9881844324094
5.44544490864354 9.52226399368341 -0.596475420046837 0.726751980304561 26.6139389686997
-3.53105468895418 10.24752512504 -1.78942626014051 1.5573256720812 13.25183442954
-3.53552572413435 10.2605005812081 -1.70421548584811 1.66114738355328 18.7437534046674
-3.63194196578145 10.540311557184 -1.84055272471595 1.5573256720812 8.12853482674852
-3.63194196578145 10.540311557184 -1.84055272471595 1.66114738355328 15.3141540227431
-2.45340578544857 11.0267161546472 0.262936103530851 1.66114738355328 15.3141540227431
-2.42436049654927 10.8961734787385 -1.75290735687234 1.76496909502536 5.49001913048236
-2.51304120060407 11.2947447048302 -0.990879575343113 1.66114738355328 10.5847514852343
-2.23195758784379 11.7799368137003 -2.46867786092854 -3.01082963269032 6.08629786114345
-2.28918726958338 12.0819864755901 -2.53197729326004 -3.01082963269032 5.46540958467132
10.6794872543932 8.90848063018722 4.9203135669986 -1.66114738355328 11.2049429376856
10.9067103874654 9.09802277125504 5.0250010897007 -1.66114738355328 8.32449333108608
12.1836194337127 8.18873571076391 -3.38895422328652 2.90700792121824 6.37907526881461
4.62447519082568 14.9923646671528 0.365189032681738 0.10382171147208 31.05458071986
4.50277847527763 15.0293630971518 0.365189032681738 0.20764342294416 13.997245513515
4.59393982706528 15.3336412365198 0.12416427111179 0.10382171147208 15.2712942321801
4.59393982706528 15.3336412365198 0.12416427111179 0.20764342294416 6.24713400103548
-8.66940125494415 15.1598866211489 3.88561130773368 0.726751980304561 5.11406163991678
17.6508916230883 15.0873394591026 -0.540479768368972 1.86879080649744 12.718836414877
17.892109245253 15.2935234993669 -0.365189032681736 1.86879080649744 7.76912574120695
18.6156740547883 14.3901363672089 -0.730378065363475 1.86879080649744 7.76912574120695
-17.7000275621776 15.1293390707093 -5.18081507697824 0 9.85128718725352
-8.16826156187265 21.9296800511284 -4.625727747302 0 9.85128718725352
3.8837406263323 23.5244023873815 0.740116439568321 0 9.85128718725352
9.28109939167131 59.1026102142232 11.3354675744411 -0.20764342294416 6.28092795726014
