VERSION .7
FIELDS x y z velocity SNR
SIZE 4 4 4 4 4
TYPE F F F F F
COUNT 1 1 1 1 1
WIDTH 138
HEIGHT 1
VIEWPOINT 0 0 0 1 0 0 0
POINTS 138
DATA ascii
0.0726655360856247 3.12188317395925 -0.316497161657505 0 5.20928694959462
-8.38227565860764 8.4120239733902 -1.11017465935248 2.16600590208418 7.12132771854323
9.12093257030583 7.23571407343595 2.59040753848912 2.16600590208418 7.12132771854323
-8.49493646322511 8.3393922117679 -0.740116439568321 2.32072060937591 6.36826074691305
6.92521994284656 9.68249640945593 -0.740116439568321 2.78486473125109 5.95255005546396
7.58254122283925 9.19920136957332 -0.370058219784161 2.78486473125109 5.95255005546396
-8.08564655002127 9.03018636787517 1.70908467295053 1.85657648750073 5.86328816554724
-8.7620036321395 8.41203194806269 -1.51918637595603 2.32072060937591 5.45463858303696
9.43601960816677 7.48567532428766 -2.18383041543679 2.32072060937591 5.45463858303696
-8.94140492999461 8.20297267923707 1.61413552445328 2.47543531666763 5.69397887021621
7.78304012275053 8.6922304088227 3.70301679139281 2.47543531666763 5.69397887021621
7.27131396454397 9.00376856915751 3.98786423688457 2.78486473125109 5.61039100125057
-9.44366512652822 8.26786073928464 0.29215122614539 1.85657648750073 7.01615129673506
-9.09993747295344 8.54154776859996 1.36337238867849 2.47543531666763 7.1300539382563
-8.6703633659713 10.7361538146157 0.535610581266548 0.773573536458636 5.10507513392945
-8.15003833375608 14.8586860079803 0.26293610353085 -0.618858829166909 5.81427115002488
15.1725639346784 7.35833835514268 1.70908467295053 -0.618858829166909 5.81427115002488
-12.7164309152851 14.2019244087452 -1.78212247948688 1.54714707291727 20.8026769053131
-8.09673779760645 17.1652874534153 -2.52467351260641 1.54714707291727 20.8026769053131
-8.09673779760645 17.1652874534153 -2.52467351260641 1.701861780209 17.8740623436985
-12.9421428652201 14.4540033192888 -1.50944800175118 1.39243236562554 12.2248850284413
-0.299839269691135 19.3256132819282 -2.26417200262677 1.39243236562554 12.2248850284413
-0.300104320916548 19.3426966929421 -2.11322720245165 1.54714707291727 145.078415545383
-0.300350882487247 19.3585883857494 -1.96228240227653 1.701861780209 107.570261651568
-0.304944713189396 19.6546756718605 -2.14731151216861 1.39243236562554 33.9160907127695
-0.305195251559622 19.6708236822938 -1.99393211844228 1.54714707291727 413.11681117725
-0.305195251559622 19.6708236822938 -1.99393211844228 1.701861780209 286.22814820672
-0.309785105462244 19.9666546507789 -2.18139582188558 1.39243236562554 20.0272364058505
-0.310039620631997 19.9830589788381 -2.02558183460803 1.54714707291727 223.112010322218
-0.310275096674892 19.9982361734292 -1.86976784733049 1.701861780209 142.285342462751
0.467782377902625 20.0970365501474 -3.48146877823256 1.701861780209 19.9370467519828
-0.159732945003969 20.5924712319636 -2.2495644413195 1.54714707291727 9.91411627145208
-0.159732945003969 20.5924712319636 -2.2495644413195 1.701861780209 7.9977222076197
-8.9495897943664 18.9733551030719 1.46805991138058 -1.701861780209 5.51658361348416
-8.93875172089376 20.7529040930475 0.350581471374466 -1.85657648750073 5.02888154621797
-7.87953587829124 21.1545258992292 -1.0517444141234 -1.85657648750073 5.02888154621797
-8.88198827450682 21.109167422328 0.710901316953782 -1.85657648750073 7.86203089051124
-7.98897387660084 21.4483387589408 -1.06635197543067 -1.85657648750073 7.86203089051124
-7.99667739736819 21.4690207295676 -0.35545065847689 -1.701861780209 6.40796409017176
7.41796863327573 20.9669110688981 5.50948520639181 -1.701861780209 6.40796409017176
6.23414171958663 21.4374310623686 5.15403454791491 -1.08300295104209 6.44429993828104
-9.00555695055527 21.4028439945375 0.540479768368972 -1.85657648750073 6.91945627937101
-7.66491785436259 20.5783317406179 7.56671675716559 -1.701861780209 6.39037976403644
7.12770702105712 21.8392423231156 -3.42303853300348 -1.701861780209 6.39037976403644
7.30589969658354 21.7802787459034 3.42303853300348 -1.54714707291727 6.6210042539008
15.7594315052643 19.1194719061006 0.961664452728574 3.71315297500145 14.0594278984138
17.1155673610033 17.9373373722174 -0.384665781091428 3.71315297500145 14.0594278984138
15.7594315052643 19.1194719061006 0.961664452728574 3.86786768229318 5.77724079400375
16.1481846394611 19.1930517033497 1.16860490458156 3.71315297500145 12.2754831506452
17.1374760662015 18.3482401022418 -0.389534968193852 3.71315297500145 12.2754831506452
15.9589179800145 19.3614905378234 0.973837420484632 3.86786768229318 5.53272863675972
-13.0309718383518 23.2655768293582 0.827761807411938 -1.23771765833382 6.35005708901737
-12.2094866593261 23.7214442515677 -0 -1.23771765833382 6.35005708901737
-11.5883166808854 24.0301180608293 0.206940451852984 -1.23771765833382 6.35005708901737
-13.0231217988425 23.2515613208003 1.24164271111791 -1.08300295104209 8.47636174538504
-12.208017396591 23.7185896652093 0.413880903705967 -1.08300295104209 8.47636174538504
-11.5883166808854 24.0301180608293 0.206940451852984 -1.08300295104209 8.47636174538504
-12.3527560585741 23.9997980564446 0.209375045404195 -1.08300295104209 5.92978436123402
-11.7235915816515 24.3106309192187 0.41875009080839 -1.08300295104209 5.92978436123402
6.36394630344182 29.713267267992 4.7718033603747 -2.16600590208418 5.09881131097265
7.36932352069033 29.7481643969573 2.62449184820608 -2.16600590208418 5.09881131097265
7.36418549764316 29.7274234491819 2.86308201622482 -2.01129119479245 6.79680918698475
6.94224631680041 30.0714173187936 3.6153714235492 -2.01129119479245 7.40687034942058
-6.96005717087839 31.2816474545652 4.26297330817148 -2.16600590208418 11.9416208020689
6.71148370048988 31.3359194827862 4.26297330817148 -2.16600590208418 11.9416208020689
-14.1175357168491 28.0253856993967 -7.77365720901858 -2.01129119479245 10.7910800302589
-6.94469832727321 31.2126178590933 4.76449957972106 -2.01129119479245 10.7910800302589
-5.01465918982602 31.9336573121311 0.501526271549584 -2.01129119479245 10.7910800302589
6.46291023010137 31.3881291996075 4.26297330817148 -2.01129119479245 10.7910800302589
6.54421035288992 31.7829758967109 3.54476821056406 -2.32072060937591 8.35298117016099
6.54421035288992 31.7829758967109 3.54476821056406 -2.16600590208418 54.6961706180537
6.538430526168 31.7549052688606 3.79796593989007 -2.01129119479245 40.7785491874926
15.1364643742948 28.7868003432071 -2.78517502258605 0.618858829166909 5.04438533065673
16.9560806292503 27.8749925903594 1.01279091730402 0.618858829166909 5.04438533065673
6.59505649730931 32.0299181090449 4.09011716603545 -2.32072060937591 7.22361054494346
6.60130005045808 32.0602408964458 3.83448484315824 -2.16600590208418 47.7050354581048
8.17137054045017 31.8906830023347 1.5337939372633 -2.16600590208418 47.7050354581048
6.60130005045808 32.0602408964458 3.83448484315824 -2.01129119479245 34.7568565360792
8.17137054045017 31.8906830023347 1.5337939372633 -2.01129119479245 34.7568565360792
-12.7800780323236 30.373470276813 0.51126464575443 -1.85657648750073 6.77479366676489
-11.2261460126144 30.9181316350489 2.04505858301773 -1.85657648750073 6.77479366676489
26.7687080927126 25.1261285648597 4.88379466373043 1.08300295104209 11.7542648041962
26.7096372559343 25.0706824284909 5.45835874181636 1.23771765833382 5.98635335157445
-23.7217193832784 28.7793850407287 2.02801642815924 0.928288243750363 5.58648953124132
-22.8317757549087 29.444813574357 2.6074496933476 0.928288243750363 5.58648953124132
-23.6988052139559 28.7515853820629 2.6074496933476 1.08300295104209 36.7857040196524
-22.529814342643 29.64961580561 2.89716632594178 1.08300295104209 36.7857040196524
-22.5154907567635 29.6307657249201 3.18688295853596 1.23771765833382 17.1884622613523
27.0484037964923 25.3886616011149 4.34574948891267 1.23771765833382 17.1884622613523
-24.1893933112318 28.7504934369284 2.62936103530851 1.08300295104209 18.7156775008784
-22.995782414794 29.6563234269903 3.21366348759929 1.08300295104209 18.7156775008784
-24.201821273948 28.765264789641 2.33720980916312 1.23771765833382 10.1839739084716
-22.995782414794 29.6563234269903 3.21366348759929 1.23771765833382 10.1839739084716
14.5406177997785 41.0991007601717 1.69204251809205 -1.08300295104209 20.8416871774318
17.5442251743831 39.8017184135991 3.3840850361841 -1.08300295104209 20.8416871774318
14.516064640686 41.0297011807717 3.04567653256569 -0.928288243750363 21.3842120391394
14.6403722183066 41.3810569297659 2.04505858301773 -1.08300295104209 28.9969832586332
14.6204967604032 41.3248788871082 3.06758787452659 -0.928288243750363 31.8986768616072
14.7249288801204 41.6200565934447 3.0894992164875 -0.928288243750363 8.10659655219402
16.0854427546537 41.086156073146 3.43277690720833 -0.928288243750363 8.10659655219402
-22.8797729252807 68.2089616133961 8.998257765278 -2.78486473125109 5.97777519914767
-17.4333273749756 68.037633863149 17.996515530556 -2.78486473125109 5.97777519914767
7.81260538912026 71.5185965363138 8.998257765278 -2.78486473125109 5.97777519914767
10.6648387119837 71.5746753457207 4.49912888263901 -2.78486473125109 5.97777519914767
-35.1567242510411 62.7690305280112 8.998257765278 -2.63015002395936 8.80619134215462
-22.8321879771173 68.0671018181413 10.1230399859377 -2.63015002395936 8.80619134215462
-17.35939949604 67.7491130402958 19.1212977512157 -2.63015002395936 8.80619134215462
7.81260538912026 71.5185965363138 8.998257765278 -2.63015002395936 8.80619134215462
10.1081071116696 71.6885162535229 3.93673777230912 -2.63015002395936 8.80619134215462
11.235634493119 71.5492096283555 3.37434666197925 -2.63015002395936 8.80619134215462
7.83851098856208 71.7557430479105 9.60203696597847 -2.78486473125109 14.4454083962098
11.2747440473011 71.7982616683056 4.5186056310487 -2.78486473125109 14.4454083962098
7.83851098856208 71.7557430479105 9.60203696597847 -2.63015002395936 24.6597906220842
11.2747440473011 71.7982616683056 4.5186056310487 -2.63015002395936 24.6597906220842
7.8638577955186 71.9877742295611 10.2106853537814 -2.78486473125109 6.35679995502601
9.61989828371379 72.3168792641859 5.10534267689069 -2.78486473125109 6.35679995502601
11.3233420819877 72.1077369341173 4.53808237945839 -2.78486473125109 6.35679995502601
7.85492577793524 71.9060082462581 10.7779456512137 -2.63015002395936 11.5538545613489
11.3175273926045 72.0707086354608 5.10534267689069 -2.63015002395936 11.5538545613489
0.072771463337956 3.12643405907661 -0.267805290633274 0 6.58575306335648
7.51151889736165 7.53817693603213 -2.72674477735697 -0.31146513441624 8.84056201846037
7.87090377093613 7.72678570240886 -2.45407029962127 -0.5191085573604 11.6713518845404
-7.68647090473221 13.1659544773023 -2.02801642815925 -1.76496909502536 6.1867091851763
-7.84333765789001 13.4346474258187 -2.06940451852984 -1.76496909502536 6.028492626978
0 19.3609182360105 -1.96228240227653 0.62293026883248 27.0352250946278
-0.150289499951901 19.375040034157 -1.81133760210142 0.726751980304561 16.6759734350749
0 19.6570411569017 -2.14731151216861 0.5191085573604 17.8608595849406
0 19.6570411569017 -2.14731151216861 0.62293026883248 103.755507029075
0 19.6731911107849 -1.99393211844228 0.726751980304561 63.7849615268477
0 19.9514210720623 -2.33720980916312 0.5191085573604 27.3620368246817
0 19.9690576832018 -2.18139582188558 0.62293026883248 165.809508997061
0 19.9690576832018 -2.18139582188558 0.726751980304561 89.5202104513
-0.9412005189468 20.2016620512858 -2.6902258740888 0.5191085573604 10.0686601192003
0.157173810725192 20.2625524477506 -2.37372871243129 0.5191085573604 10.0686601192003
0.1568667531578 20.2229671629309 -2.6902258740888 0.62293026883248 67.1841136719842
0.1568667531578 20.2229671629309 -2.6902258740888 0.726751980304561 32.6036968424494
0.158105431363038 20.3826552304513 -3.69571301073918 0.62293026883248 8.73933553791926
0.158326343290118 20.4111347811357 -3.53502983635921 0.726751980304561 5.27370794182398
