VERSION .7
FIELDS x y z velocity intensity
SIZE 4 4 4 4 4
TYPE F F F F F
COUNT 1 1 1 1 1
WIDTH 987
HEIGHT 1
VIEWPOINT 0 0 0 1 0 0 0
POINTS 987
DATA ascii
-3.487530 0.742981 9.707410 2.308800 6.330000
5.909740 -0.431655 8.475690 -8.791200 7.380000
6.518920 -0.151917 8.026790 -8.347200 7.020000
6.139480 0.906797 8.805190 2.486400 6.110000
6.155150 -0.482925 8.827670 -8.702400 5.140000
6.725890 -0.158247 8.413330 -8.347200 4.660000
6.415020 0.969127 10.172400 -9.057600 7.360000
7.255120 1.266350 9.556600 -8.702400 5.250000
6.560630 1.051880 10.583200 -9.057600 6.520000
7.514230 1.311580 9.897910 -8.702400 5.460000
6.599750 1.436300 11.022100 -9.146400 4.810000
6.465430 1.484170 11.594400 -9.235200 8.490000
6.079530 -1.235050 12.314400 -9.501600 12.980000
6.962130 -1.277510 11.833300 -9.146400 10.690000
6.269520 -1.273640 12.699200 -9.501600 12.530000
7.273540 -1.317440 12.147400 -9.146400 9.580000
6.540200 -1.176800 13.056800 -9.768000 8.770000
6.635390 -1.312240 12.995800 -9.412800 9.040000
7.622460 0.169910 12.510400 -9.146400 5.900000
5.760450 -1.130030 13.892200 -9.679200 8.340000
7.546810 0.174907 13.056300 -9.324000 6.900000
5.814730 -1.162320 14.334300 -9.679200 4.130000
6.626930 1.341640 13.961300 -9.501600 5.560000
6.700220 1.378910 14.401200 -9.590400 7.750000
-8.857810 1.820430 13.130700 -8.524800 4.170000
6.673510 1.617860 14.864800 -9.679200 11.300000
-8.791980 1.718620 13.706300 -8.613600 5.640000
6.966500 1.660440 15.202700 -9.679200 11.090000
-9.026250 1.712150 14.071500 -8.613600 5.350000
7.145130 1.703010 15.592500 -9.679200 7.800000
-9.368650 1.756050 14.360500 -8.613600 4.340000
6.725080 1.962940 16.218500 -9.768000 6.540000
-8.939420 1.160240 15.194100 -8.880000 7.010000
6.442810 1.899530 16.805100 -9.856800 4.520000
13.956900 -1.411840 11.434300 4.084800 4.730000
6.600390 1.830740 17.216200 -9.856800 4.580000
-8.884880 1.045250 16.225900 -9.057600 4.520000
-8.477710 1.069550 16.924900 -9.146400 3.520000
14.637400 -1.186620 11.991900 4.084800 5.900000
-8.723240 2.141390 17.669400 -9.235200 5.360000
13.841200 -2.080430 14.035000 -7.814400 2.830000
-8.952600 1.079940 18.134000 -9.235200 8.430000
14.183900 -1.455000 14.382500 3.374400 3.310000
14.142100 -2.125660 14.340100 -7.814400 4.650000
7.103500 0.495700 19.418800 -9.945600 6.350000
-9.143080 1.102910 18.519800 -9.235200 6.430000
14.536400 -2.726650 14.458700 3.374400 6.380000
7.251490 0.506027 19.823300 -9.945600 6.810000
14.244800 1.777320 15.483300 -7.992000 5.820000
6.967250 -0.812082 21.733800 -10.034400 10.530000
13.921600 1.429340 18.047300 -8.524800 8.660000
6.209420 -0.812082 21.962300 -9.945600 8.640000
7.218360 -1.384480 22.077300 -10.034400 12.870000
14.184300 1.456310 18.387800 -8.524800 11.170000
7.221930 -1.410110 22.528200 -10.034400 10.840000
14.447000 1.483270 18.728400 -8.524800 9.550000
6.877170 0.279851 23.128000 -10.123200 10.700000
17.547600 1.733620 16.472800 -7.370400 5.640000
4.749470 0.284849 24.096000 -10.212000 9.710000
14.645100 2.124260 19.602700 -8.613600 9.840000
5.012120 -1.564180 24.434400 -10.300800 6.970000
14.902000 2.161530 19.946600 -8.613600 7.060000
6.099840 -1.591150 24.629100 -10.212000 7.000000
6.340990 2.016920 24.983100 -10.212000 6.950000
6.983530 2.050540 25.257100 -10.123200 7.520000
6.904660 1.836950 25.742700 -10.123200 6.940000
7.014500 1.950320 26.152200 -10.123200 5.160000
17.849200 2.385130 20.886400 -10.123200 5.710000
7.117530 2.385130 26.536300 -10.123200 5.140000
-18.175400 1.342140 21.268000 -9.945600 6.650000
17.723500 1.779930 22.170000 -8.347200 8.430000
7.693370 0.334822 27.824300 -10.123200 10.670000
7.807880 0.430432 28.238500 -10.123200 16.890000
18.260500 1.833870 22.841900 -8.347200 8.040000
7.922700 0.436762 28.653800 -10.123200 17.920000
8.037520 0.443092 29.069000 -10.123200 14.600000
6.671820 -1.249050 31.596600 -10.300800 7.140000
7.192000 -1.265710 31.923800 -10.212000 7.090000
-13.395200 1.670420 29.836800 -13.586400 4.250000
7.530610 1.769260 32.264900 -10.212000 9.760000
7.639280 0.000000 32.730500 -10.212000 10.990000
-13.509600 1.792240 30.723300 -13.675200 6.610000
7.737220 0.000000 33.150100 -10.212000 11.220000
-13.440300 1.920330 31.216500 -13.675200 5.030000
7.364200 2.370250 33.592700 -10.300800 10.320000
-13.612300 0.917427 32.125900 -13.764000 8.490000
5.208470 -2.647500 34.847400 -10.300800 5.470000
5.271990 -2.679790 35.272400 -10.300800 6.400000
18.520700 1.890220 32.041600 -9.235200 6.320000
5.326070 -0.782545 37.099800 -10.300800 9.650000
18.733800 1.999030 32.410200 -9.235200 6.950000
-6.601870 2.373240 37.264600 -10.212000 14.860000
18.949100 2.022010 32.782700 -9.235200 6.350000
-6.458930 2.400210 37.726000 -10.212000 15.540000
19.161200 2.163410 33.149600 -9.235200 11.160000
-6.531500 2.427180 38.149900 -10.212000 11.890000
18.607200 2.090940 34.452500 -9.324000 9.370000
6.688700 -0.704937 39.068100 -10.300800 15.220000
18.811700 2.113920 34.831100 -9.324000 9.580000
8.052160 -0.340822 39.254900 -10.300800 18.250000
19.016200 2.136900 35.209700 -9.324000 9.710000
7.832990 0.000000 39.740000 -10.300800 16.830000
19.220700 2.159870 35.588200 -9.324000 9.140000
7.916200 0.221553 40.162200 -10.300800 10.550000
18.486300 2.716660 36.906000 -9.501600 6.160000
18.969500 2.615960 37.152800 -9.501600 7.710000
-24.206700 -2.993520 41.143400 -8.791200 9.120000
-27.127900 -5.362170 39.552900 -8.436000 6.110000
-27.370100 -5.410050 39.906000 -8.436000 9.450000
19.576500 2.221460 45.468400 -9.768000 9.590000
19.746700 2.240770 45.863800 -9.768000 11.290000
19.453300 2.436490 46.914500 -9.768000 5.560000
19.618200 2.457140 47.312000 -9.768000 13.310000
19.783100 2.477790 47.709600 -9.768000 10.930000
19.944900 2.659490 48.099800 -9.768000 13.390000
19.621700 2.212230 49.185100 -9.856800 17.380000
19.778500 2.395310 49.578300 -9.856800 16.770000
19.938000 2.414630 49.978100 -9.856800 10.170000
20.385500 2.601680 50.253700 -9.856800 11.510000
20.018600 2.642970 51.326100 -9.856800 13.170000
19.872600 2.835320 51.834900 -9.856800 21.340000
-11.682900 1.888710 56.955000 -11.544000 22.330000
20.542900 2.083830 54.844200 -9.945600 18.900000
20.694000 2.099150 55.247500 -9.945600 8.910000
10.821100 1.425140 58.453900 -10.300800 8.450000
20.845000 2.114480 55.650700 -9.945600 7.710000
10.446200 1.250270 58.963900 -10.300800 6.600000
10.521900 1.072730 59.391600 -10.300800 7.980000
7.472260 1.080390 60.286000 -10.389600 9.970000
10.683400 2.056590 62.401000 -10.389600 8.490000
20.884900 1.538740 60.692800 -10.034400 7.930000
21.025100 1.549060 61.100200 -10.034400 6.080000
21.165300 1.559390 61.507500 -10.034400 6.110000
21.305400 1.569720 61.914800 -10.034400 6.370000
20.613300 1.949390 63.045700 -10.034400 11.150000
20.745200 2.168510 63.449000 -10.034400 7.400000
20.879000 2.182500 63.858300 -10.034400 14.490000
21.014900 1.987370 64.273800 -10.034400 13.330000
21.142100 2.631340 64.662800 -10.034400 7.370000
21.275900 2.647990 65.072000 -10.034400 16.930000
21.409700 2.664650 65.481300 -10.034400 9.140000
21.159600 2.895680 66.005800 -10.034400 5.750000
21.035000 2.949640 67.399800 -10.123200 11.200000
21.027800 2.558820 68.771900 -10.123200 7.860000
21.153700 2.574150 69.183700 -10.123200 12.180000
21.277200 2.814530 69.587500 -10.123200 8.160000
21.403100 2.831190 69.999300 -10.123200 5.660000
21.531400 2.620110 70.419100 -10.123200 5.370000
21.610700 1.583080 72.676900 -10.123200 19.860000
21.733500 1.592070 73.089900 -10.123200 16.150000
21.854800 1.838220 73.497700 -10.123200 7.020000
21.665100 2.518270 74.432200 -10.123200 6.570000
21.787600 2.291170 74.852800 -10.123200 6.200000
21.907900 2.303830 75.266400 -10.123200 10.100000
22.542700 2.086070 84.046100 -10.212000 6.640000
22.655900 1.825940 84.468000 -10.212000 11.050000
22.767500 1.834930 84.884100 -10.212000 10.690000
22.880500 1.570780 85.305300 -10.212000 7.960000
21.937000 2.137710 86.430200 -10.212000 10.980000
22.044500 1.870910 86.853800 -10.212000 13.280000
22.150500 1.879910 87.271300 -10.212000 11.680000
-10.829000 -3.340260 93.250100 -10.300800 5.950000
-12.141200 -3.355580 93.522600 -10.300800 10.590000
-13.461100 -3.663890 93.765900 -10.300800 12.030000
-14.785500 -4.563260 93.963300 -10.212000 8.990000
22.712100 2.936750 97.310300 -10.212000 6.050000
22.812000 2.639020 97.738200 -10.212000 7.280000
22.909900 2.650340 98.157600 -10.212000 5.980000
23.003600 3.287750 98.559200 -10.212000 8.130000
23.675500 2.987380 98.852900 -10.212000 8.450000
23.775900 3.000040 99.271700 -10.212000 8.430000
23.301500 2.695650 99.835500 -10.212000 12.980000
23.399400 2.706980 100.255000 -10.212000 12.780000
23.504600 0.879541 100.706000 -10.212000 7.610000
22.550500 0.299847 127.288000 -10.389600 8.380000
24.346200 0.300846 127.395000 -10.300800 6.090000
19.236500 0.000000 128.702000 -10.389600 9.940000
-55.438600 -11.553000 120.981000 -9.324000 11.340000
-55.570200 -12.828400 121.268000 -9.324000 8.510000
-54.809600 -12.869700 122.084000 -9.324000 4.930000
-54.968600 -13.326100 122.439000 -9.324000 4.730000
-55.072300 -15.033200 122.670000 -9.324000 4.790000
-60.151700 -12.352100 160.589000 -9.679200 7.730000
-59.059800 -12.383000 161.451000 -9.679200 6.650000
-59.207500 -12.414000 161.855000 -9.679200 5.040000
-4.532350 2.658550 180.902000 -10.389600 4.660000
-4.543140 2.664880 181.332000 -10.389600 4.950000
-4.553930 2.671210 181.763000 -10.389600 6.820000
-4.619110 0.998153 184.365000 -10.389600 5.000000
-4.629900 1.000490 184.795000 -10.389600 5.890000
-4.640690 1.002820 185.226000 -10.389600 6.870000
-46.989900 -15.295000 189.730000 -10.034400 5.120000
-47.093200 -15.328600 190.147000 -10.034400 6.650000
-45.703300 -16.576200 190.826000 -10.034400 7.470000
4.838030 -1.298500 6.475800 -8.169600 5.950000
5.046680 -1.294420 6.864800 -8.258400 6.000000
4.912690 -0.849094 8.062950 -8.613600 7.140000
5.968540 -0.483544 7.349110 -7.903200 7.220000
5.070870 -0.887689 8.468780 -8.791200 8.770000
6.180430 -0.505523 7.731020 -7.992000 7.850000
5.648640 -0.271830 8.658390 -8.524800 9.060000
5.911150 -0.367735 8.477720 -8.347200 7.340000
6.159220 -0.283156 8.833500 -8.436000 8.250000
6.376440 -1.106960 9.145040 -8.347200 3.910000
6.694690 -1.149530 9.445460 -8.436000 4.490000
6.943270 1.317040 10.824200 -8.613600 8.460000
6.647840 1.402030 11.501000 -8.791200 8.960000
6.270180 -0.074628 12.280500 -9.146400 5.970000
6.948910 1.532050 11.810900 -8.791200 3.740000
6.466130 -0.076960 12.664200 -9.146400 7.800000
6.000380 -0.033983 13.365400 -9.235200 7.640000
6.176860 -0.034982 13.758500 -9.235200 12.760000
5.828050 -0.503655 14.367100 -9.412800 4.560000
7.156560 -0.503655 13.753700 -9.057600 11.890000
5.858420 -2.052900 14.685100 -9.412800 12.640000
13.700300 1.815520 9.561180 -6.038400 12.130000
6.016760 -2.108390 15.082000 -9.412800 9.940000
14.051600 1.862070 9.806340 -6.038400 7.110000
13.952600 -1.799950 10.686700 -6.393600 7.550000
14.402900 1.908630 10.051500 -6.038400 6.300000
14.292900 -1.843850 10.947300 -6.393600 3.840000
-9.386190 1.453690 15.405100 -8.524800 9.150000
13.539700 1.830740 12.515500 -7.104000 6.910000
-9.609670 1.488300 15.771900 -8.524800 9.140000
13.854600 1.873320 12.806500 -7.104000 8.940000
6.389670 1.522910 17.785400 -9.590400 5.310000
13.944400 1.856210 13.345400 -7.192800 6.120000
6.534880 1.557530 18.189600 -9.590400 8.420000
13.908300 1.876350 14.601100 -7.548000 7.200000
14.204300 1.916270 14.911800 -7.548000 8.320000
7.082240 1.579920 18.907700 -9.590400 5.820000
17.474900 1.614330 12.498300 -6.127200 7.440000
17.679900 1.578830 12.956400 -6.216000 4.670000
6.864190 0.881295 19.947700 -9.590400 9.370000
14.097700 1.849860 16.756300 -7.903200 8.560000
7.121820 0.899280 20.314000 -9.590400 5.780000
14.075700 1.886140 17.331500 -7.992000 8.390000
7.418380 1.239710 20.648800 -9.590400 5.340000
13.941700 1.886140 17.439500 -8.080800 11.490000
17.346400 1.499820 14.778800 -6.748800 6.290000
7.707910 1.358840 21.454700 -9.590400 10.090000
17.810300 1.671710 14.880400 -6.660000 11.720000
7.827130 1.570290 21.397000 -9.590400 12.060000
17.702500 1.688810 16.941900 -7.192800 7.750000
18.009100 1.795540 17.235400 -7.192800 12.290000
7.611440 -1.840340 23.279500 -9.679200 11.790000
5.804720 -1.872620 24.236500 -9.856800 14.900000
7.744980 -1.872620 23.687900 -9.590400 12.770000
5.904800 -1.904910 24.654400 -9.856800 12.670000
17.905000 0.980627 20.951700 -7.814400 5.410000
18.389000 0.995949 21.102800 -7.814400 6.690000
-8.542700 1.169060 26.648300 -9.501600 9.310000
18.671900 1.011270 21.427500 -7.814400 8.800000
-8.674130 1.187050 27.058300 -9.501600 9.660000
17.818000 1.806900 22.643900 -8.169600 5.720000
17.861700 1.833870 23.155100 -8.169600 8.680000
18.124400 1.860830 23.495600 -8.169600 8.070000
7.922300 0.528703 28.652300 -9.856800 13.380000
18.383400 1.980900 23.831400 -8.169600 12.020000
8.037120 0.536365 29.067600 -9.856800 16.660000
8.152340 0.449422 29.484300 -9.856800 12.330000
8.268030 0.071963 29.902700 -9.856800 5.670000
18.160500 1.774490 25.622400 -8.347200 13.900000
18.414600 1.626470 25.981000 -8.436000 17.950000
-6.826970 -0.567015 31.142000 -9.768000 17.610000
18.052500 1.548620 26.760600 -8.524800 9.600000
18.285000 1.847410 27.105400 -8.524800 13.190000
5.712430 -0.379798 32.244100 -9.945600 9.120000
-7.442900 -0.379798 31.889100 -9.768000 7.540000
18.522300 1.974160 27.457100 -8.524800 5.640000
18.755600 2.207290 27.802900 -8.524800 6.620000
8.214040 -11.945600 33.165600 -9.945600 8.390000
5.110890 -12.087800 34.194500 -9.945600 7.540000
18.785800 2.066180 31.373900 -8.791200 8.010000
6.779320 -12.013400 34.394300 -9.945600 8.930000
19.006800 2.090490 31.743000 -8.791200 8.360000
5.512530 -12.153100 35.032700 -9.945600 8.210000
18.629400 2.755220 33.407800 -8.880000 7.840000
7.193340 1.482210 37.640300 -9.945600 5.720000
18.838700 2.786180 33.783200 -8.880000 8.270000
-6.018580 2.187720 38.248600 -9.856800 14.070000
-6.308900 2.212030 38.637800 -9.856800 4.830000
-6.378230 2.236340 39.062400 -9.856800 7.080000
19.225900 1.940930 35.598000 -8.968800 8.450000
19.433300 1.835120 35.981900 -8.968800 8.180000
19.175000 2.943050 40.397000 -9.146400 5.780000
19.429600 2.066920 41.761300 -9.324000 6.070000
19.608400 2.230010 42.145600 -9.324000 4.540000
19.790000 2.250660 42.535800 -9.235200 7.460000
19.572400 1.996400 43.596200 -9.324000 9.010000
19.748800 2.014390 43.989000 -9.324000 9.140000
19.925100 2.032370 44.381800 -9.324000 11.160000
20.101400 2.050360 44.774500 -9.324000 6.870000
20.387000 2.428060 54.427900 -9.590400 7.800000
20.538000 2.446040 54.831100 -9.590400 7.880000
20.399400 3.170880 55.765600 -9.590400 13.040000
20.222200 3.193860 56.287500 -9.590400 8.580000
20.370100 3.077100 56.699400 -9.590400 5.270000
10.521900 1.072730 59.391600 -9.945600 6.730000
20.521700 2.723700 57.121300 -9.590400 6.080000
10.596500 1.268260 59.812300 -9.945600 6.630000
20.080800 2.723700 57.277800 -9.679200 8.760000
10.671600 1.277260 60.236500 -9.945600 10.790000
20.226000 2.553960 57.691700 -9.679200 8.690000
10.746800 1.286250 60.660700 -9.945600 7.460000
20.368400 2.571940 58.098000 -9.679200 9.050000
20.508100 2.781650 58.496400 -9.679200 6.840000
20.437700 3.548970 59.393200 -9.679200 6.810000
20.583700 3.230950 59.817400 -9.679200 12.070000
20.726900 3.055940 60.233500 -9.679200 9.090000
21.225700 2.481450 60.543200 -9.679200 6.050000
20.555000 1.349210 61.264600 -9.679200 6.570000
20.692000 1.358210 61.673100 -9.679200 9.340000
20.827600 1.569720 62.077200 -9.679200 14.400000
20.966100 1.376200 62.489900 -9.679200 16.370000
20.874400 2.598030 63.844300 -9.679200 6.910000
21.008200 2.614680 64.253500 -9.679200 17.900000
21.142100 2.631340 64.662800 -9.679200 14.960000
21.147900 3.699360 65.969400 -9.679200 7.120000
21.279300 3.722340 66.379100 -9.679200 7.280000
-3.280200 3.322530 73.967600 -10.034400 6.920000
-3.299270 3.341840 74.397600 -10.034400 5.920000
-31.808900 0.408123 68.369000 -8.968800 5.660000
-8.697920 0.874535 74.899100 -9.945600 5.700000
21.056100 3.147480 72.339700 -9.768000 12.100000
-8.745690 1.817570 75.310500 -9.945600 13.410000
-8.795380 1.827890 75.738400 -9.945600 10.240000
21.921800 2.672170 79.283700 -9.768000 7.440000
22.036500 2.686160 79.698800 -9.768000 5.670000
22.151300 2.700150 80.113900 -9.768000 5.460000
21.653800 1.228000 80.732000 -9.856800 9.510000
21.760300 2.208620 81.128900 -9.768000 5.800000
22.497800 2.481050 81.366900 -9.768000 8.660000
23.404700 2.333920 94.500300 -9.856800 8.830000
23.508200 2.344250 94.918400 -9.856800 12.200000
23.611800 2.354580 95.336600 -9.856800 11.130000
23.715300 2.364900 95.754700 -9.856800 6.800000
23.075600 2.605040 96.347900 -9.856800 4.930000
23.175900 2.616370 96.766900 -9.856800 5.890000
22.715400 2.395880 97.324400 -9.856800 5.640000
22.915400 1.481190 98.181000 -9.856800 6.160000
23.013300 1.487520 98.600500 -9.856800 5.720000
23.683200 1.493850 98.884900 -9.856800 5.280000
-25.769000 2.437190 98.343100 -9.679200 6.620000
-25.878200 2.447520 98.759800 -9.679200 8.570000
-25.987400 2.457850 99.176500 -9.679200 12.670000
19.235200 1.509200 128.693000 -10.034400 15.610000
20.292700 1.917950 128.962000 -10.034400 13.360000
20.360500 1.519190 129.393000 -10.034400 5.810000
-54.480200 -18.425900 123.898000 -9.057600 4.290000
-3.569920 1.002820 185.250000 -10.034400 9.300000
-3.578260 0.430780 185.683000 -10.034400 7.070000
4.964780 1.109630 7.483470 -8.524800 7.300000
5.572670 1.162470 7.580280 -8.347200 6.050000
5.283220 -0.352413 8.377670 -8.702400 8.810000
5.697380 1.070690 8.038370 -8.436000 9.680000
7.111300 -1.154450 6.805780 -7.281600 9.410000
5.512920 -0.367735 8.741920 -8.702400 5.780000
6.818290 -1.053630 7.703860 -7.725600 9.820000
7.282280 -1.204640 7.243340 -7.370400 7.810000
5.673410 -0.316460 9.151990 -8.791200 6.840000
6.576860 0.316460 8.525930 -8.258400 8.390000
7.388980 -1.130670 7.757020 -7.548000 9.680000
5.974810 -0.233864 9.474340 -8.791200 5.620000
6.839930 0.329118 8.866970 -8.258400 8.510000
6.128600 -0.242859 9.886270 -8.880000 10.410000
6.960230 0.341777 9.316400 -8.258400 6.000000
5.527120 1.479510 10.622200 -9.146400 5.160000
5.166410 1.532350 11.274400 -9.146400 6.390000
6.370160 0.809058 11.219300 -8.968800 6.460000
7.023430 4.039120 10.072900 -8.613600 4.100000
6.552300 1.525220 11.540100 -8.968800 6.600000
7.257550 4.173760 10.408700 -8.613600 7.260000
6.135050 1.574420 12.248000 -9.146400 5.800000
-8.819070 1.574420 10.482200 -7.725600 7.520000
6.164500 -0.820430 12.306800 -9.235200 4.340000
6.784840 1.623620 12.390700 -9.057600 7.300000
-9.065620 0.461684 10.945400 -7.725600 8.880000
6.369020 -1.007360 13.155300 -9.235200 9.470000
-9.338280 0.566237 11.274600 -7.725600 8.230000
6.553430 -1.130030 13.536100 -9.235200 10.800000
6.735680 -1.305790 13.912600 -9.235200 4.890000
5.530760 -1.389430 14.426200 -9.501600 11.310000
7.575160 -0.283507 14.025900 -9.057600 11.210000
13.455800 1.768970 9.161070 -6.038400 9.760000
5.684390 -1.428020 14.826900 -9.501600 9.850000
7.779900 -0.291170 14.405000 -9.057600 6.740000
13.810000 1.815520 9.402150 -6.038400 8.090000
-8.573780 1.487150 15.375200 -8.702400 7.340000
7.221580 1.105710 16.085600 -9.412800 5.130000
-8.793320 1.244380 15.768900 -8.702400 8.360000
-8.535850 1.159650 16.404500 -8.968800 7.450000
13.817200 0.556969 12.970800 -7.192800 6.340000
14.131200 0.569628 13.265600 -7.192800 4.860000
14.417200 1.362900 13.534200 -7.192800 8.020000
6.918920 1.557530 18.047000 -9.590400 7.710000
13.622700 1.668510 14.301300 -7.459200 5.260000
6.928070 1.668510 18.496100 -9.590400 5.400000
13.918900 1.704780 14.612100 -7.459200 9.070000
7.224120 1.704780 18.843100 -9.590400 5.520000
14.076000 2.086190 15.598700 -7.814400 6.170000
7.548520 1.076980 19.689200 -9.590400 4.620000
14.085000 2.128770 16.163800 -7.903200 6.510000
7.551690 0.832702 20.161000 -9.590400 6.500000
14.078700 2.171340 16.733700 -7.992000 5.270000
7.544860 0.781437 20.625300 -9.590400 4.880000
17.379900 -2.940640 14.520700 -6.837600 9.950000
7.119100 1.073710 21.218600 -9.679200 5.270000
17.673700 1.528120 15.057700 -6.837600 11.740000
7.254890 1.164900 21.623400 -9.679200 7.730000
18.001000 1.556420 15.336500 -6.837600 11.100000
17.568000 1.286730 16.492000 -7.192800 9.480000
6.138660 -0.421430 22.886800 -9.945600 8.880000
17.713000 1.461390 16.952000 -7.192800 12.240000
6.427320 -0.783463 23.245500 -9.945600 7.110000
17.605200 1.857450 18.842400 -7.636800 12.020000
6.200700 -1.777690 25.036400 -9.856800 12.150000
17.898700 1.888410 19.156400 -7.636800 12.210000
5.615200 -1.807320 25.614400 -9.945600 10.470000
17.795900 1.782810 20.422300 -7.903200 9.490000
18.082000 1.725990 20.750600 -7.903200 7.780000
-8.057620 1.065860 26.352700 -9.679200 10.190000
18.364500 1.752960 21.074800 -7.903200 8.060000
-8.183520 1.082510 26.764400 -9.679200 8.250000
-8.309420 1.099170 27.176200 -9.679200 10.490000
17.818000 1.806900 22.643900 -8.169600 4.260000
17.861700 1.833870 23.155100 -8.169600 7.370000
18.124400 1.860830 23.495600 -8.169600 9.230000
7.701230 0.528703 28.712500 -9.856800 8.680000
18.387000 1.887800 23.836100 -8.169600 6.840000
8.037120 0.536365 29.067600 -9.856800 7.690000
8.151930 0.544028 29.482800 -9.856800 11.490000
18.088000 2.228940 25.107700 -8.347200 7.480000
5.646540 0.551690 30.501600 -9.945600 11.970000
18.339200 2.259900 25.456400 -8.347200 4.960000
18.838200 2.290860 25.624800 -8.347200 17.810000
18.065300 2.150690 27.230100 -8.613600 13.500000
18.303000 2.178990 27.588400 -8.613600 11.120000
-8.395200 1.974160 32.038900 -9.768000 4.870000
18.540700 2.207290 27.946600 -8.613600 6.430000
-7.373700 1.999800 32.730300 -9.856800 11.170000
-7.276490 2.025440 33.192600 -9.856800 6.750000
-6.911890 2.263880 33.696000 -9.856800 13.070000
-6.733730 2.399880 34.163000 -9.856800 5.370000
-6.619520 2.211430 34.637700 -9.856800 7.560000
18.546600 1.953080 31.523100 -8.880000 9.680000
18.764800 1.976060 31.894000 -8.880000 7.010000
18.983000 1.999030 32.264900 -8.880000 7.460000
8.017120 1.912200 36.571100 -9.945600 7.050000
18.653400 1.956150 33.450800 -9.057600 13.020000
7.697260 1.837690 37.524700 -9.945600 5.130000
18.862900 1.978130 33.826600 -9.057600 6.600000
-6.239570 2.187720 38.213200 -9.945600 12.810000
-6.085450 2.212030 38.673600 -9.945600 7.100000
-6.152320 2.236340 39.098600 -9.945600 8.100000
-6.220250 2.136900 39.530300 -9.945600 6.210000
18.931800 2.660060 35.709000 -9.146400 8.180000
-6.825460 2.159870 39.866900 -9.945600 7.060000
19.133200 2.688360 36.088900 -9.146400 9.970000
8.286880 3.227070 40.399200 -9.945600 12.640000
8.373200 3.260690 40.820000 -10.034400 12.180000
19.135700 1.834530 39.524900 -9.235200 10.060000
19.320700 1.989650 39.907100 -9.235200 7.200000
19.508300 2.008970 40.294500 -9.235200 8.740000
19.695900 2.028290 40.682000 -9.235200 7.490000
19.527900 2.939580 42.614800 -9.324000 12.830000
19.409200 2.014390 44.139900 -9.324000 6.650000
19.756200 1.622890 45.885700 -9.501600 8.500000
20.087500 2.214990 53.628200 -9.679200 6.160000
20.236000 2.410070 54.024700 -9.679200 9.070000
20.387000 2.428060 54.427900 -9.679200 7.530000
20.267600 2.099150 55.405300 -9.679200 8.800000
-11.155000 2.114480 58.370300 -10.922400 8.760000
20.415500 2.114480 55.809700 -9.679200 5.140000
-10.896900 1.944670 58.863400 -10.922400 8.930000
20.563400 2.129800 56.214200 -9.679200 9.760000
10.522500 0.886183 59.394600 -10.034400 6.120000
20.711400 2.145120 56.618600 -9.679200 7.190000
10.597600 0.892513 59.818800 -10.034400 7.570000
10.324400 0.898843 60.303800 -10.034400 8.130000
20.672600 2.364870 57.541300 -9.679200 8.020000
9.929130 0.714620 60.809300 -10.034400 6.450000
20.818200 2.381530 57.946500 -9.679200 5.220000
20.963700 2.398180 58.351700 -9.679200 9.960000
21.106700 2.607910 58.749600 -9.679200 9.920000
10.613300 1.507750 61.991400 -10.034400 7.340000
20.592600 2.643880 59.843200 -9.679200 15.450000
20.729900 2.858920 60.242200 -9.679200 12.310000
10.833800 -0.744604 63.279100 -10.034400 11.040000
20.693300 1.157020 61.676800 -9.768000 13.180000
20.830300 1.164680 62.085200 -9.768000 13.570000
20.967300 1.172340 62.493700 -9.768000 8.460000
21.365900 2.598030 63.681500 -9.768000 15.390000
21.008200 2.614680 64.253500 -9.768000 5.850000
21.637100 2.841730 64.489900 -9.768000 12.980000
18.754300 1.225980 66.332900 -8.524800 5.690000
18.485400 1.233640 66.855400 -8.524800 8.520000
20.780100 2.088640 67.961900 -9.768000 8.960000
21.032000 2.113950 68.785700 -9.768000 8.580000
20.746700 2.139270 69.771400 -9.856800 6.880000
20.869500 2.151930 70.184300 -9.768000 7.930000
20.992300 2.164590 70.597100 -9.768000 6.310000
21.113000 2.406350 71.003200 -9.768000 10.770000
22.041400 1.982100 72.087000 -9.768000 12.510000
21.810900 2.151990 78.882900 -9.856800 8.400000
21.921800 2.672170 79.283700 -9.856800 10.100000
22.036500 2.686160 79.698800 -9.856800 7.390000
22.151300 2.700150 80.113900 -9.856800 6.040000
22.271400 2.003450 80.548300 -9.856800 10.860000
22.386200 2.013780 80.963500 -9.856800 6.420000
22.501000 2.024110 81.378700 -9.856800 7.040000
-1.750850 2.951980 90.855100 -10.123200 6.170000
23.106900 1.379910 91.039400 -9.856800 11.710000
23.210300 1.969850 91.447000 -9.856800 16.010000
22.888400 1.987840 92.416000 -9.945600 15.690000
22.993400 1.701040 92.839700 -9.945600 10.920000
23.097000 1.708710 93.257900 -9.945600 8.550000
23.408900 1.430550 94.517200 -9.945600 10.620000
23.512400 1.436880 94.935400 -9.945600 5.090000
23.616000 1.443210 95.353700 -9.945600 5.810000
24.233100 2.416540 97.845400 -9.945600 7.020000
24.336700 2.426860 98.263600 -9.945600 6.760000
24.440300 2.437190 98.681700 -9.945600 9.610000
-26.452100 1.815980 98.621300 -9.768000 9.670000
20.900400 1.103090 128.001000 -10.034400 9.150000
20.969900 1.106760 128.426000 -10.034400 7.670000
21.040000 0.302845 128.856000 -10.034400 11.530000
21.109400 -0.303845 129.281000 -10.034400 15.950000
-55.072300 -15.033200 122.670000 -9.057600 11.070000
-54.297600 -15.081100 123.482000 -9.057600 7.770000
-54.488500 -14.710400 123.917000 -9.057600 9.180000
-55.385800 -19.262700 123.368000 -9.057600 11.790000
-54.605000 -19.323500 124.182000 -9.057600 10.100000
-3.569840 1.575850 185.246000 -10.123200 4.540000
-3.578140 1.579510 185.677000 -10.123200 4.010000
-3.586440 1.583170 186.108000 -10.123200 6.790000
6.304020 -0.742591 7.611160 -7.992000 5.430000
5.582450 -0.215874 8.702780 -8.791200 2.440000
6.572140 0.516206 8.519820 -8.258400 10.660000
5.815050 -0.224869 9.065390 -8.791200 11.630000
6.766530 0.536854 8.913020 -8.347200 4.560000
5.063050 -1.244790 9.916260 -9.146400 10.270000
6.955240 0.557502 9.309720 -8.347200 7.080000
5.337000 -1.292670 10.256800 -9.057600 7.950000
6.888480 0.717877 9.879400 -8.613600 7.960000
5.449140 -1.405420 10.672400 -9.146400 8.450000
6.734980 0.743515 10.499500 -8.702400 2.200000
6.967220 0.769153 10.861600 -8.702400 6.100000
7.086010 1.402030 11.236400 -8.791200 8.270000
7.314590 1.447260 11.598800 -8.791200 11.890000
6.085470 -1.075690 12.326400 -9.324000 11.240000
6.278550 -1.021600 12.717500 -9.324000 6.850000
6.646280 -0.933851 12.536100 -9.146400 8.170000
6.266080 -1.052560 13.201100 -9.324000 11.840000
6.947030 -0.962150 12.862900 -9.146400 10.910000
5.564230 -1.397280 13.947700 -9.590400 11.170000
7.151360 -0.990448 13.241200 -9.146400 11.770000
5.724830 -1.389430 14.350300 -9.590400 9.840000
6.880940 2.140060 13.737100 -9.324000 11.330000
5.770000 -1.428020 14.793800 -9.590400 9.520000
7.441510 -1.342060 14.036100 -9.235200 10.630000
6.454350 -1.315240 14.990900 -9.501600 6.000000
6.625420 1.311000 15.388200 -9.501600 7.360000
-8.463230 1.809070 14.905700 -8.702400 4.860000
6.794050 1.384470 15.779900 -9.501600 5.970000
-8.674810 1.854300 15.278400 -8.702400 5.810000
7.084690 1.527980 16.111900 -9.501600 12.530000
-8.899830 1.621000 15.674700 -8.702400 9.160000
-9.229830 1.773710 15.968000 -8.702400 10.700000
6.916710 1.632230 18.041200 -9.590400 5.820000
7.070420 1.668510 18.442200 -9.590400 6.230000
14.016400 1.938700 14.489300 -7.636800 5.190000
14.200100 1.979950 14.907400 -7.636800 4.160000
7.118760 1.582040 19.814800 -9.679200 3.820000
6.848820 0.766115 20.413100 -9.768000 4.450000
13.961600 1.968350 16.856500 -8.080800 9.880000
17.512000 1.849860 13.147200 -6.393600 9.650000
6.824330 0.849356 20.872200 -9.768000 9.510000
14.235300 2.006950 17.187000 -8.080800 9.660000
17.855300 1.886140 13.405000 -6.393600 11.990000
6.823930 1.540660 21.286700 -9.768000 11.770000
14.203100 2.045550 17.766500 -8.080800 4.540000
17.480500 1.640750 14.604800 -6.837600 10.970000
7.703320 1.570290 21.441900 -9.768000 10.780000
17.814200 1.599920 14.883600 -6.837600 10.110000
7.691560 -0.971223 21.939100 -9.768000 10.250000
18.144100 1.629550 15.159200 -6.837600 10.970000
6.445580 -0.622944 22.797600 -9.856800 11.300000
6.563160 -0.578317 23.213500 -9.856800 7.330000
6.824060 -2.653460 23.444600 -9.856800 13.430000
14.414600 1.795540 20.337300 -8.524800 8.580000
7.903140 -2.700010 23.555500 -9.856800 9.980000
14.663100 1.826490 20.688000 -8.524800 9.800000
17.811500 -3.487550 18.412400 -7.636800 9.550000
18.393800 1.589580 19.310000 -7.636800 10.340000
-8.207700 1.236290 26.298800 -9.679200 7.710000
18.023900 0.822796 21.422900 -7.992000 6.280000
-8.335940 1.255610 26.709800 -9.679200 5.060000
-8.096470 1.362780 27.228500 -9.679200 6.490000
7.701930 0.344817 28.715100 -9.945600 6.650000
7.813560 0.349814 29.131300 -9.945600 12.250000
17.840600 2.103600 24.764300 -8.436000 5.470000
7.925180 0.354811 29.547500 -9.945600 13.210000
18.095700 2.037490 25.118400 -8.436000 9.650000
8.037220 0.167914 29.965200 -9.945600 18.340000
7.768740 0.374801 31.367600 -9.945600 6.440000
7.872830 0.075961 31.787900 -9.945600 9.710000
7.625740 1.999800 32.672500 -10.034400 10.290000
-7.279030 1.815210 33.204200 -9.945600 10.720000
-6.656890 1.838190 33.773200 -9.945600 8.480000
-6.542320 1.861170 34.233700 -9.945600 6.100000
-6.490390 2.790070 35.060000 -9.945600 11.610000
5.129070 2.712070 35.727600 -10.123200 5.370000
18.570200 1.846260 31.013900 -8.968800 12.380000
5.399030 2.744360 36.122300 -10.034400 7.360000
18.791300 1.868240 31.383100 -8.968800 10.180000
-6.529260 2.114800 36.854700 -9.945600 7.350000
-6.604310 2.139110 37.278300 -9.945600 9.870000
8.211990 0.207560 37.460000 -10.034400 8.380000
-6.532730 2.307460 38.157100 -9.945600 5.800000
-6.307770 2.333100 38.630800 -9.945600 8.430000
-6.378230 2.236340 39.062400 -9.945600 7.960000
-6.447560 2.260650 39.487000 -9.945600 4.950000
18.749400 1.920290 35.364900 -9.146400 6.740000
18.948100 2.066050 35.739700 -9.146400 6.730000
18.987700 1.873750 37.188300 -9.324000 11.990000
19.183400 1.893070 37.571700 -9.324000 8.230000
19.379200 1.912380 37.955100 -9.324000 7.420000
18.640700 2.085470 39.271400 -9.412800 9.330000
19.133100 1.970340 39.519600 -9.412800 10.920000
19.320700 1.989650 39.907100 -9.412800 5.250000
19.508300 2.008970 40.294500 -9.412800 5.760000
-22.467400 -4.206880 41.030700 -8.791200 13.190000
-22.667100 -4.391450 41.395400 -8.791200 5.130000
19.564000 2.439700 43.577500 -9.501600 9.550000
19.740300 2.461680 43.970100 -9.501600 5.790000
19.916500 2.483660 44.362700 -9.501600 5.920000
-25.224400 -1.443060 42.126900 -8.613600 5.170000
-25.073900 -1.321870 49.108500 -8.968800 8.380000
-24.887600 -1.332190 49.685500 -9.057600 7.250000
-26.431700 -1.483740 49.855100 -8.880000 8.880000
-25.660100 -1.483740 50.256600 -8.968800 7.650000
20.089800 2.037870 53.634400 -9.679200 6.470000
20.240800 2.053190 54.037700 -9.679200 6.460000
20.391900 2.068510 54.440900 -9.679200 6.670000
20.542900 2.083830 54.844200 -9.679200 6.480000
20.260000 2.646430 55.384600 -9.679200 7.020000
-11.155000 2.114480 58.370300 -11.100000 7.010000
20.410600 2.482010 55.796400 -9.679200 5.750000
-11.235800 2.129800 58.793200 -11.100000 11.210000
20.558500 2.500000 56.200700 -9.679200 6.250000
10.521900 1.072730 59.391600 -10.034400 10.810000
20.709000 2.331560 56.612100 -9.679200 5.660000
10.597100 1.080390 59.815800 -10.034400 6.650000
10.672300 1.088060 60.240100 -10.034400 5.450000
20.228500 2.364870 57.698900 -9.679200 6.460000
20.373300 2.191090 58.111900 -9.679200 6.180000
20.513400 2.398180 58.511600 -9.679200 17.030000
10.134600 1.653630 62.067700 -10.034400 9.120000
20.597500 2.252380 59.857500 -9.768000 7.220000
20.737600 2.267700 60.264700 -9.768000 7.440000
20.693300 1.157020 61.676800 -9.768000 13.340000
20.829100 1.367200 62.081500 -9.768000 10.630000
20.966100 1.376200 62.489900 -9.768000 16.370000
20.862800 3.428760 63.808800 -9.768000 15.070000
20.996600 3.450740 64.217900 -9.768000 8.750000
10.783300 0.590026 68.529200 -10.123200 9.970000
20.270000 2.681300 66.293400 -9.856800 11.520000
10.850600 0.377806 68.956300 -10.034400 7.640000
20.395900 2.697950 66.705200 -9.856800 9.660000
10.917500 0.380138 69.382000 -10.034400 7.040000
21.175700 1.703970 67.850400 -9.856800 7.560000
21.305500 1.493130 68.266400 -9.856800 8.410000
21.432400 1.724620 68.672900 -9.856800 8.370000
21.281800 2.364380 69.602800 -9.856800 7.420000
21.407800 2.378370 70.014700 -9.856800 8.680000
21.533700 2.392360 70.426500 -9.856800 5.550000
21.356300 2.666080 71.821300 -9.856800 8.940000
21.479000 2.681400 72.234000 -9.856800 8.830000
-30.693500 -1.592070 69.802500 -9.146400 8.070000
-30.866900 -1.601070 70.196800 -9.146400 8.790000
21.907900 2.303830 75.266400 -9.856800 8.530000
22.030200 2.072710 75.686400 -9.856800 9.260000
22.150600 2.084030 76.100000 -9.856800 5.450000
22.272300 1.910510 76.518100 -9.856800 8.460000
21.809100 2.405100 78.876100 -9.856800 10.990000
21.923800 2.417750 79.291300 -9.856800 9.050000
22.040500 2.174640 79.713200 -9.856800 6.010000
-28.421100 -0.703633 77.694700 -9.412800 9.610000
22.155300 2.185970 80.128400 -9.945600 9.520000
22.270100 2.197290 80.543600 -9.945600 6.890000
22.384900 2.208620 80.958800 -9.856800 7.340000
22.499700 2.219950 81.373900 -9.856800 9.150000
22.155000 0.487416 87.289100 -9.945600 11.800000
22.261000 0.489748 87.706700 -9.945600 6.880000
23.000900 1.373580 90.621800 -9.945600 5.640000
23.106900 1.379910 91.039400 -9.945600 8.200000
23.212900 1.386240 91.457000 -9.945600 6.710000
23.318900 1.392570 91.874700 -9.945600 11.000000
22.892600 0.809911 92.432800 -9.945600 10.130000
22.996200 0.813576 92.851000 -9.945600 6.570000
23.098100 1.411560 93.262600 -9.945600 5.950000
24.058200 2.041810 94.787500 -9.945600 5.120000
24.164200 2.050810 95.205100 -9.945600 8.990000
20.294100 1.110420 128.971000 -10.123200 11.620000
20.361100 1.114090 129.397000 -10.123200 14.470000
20.427400 1.524190 129.818000 -10.123200 13.070000
-54.269100 -11.389400 123.418000 -9.146400 6.740000
-54.316100 -14.663800 123.525000 -9.146400 7.680000
-56.251900 -17.532900 122.756000 -9.057600 12.260000
-55.361100 -19.680900 123.313000 -9.057600 12.500000
-3.569840 1.575850 185.246000 -10.123200 9.510000
-3.578140 1.579510 185.677000 -10.123200 7.460000
6.591950 -1.184890 7.305080 -7.814400 3.570000
6.243250 -0.583393 8.223750 -8.347200 9.100000
6.804800 -1.236400 7.688610 -7.814400 3.650000
5.741260 -0.449640 9.103990 -8.791200 7.390000
6.510330 0.349760 8.575550 -8.347200 10.600000
5.824250 -0.467626 9.559060 -8.880000 5.830000
6.405960 -0.268504 9.187370 -8.613600 9.210000
6.701100 0.398380 8.969550 -8.436000 8.500000
6.652340 -0.278831 9.540730 -8.613600 10.000000
6.266620 0.717877 10.285100 -8.880000 3.840000
6.898320 -0.317135 9.893520 -8.613600 7.040000
6.490430 0.743515 10.652400 -8.968800 8.990000
6.905870 -0.328461 10.409300 -8.702400 6.700000
6.762180 1.545510 10.908300 -8.968800 8.630000
6.548120 1.597020 11.532800 -9.057600 4.550000
6.323110 1.574420 12.152000 -9.235200 6.850000
5.821400 -0.417727 12.966800 -9.412800 10.800000
5.998320 -0.385093 13.360800 -9.412800 12.730000
6.958430 -0.443044 13.372900 -9.412800 11.190000
7.161470 -0.582891 13.259900 -9.146400 8.330000
5.934010 -0.791253 14.310700 -9.590400 8.700000
7.078030 -2.101790 14.130600 -9.501600 6.530000
7.051680 -0.665468 14.283500 -9.324000 6.020000
6.647790 -2.158600 14.807500 -9.590400 5.860000
7.421890 -1.315240 14.536200 -9.235200 5.310000
6.628500 1.207340 15.395300 -9.590400 9.430000
-8.259370 1.608710 14.546700 -8.702400 6.910000
6.798460 1.238300 15.790100 -9.590400 10.080000
7.255030 1.131940 15.593700 -9.324000 8.930000
-8.471150 1.649960 14.919700 -8.702400 7.410000
7.436400 1.160240 15.983500 -9.324000 8.590000
-8.532690 2.274840 15.301600 -8.791200 6.620000
-8.925190 1.527980 15.169900 -8.613600 5.950000
6.598330 1.887760 17.210800 -9.768000 3.870000
-8.607900 1.069550 16.859000 -8.968800 4.640000
-8.803530 1.093860 17.242200 -8.968800 8.360000
6.697040 2.043620 19.462000 -9.768000 5.730000
7.103900 2.086190 19.773400 -9.768000 3.320000
13.713300 0.506027 16.046700 -7.992000 4.780000
7.123520 0.766115 20.318800 -9.768000 7.550000
13.993100 0.516354 16.374100 -7.992000 7.360000
7.262240 1.053060 20.714500 -9.768000 7.200000
13.798500 1.968350 16.990200 -8.169600 10.180000
7.276510 1.402370 21.145900 -9.768000 7.950000
14.235300 2.006950 17.187000 -8.169600 8.520000
17.488000 1.499820 14.611000 -6.926400 9.450000
6.197290 1.640750 21.919400 -9.856800 7.610000
17.817900 1.528120 14.886700 -6.926400 5.280000
6.324210 -1.043120 22.368400 -9.856800 4.960000
17.913200 7.248210 13.720300 -7.015200 8.570000
8.128800 -1.336940 22.221600 -9.856800 9.020000
7.966160 -1.584720 22.722300 -9.768000 11.080000
8.097110 -2.067500 23.095900 -9.768000 6.620000
6.640080 -1.949690 24.015000 -9.945600 14.480000
8.107260 -1.949690 23.560200 -9.768000 14.450000
6.566080 -1.983300 24.480300 -9.945600 11.150000
17.616300 1.618120 18.854100 -7.725600 6.070000
17.909900 1.645090 19.168400 -7.725600 8.950000
6.209100 1.754510 25.924900 -9.945600 9.110000
-7.851120 1.321490 26.403400 -9.679200 10.100000
-7.974940 1.255610 26.819800 -9.679200 7.750000
-8.829210 1.274920 27.004100 -9.590400 7.670000
17.595500 1.896000 22.810000 -8.258400 6.430000
17.858100 1.924300 23.150500 -8.258400 8.040000
7.701620 0.436762 28.714000 -9.945600 10.200000
18.120800 1.952600 23.490900 -8.258400 6.260000
7.813240 0.443092 29.130100 -9.945600 5.620000
18.383400 1.980900 23.831400 -8.258400 13.960000
7.924860 0.449422 29.546300 -9.945600 12.750000
8.036800 0.359809 29.963600 -9.945600 13.020000
5.452420 -0.674607 31.847100 -10.034400 7.810000
6.579070 -0.683602 32.073500 -10.034400 5.890000
5.150720 1.692400 32.733300 -10.123200 5.760000
7.827110 -0.597664 32.680600 -10.034400 7.810000
6.582000 -0.605326 33.393200 -10.034400 6.710000
-8.021000 1.545360 33.490200 -9.856800 7.820000
-6.532730 2.307460 38.157100 -10.034400 9.210000
-6.307770 2.333100 38.630800 -10.034400 7.730000
-6.377080 2.358740 39.055400 -10.034400 9.200000
18.542700 2.113920 34.975000 -9.235200 8.360000
-6.446400 2.384380 39.479900 -10.034400 7.900000
18.744300 2.136900 35.355200 -9.235200 8.850000
-6.515720 2.410010 39.904400 -10.034400 13.030000
18.948100 2.066050 35.739700 -9.235200 13.750000
19.149700 2.088030 36.119900 -9.235200 10.860000
19.049000 2.844300 36.609100 -9.235200 6.620000
18.961800 2.873930 37.137700 -9.235200 5.750000
19.360600 2.669890 37.918800 -9.235200 5.750000
19.266700 0.388464 41.411200 -9.412800 6.870000
19.447900 0.534716 41.800500 -9.412800 7.140000
-24.247200 -1.146310 41.212300 -8.613600 9.020000
-24.785500 -1.156630 41.393800 -8.613600 8.150000
-24.974100 -2.746810 41.708900 -8.613600 9.830000
-25.195100 -2.771120 42.078000 -8.613600 7.890000
-25.088200 -2.795420 42.641700 -8.613600 9.000000
20.732600 2.684270 51.969800 -9.679200 14.300000
20.087500 2.214990 53.628200 -9.679200 6.150000
20.238500 2.231640 54.031500 -9.679200 10.130000
20.389600 2.248290 54.434700 -9.679200 6.820000
20.540600 2.264950 54.837900 -9.679200 7.200000
20.421400 1.563020 55.825800 -9.679200 8.540000
20.569400 1.574350 56.230300 -9.679200 17.250000
10.521300 1.259270 59.388100 -10.123200 16.500000
10.597100 1.080390 59.815800 -10.123200 10.870000
10.671600 1.277260 60.236500 -10.123200 6.740000
10.395900 1.286250 60.721800 -10.123200 7.270000
20.812800 2.762330 57.931500 -9.768000 7.360000
9.170370 1.295250 61.354500 -10.123200 13.180000
20.958300 2.781650 58.336600 -9.768000 16.330000
9.427160 0.000000 63.072600 -10.123200 5.850000
21.071500 3.252930 60.103500 -9.768000 7.660000
20.693300 1.157020 61.676800 -9.768000 5.890000
20.829100 1.367200 62.081500 -9.768000 7.520000
20.966100 1.376200 62.489900 -9.768000 7.140000
20.507400 2.390280 63.971200 -9.856800 6.150000
21.010700 2.405600 64.260900 -9.856800 5.790000
20.770300 2.420920 64.791400 -9.856800 10.160000
20.532800 1.812200 65.790500 -9.856800 12.750000
10.782600 1.019110 68.524300 -10.123200 10.920000
20.657400 2.252460 66.189700 -9.856800 8.090000
10.849000 1.241300 68.946400 -10.123200 10.930000
20.785700 2.266450 66.600800 -9.856800 9.610000
20.911800 2.497530 67.004900 -9.856800 6.750000
20.780100 2.088640 67.961900 -9.856800 6.650000
20.906100 2.101290 68.373800 -9.856800 12.660000
21.032000 2.113950 68.785700 -9.856800 7.090000
21.153700 2.574150 69.183700 -9.856800 13.290000
21.279600 2.589470 69.595500 -9.856800 9.440000
20.867500 2.378370 70.177600 -9.856800 11.790000
21.533700 2.392360 70.426500 -9.856800 14.480000
21.657300 2.635430 70.830900 -9.856800 12.770000
21.424400 2.490290 73.605100 -9.856800 6.130000
21.544800 2.504280 74.018600 -9.856800 6.930000
22.095000 2.518270 74.305700 -9.856800 7.480000
21.785500 2.532260 74.845700 -9.856800 7.760000
21.329000 2.061380 75.439500 -9.945600 7.180000
21.446200 2.072710 75.854000 -9.945600 10.200000
21.563400 2.084030 76.268500 -9.945600 13.000000
21.683400 1.664030 76.692800 -9.945600 11.640000
21.804700 2.911240 78.860300 -9.945600 6.240000
21.923800 2.417750 79.291300 -9.945600 8.540000
22.038600 2.430410 79.706400 -9.945600 12.460000
21.535200 2.443070 80.289900 -9.945600 11.790000
22.715700 1.316620 86.690800 -9.945600 7.320000
22.825000 1.322950 87.107600 -9.945600 6.790000
22.258900 1.329280 87.698500 -9.945600 5.790000
22.365800 1.054440 88.119700 -9.945600 6.860000
22.577800 1.064430 88.955000 -9.945600 5.390000
22.681700 1.639740 89.364500 -9.945600 8.820000
22.787700 1.647410 89.782100 -9.945600 13.450000
22.476600 1.373580 90.753300 -9.945600 13.700000
22.580200 1.379910 91.171500 -9.945600 9.500000
22.683800 1.386240 91.589700 -10.034400 5.900000
18.553400 -0.302845 129.237000 -10.123200 6.710000
-54.179000 -13.785000 123.213000 -9.146400 5.080000
-54.351600 -13.828900 123.605000 -9.146400 8.080000
-54.161800 -20.868100 123.174000 -9.057600 6.510000
-53.617800 -16.088600 129.307000 -9.146400 5.610000
-53.747600 -16.897500 129.620000 -9.235200 6.540000
-4.640750 0.429781 185.228000 -10.212000 4.480000
-4.651490 1.005150 185.657000 -10.212000 5.320000
-3.586520 1.007480 186.112000 -10.212000 3.890000
-45.855300 -18.933300 191.460000 -9.768000 5.170000
-45.955200 -18.974600 191.877000 -9.768000 6.760000
-2.503410 0.984014 8.187460 2.397600 11.180000
-2.628580 1.033210 8.596840 2.397600 12.050000
-3.550110 0.819890 8.751630 2.308800 9.900000
6.032620 -0.651820 7.283490 -8.258400 3.330000
6.304020 -0.742591 7.611160 -8.258400 4.950000
5.372350 -0.583393 8.817380 -9.057600 8.390000
5.596200 -0.607701 9.184770 -9.057600 9.490000
6.508900 -0.416351 8.573660 -8.524800 8.120000
6.748930 0.968960 8.889840 -8.524800 6.550000
5.325540 -1.498060 10.234800 -9.235200 5.760000
6.623690 -1.113720 9.499650 -8.702400 6.900000
5.604430 -1.553550 10.571000 -9.235200 3.750000
6.818270 -0.503597 9.941160 -8.791200 4.810000
5.804580 -1.609030 10.948500 -9.235200 4.490000
6.633050 1.234690 10.518100 -8.968800 5.430000
6.893540 0.309813 10.931200 -8.968800 8.910000
7.036540 0.278838 11.350900 -8.968800 8.350000
6.055660 1.733180 12.266100 -9.412800 5.030000
6.286630 -0.725316 12.733900 -9.412800 8.840000
5.610420 -0.305822 13.530300 -9.590400 8.250000
7.021270 -0.962150 12.822500 -9.324000 8.340000
5.775430 -0.314817 13.928300 -9.590400 11.630000
7.230580 -0.897346 13.204700 -9.324000 9.460000
5.719810 -1.532710 14.337700 -9.679200 7.540000
7.645640 -0.922984 13.465800 -9.235200 12.030000
5.871020 1.771430 14.716700 -9.679200 9.280000
6.664800 1.819310 14.845400 -9.590400 11.460000
-9.515150 1.768970 13.207800 -8.258400 5.980000
6.745420 1.259180 15.340300 -9.590400 8.640000
7.041040 1.238300 15.683400 -9.590400 7.960000
7.218640 1.214750 16.079000 -9.590400 9.710000
-8.953100 0.628214 15.217300 -8.791200 10.990000
14.078200 -1.487150 10.569300 4.528800 6.980000
7.521440 1.244380 16.413700 -9.590400 9.940000
-9.291340 0.643536 15.517300 -8.791200 7.680000
-9.512560 0.658859 15.886800 -8.791200 4.760000
-8.139540 1.915890 17.494800 -9.235200 7.460000
-8.216900 1.958470 17.931400 -9.324000 8.820000
-8.406870 1.704780 18.346000 -9.324000 6.480000
-8.150260 1.741050 18.929800 -9.412800 8.750000
14.504300 -1.891160 15.226800 3.285600 4.110000
6.833890 1.614330 20.368600 -9.945600 2.650000
14.800300 -1.929760 15.537500 3.285600 3.590000
7.686810 1.646620 20.521700 -9.856800 3.190000
7.842660 1.471520 20.937800 -9.856800 5.880000
13.796500 2.075960 17.533200 -8.347200 7.030000
7.252780 1.288330 21.617100 -9.945600 4.510000
14.057700 2.186200 17.865100 -8.347200 4.440000
14.322900 2.227450 18.202200 -8.347200 8.250000
7.232240 -0.622944 22.560400 -9.945600 8.290000
7.363740 -0.634270 22.970600 -9.945600 9.620000
5.680280 -0.212556 24.337200 -10.123200 6.790000
14.385500 2.392440 20.296400 -8.702400 15.530000
-14.414600 1.795540 20.337300 -11.988000 13.370000
14.633600 2.433690 20.646300 -8.702400 9.540000
-14.663100 1.826490 20.688000 -11.988000 9.550000
17.622700 1.458480 18.861100 -7.814400 6.880000
-14.908200 1.937200 21.033800 -11.988000 9.570000
5.859470 5.128920 25.104900 -10.123200 11.010000
17.768100 1.482790 19.313000 -7.903200 12.050000
5.822670 -3.440000 25.845600 -10.123200 4.980000
6.309250 1.782810 26.343100 -10.212000 8.380000
6.975120 1.811110 26.619400 -10.123200 5.320000
17.824600 1.628640 22.652300 -8.436000 10.200000
-17.896100 0.249203 23.199700 -10.212000 4.280000
18.090600 1.652950 22.990400 -8.436000 6.430000
7.702170 0.252868 28.716000 -10.123200 9.410000
18.353400 1.769050 23.324300 -8.436000 6.280000
7.813240 0.443092 29.130100 -10.123200 4.820000
18.619300 1.794690 23.662300 -8.436000 7.000000
7.924860 0.449422 29.546300 -10.123200 11.220000
8.036470 0.455751 29.962400 -10.123200 12.300000
18.340500 1.941740 24.947800 -8.613600 11.760000
5.307600 0.462081 31.001200 -10.212000 17.760000
18.350700 1.968710 25.472300 -8.613600 7.750000
5.373240 1.700330 31.384600 -10.212000 18.550000
7.758210 1.723300 31.325100 -10.123200 15.180000
18.049700 1.648440 26.756500 -8.880000 7.500000
7.616770 1.746280 31.802400 -10.212000 11.000000
18.290300 1.670420 27.113300 -8.880000 7.990000
7.530610 1.769260 32.264900 -10.212000 8.490000
18.533800 1.589910 27.474300 -8.791200 10.010000
4.134230 0.077960 33.354900 -10.212000 5.270000
-13.274000 1.714380 30.830300 -13.497600 10.260000
7.272150 2.340630 33.172800 -10.212000 8.610000
-13.684500 1.736360 31.121000 -13.497600 10.820000
7.377780 -1.119230 33.654600 -10.212000 5.570000
7.207150 -1.133220 34.131900 -10.212000 7.280000
-13.358900 1.348980 32.216900 -13.675200 3.760000
7.289590 -1.884150 34.522300 -10.212000 10.100000
18.653400 1.956150 33.450800 -9.235200 11.480000
18.862900 1.978130 33.826600 -9.235200 8.240000
-6.305320 2.575170 38.615900 -10.212000 8.780000
19.067000 2.212030 34.192500 -9.235200 7.870000
-6.374610 2.603460 39.040200 -10.212000 9.450000
18.542700 2.113920 34.975000 -9.324000 12.940000
-6.443900 2.631760 39.464600 -10.212000 5.810000
18.744300 2.136900 35.355200 -9.324000 13.060000
8.138160 -0.595009 39.674200 -10.212000 12.080000
18.945800 2.159870 35.735300 -9.324000 8.340000
8.456720 -0.474748 40.049600 -10.212000 13.160000
19.147400 2.182850 36.115500 -9.324000 8.340000
19.348900 2.205830 36.495700 -9.324000 16.360000
8.082680 -0.355481 41.006800 -10.212000 7.870000
-6.221080 2.329800 45.189700 -10.212000 9.300000
-6.279770 2.351780 45.616100 -10.212000 11.290000
-6.604500 2.373760 46.005000 -10.212000 6.510000
-24.692900 -4.322660 41.239300 -8.702400 5.250000
-24.906400 -4.511220 41.595700 -8.702400 6.750000
-26.842700 -3.648380 40.460300 -8.436000 5.380000
