VERSION .7
FIELDS x y z velocity SNR
SIZE 4 4 4 4 4
TYPE F F F F F
COUNT 1 1 1 1 1
WIDTH 319
HEIGHT 1
VIEWPOINT 0 0 0 1 0 0 0
POINTS 319
DATA ascii
2.71546006506749 6.30442415881436 0.749854813773167 -1.85657648750073 5.9665183131089
4.92761734765224 5.27575390200005 -0 -1.85657648750073 6.63699473586492
5.75258511034915 5.03634679396285 -1.76508032462839 -0.928288243750363 11.8943374264051
5.75358884811933 4.91795824898362 -2.06940451852984 -0.773573536458636 7.95240663083146
3.89422383650645 7.09972724812626 -1.01279091730402 -4.02258238958491 6.19014995633225
5.24685050450419 7.189480583285 -1.90628675059867 -3.403723560418 5.80880341318365
5.42777638396985 7.43739370684655 -1.97202077648138 -3.403723560418 6.73814869333295
5.66017122564143 7.15292664384783 -2.33720980916312 -2.93957943854282 9.28657904473748
-6.24321376604694 6.82744793005121 -1.75290735687234 3.71315297500145 7.5602632554968
-2.40557277089761 8.79858610912932 -2.33720980916312 3.71315297500145 7.5602632554968
-8.21510682736279 4.33865688213845 -1.5337939372633 3.86786768229318 33.789572124822
-6.70308489347388 6.58034985870075 -0.657340258827127 3.86786768229318 33.789572124822
-6.24321376604694 6.82744793005121 -1.75290735687234 3.86786768229318 33.789572124822
-2.4196440464149 8.8500529908641 -2.11809638955407 3.86786768229318 33.789572124822
-8.2838711137612 4.37497346945707 -0.949491484972516 4.02258238958491 12.8336802852654
-6.71765869825204 6.5946568137426 -0.219113419609043 4.02258238958491 12.8336802852654
-2.4196440464149 8.8500529908641 -2.11809638955407 4.02258238958491 12.8336802852654
-2.49077379403397 9.11021606591979 -2.33964440271433 3.71315297500145 50.9308196172608
-2.49562023948303 9.12794235053803 -2.26417200262677 3.86786768229318 211.215923190642
-2.50029884796207 9.14505475722624 -2.18869960253921 4.02258238958491 76.6581001285815
-2.90427077755472 9.41553036669691 -1.94767484096926 3.71315297500145 94.4273226048759
-2.56594428895745 9.38515851640461 -2.49302379644066 3.71315297500145 94.4273226048759
-2.90427077755472 9.41553036669691 -1.94767484096926 3.86786768229318 312.832295924474
-2.571121335777 9.40409400353011 -2.41511680280189 3.86786768229318 312.832295924474
-2.90427077755472 9.41553036669691 -1.94767484096926 4.02258238958491 94.270889011873
-2.57612411817603 9.42239210378119 -2.33720980916312 4.02258238958491 94.270889011873
-1.68712257559949 10.2191557479776 0.0803415871899819 -4.79615592604354 9.57519309822233
4.82049523139893 9.16770458082142 -0 -4.79615592604354 9.57519309822233
-3.61375638195888 9.46145964310621 -2.16922285412952 3.55843826770973 19.2330884884202
-3.69846818242064 9.44679256220888 -2.08888126693954 3.71315297500145 80.4179377898615
-2.99025087089328 9.69427441013018 -2.08888126693954 3.86786768229318 90.5942160668463
-2.65146887752003 9.69797194114043 -2.49058920288945 3.86786768229318 90.5942160668463
-2.98010668138705 9.66138735115496 -2.2495644413195 4.02258238958491 21.0851827536538
-2.64613004798737 9.67844472004225 -2.57093079007943 4.02258238958491 21.0851827536538
5.13196881582068 9.35631344471023 -0.0827761807411935 -4.79615592604354 31.4006128717606
-3.71012087116952 9.71375908704404 -2.40050924149462 3.55843826770973 13.900240642528
-3.71012087116952 9.71375908704404 -2.40050924149462 3.71315297500145 49.2989527663476
-3.81054297582733 9.73305900348794 -2.15218069927104 3.86786768229318 22.4836934690025
-3.58280853415554 10.1268192986893 -2.30069090589494 3.71315297500145 8.86180111397205
-3.27883649688603 10.330989770172 -1.78942626014051 3.71315297500145 8.86180111397205
-3.26990778500829 10.3028570983668 -1.95984780872532 3.86786768229318 10.0360416484066
-2.26047394977561 10.5541535738117 -2.04505858301773 4.02258238958491 6.43096364325575
4.78562328752983 9.70867408903191 -3.24287861021383 -4.95087063333527 15.2084177067023
4.85864585523641 9.85681619475402 -2.62936103530851 -4.79615592604354 14.9148865602577
-3.45439294451169 10.5842347856861 -1.92819809255957 3.86786768229318 5.93163929662
-1.3146409679996 11.2223367402927 0.0876453678436166 4.33201180416836 9.57733493957682
3.70829102651489 10.4814959477924 2.01584346040319 4.33201180416836 9.57733493957682
4.29210838937967 9.96489404147523 3.15523324237021 4.33201180416836 9.57733493957682
5.57120707555143 9.74218001042866 1.31468051765425 4.33201180416836 9.57733493957682
4.4707469770991 9.91358313611111 3.06758787452659 4.48672651146009 15.1796521337681
5.02792306079975 9.98116710111318 1.66526198902872 4.64144121875182 9.61659584892418
5.29968292206968 9.86763148316296 1.48997125334149 4.64144121875182 9.61659584892418
4.52615768682317 10.0364526879543 2.54171566746489 4.79615592604354 14.5869814829367
5.99436733519618 9.85445567911727 1.35119942092243 -4.95087063333527 8.36310109083471
-1.50459059725805 11.3106493805811 -2.16191907347588 -4.48672651146009 8.27932770869844
0.786933276483217 11.2450555582387 2.79247880323968 -4.48672651146009 8.27932770869844
1.59066146204888 11.2812575901869 2.25199903487071 -4.48672651146009 8.27932770869844
6.41887411995728 9.3437060218845 -2.5222389190552 -4.48672651146009 8.27932770869844
-2.13831210631713 11.285690031736 -1.71151926650174 4.02258238958491 5.20257959084951
3.72786571928553 10.8186932761633 1.98175915068623 4.33201180416836 10.0047251502621
4.5281055656949 10.2726897814783 2.97263872602934 4.33201180416836 10.0047251502621
5.03709462982147 10.2188382115199 -2.25199903487071 4.79615592604354 8.45926424752784
5.82683874044035 10.403273529378 0.277543664838121 -4.79615592604354 7.05214970157752
6.18335294883497 10.1651390672806 0.832630994514361 -4.79615592604354 7.05214970157752
-2.20318370899124 11.6280726041767 -1.48023287913664 4.02258238958491 7.44991126653465
4.53792308992925 10.7849476147032 2.312863873651 4.64144121875182 5.16659230243304
5.03273907905722 10.6695332280109 1.75777654397476 4.64144121875182 5.16659230243304
-2.15466398366796 11.8837946050187 -1.99393211844228 4.02258238958491 6.86875144210967
5.31315196163898 11.0176199381839 0.474745742486258 4.79615592604354 5.16644737334969
-2.10807241817384 12.1723002934514 -2.23982606711465 4.02258238958491 5.31811713548892
4.96783159318571 11.2702745338032 2.43459355121158 4.79615592604354 6.06925142209619
5.49650391593575 11.1508495221429 1.75290735687234 4.79615592604354 6.06925142209619
-3.4831160936967 12.3481584502265 -0.998183355996748 4.64144121875182 5.87885010623257
-1.09588568218379 12.7971419703793 0.798546684797399 4.64144121875182 5.87885010623257
-2.32666335677685 12.2797796332953 -4.19237009518634 4.48672651146009 8.10926740163653
-1.0849624685025 12.6695867713975 -3.47659959113014 4.48672651146009 8.10926740163653
4.90754996441226 12.2334152195449 0.204505858301772 4.48672651146009 8.10926740163653
5.62323433422238 11.9213979972744 -0.204505858301772 4.48672651146009 8.10926740163653
5.00979058867085 12.1919027573493 0.204505858301772 4.64144121875182 9.68330802322907
4.71093852159441 12.6476574894862 -0 4.33201180416836 6.03604292953273
5.75781374861539 12.2067097352995 -0 4.48672651146009 8.06070387158717
5.22870436368092 12.426676595779 0.628125136212587 4.64144121875182 8.69996282189119
5.75625464542249 12.2034043973789 -0.314062568106295 4.64144121875182 8.69996282189119
-4.28348818733455 16.7173136073457 -4.71824230224804 3.55843826770973 7.2344957271701
4.29558087213086 17.3402138752356 -0.97140282693342 3.55843826770973 7.2344957271701
5.27332963192428 17.0959249622 -0 3.55843826770973 7.2344957271701
5.67868035313418 16.929227903031 1.11017465935248 3.55843826770973 7.2344957271701
4.85335996495868 17.2058743524942 -0.6938591620953 3.71315297500145 13.5689205957731
6.10136681309092 16.8038846162247 0.6938591620953 3.71315297500145 13.5689205957731
4.99563567839849 17.178562869674 -0.13877183241906 3.86786768229318 7.6142191962522
6.10302098423647 16.8084403988742 0.555087329676241 3.86786768229318 7.6142191962522
5.36568276568727 17.3953301492526 -0.141206425970271 3.55843826770973 10.2344253691184
4.94163017249846 17.5188052109022 -0.282412851940542 3.71315297500145 13.3151388517954
5.36568276568727 17.3953301492526 -0.141206425970271 3.71315297500145 13.3151388517954
6.07169365590928 17.161660720696 0.141206425970271 3.71315297500145 13.3151388517954
4.94222490895951 17.5209136390624 -0 3.86786768229318 6.11716531526015
6.07114564049811 17.1601117534573 0.282412851940542 3.86786768229318 6.11716531526015
5.4568807251743 17.6909903072403 -0.430923058564451 3.55843826770973 5.65320569973038
4.88144341881114 17.8542926561421 -0.574564078085934 3.71315297500145 8.4272186494172
5.31407816086903 17.7373172242103 -0.287282039042966 3.71315297500145 8.4272186494172
5.88768709821438 17.5523168252276 -0.430923058564451 3.71315297500145 8.4272186494172
-4.52616388783087 18.9167914379015 0.603779200700473 3.24900885312627 5.79512812166342
-4.79742831505818 18.7230850522067 -2.26417200262677 3.403723560418 7.96049748920367
4.81844943067108 18.805124868055 -1.35850320157606 3.403723560418 7.96049748920367
-4.9575211806915 18.7224500625744 3.98786423688457 3.24900885312627 18.4925949831789
-4.8149752364723 18.7915660133521 3.83448484315824 3.403723560418 22.844493264706
5.70866075352354 18.5072511466122 -3.98786423688457 3.403723560418 22.844493264706
-4.72246849763539 19.0634552591809 -2.30069090589494 3.55843826770973 18.6712207430347
4.01148355970048 19.4823941182926 2.80465177099574 3.24900885312627 30.5005798465925
4.07532328246183 19.0276856719814 4.98604759288132 3.403723560418 37.8098468906579
4.17925776376874 18.7834761666863 5.76511752926902 3.55843826770973 21.534909888707
5.23354011953492 19.142116153954 3.11627974555082 3.55843826770973 21.534909888707
5.90648639888713 19.1485940219485 1.40232588549787 3.55843826770973 21.534909888707
-5.4528332937914 19.3310954051335 0.311627974555081 3.71315297500145 7.08037462262786
15.6139122368481 11.7538389605343 -5.85519749066385 0 5.25495319529412
3.4637238867481 20.0000184621844 -2.05723155077378 3.24900885312627 20.2332637527908
2.94494403951611 19.7643320477816 4.11446310154757 3.403723560418 23.4446552085598
3.48052606467406 20.0970365501474 -0.474745742486259 3.403723560418 23.4446552085598
3.9688021033966 19.2751049842654 5.38045174817759 3.403723560418 23.4446552085598
4.45456224075334 19.2956276688223 4.90570600569133 3.403723560418 23.4446552085598
5.16642676499404 18.8966433766827 5.6969489098351 3.403723560418 23.4446552085598
5.38665658901698 19.0964892610124 4.74745742486258 3.55843826770973 17.7201272130564
2.89194908617151 20.5102238013507 -0.321366348759928 3.24900885312627 11.738647451855
-9.38745010905868 18.2385943520659 2.89229713883936 3.403723560418 14.7946191753531
-4.30056237118769 20.0793270472222 2.73161396445939 3.403723560418 14.7946191753531
-2.89151396142153 20.5071378182515 -0.482049523139894 3.403723560418 14.7946191753531
3.37180797565551 20.423549156322 -0.803415871899822 3.403723560418 14.7946191753531
5.89336324940535 19.6708535907404 2.73161396445939 3.403723560418 14.7946191753531
4.33727094213229 20.2507193763676 -0.482049523139894 3.55843826770973 10.8184646651804
4.83503148253652 19.5178446166911 4.98117840577889 3.55843826770973 10.8184646651804
5.41269681189672 19.1888056781367 5.62391110329875 3.55843826770973 10.8184646651804
5.44791480467988 19.3136586383847 5.14186158015886 3.71315297500145 6.19611568698519
5.5994958853047 19.8510358463965 1.92819809255957 4.02258238958491 8.14848599888352
6.50977481101501 18.8921120771387 5.46322792891879 4.02258238958491 8.14848599888352
4.37426805541343 20.4234589097719 2.44676651896764 3.09429414583454 6.99229090097302
4.0602405228941 20.5407288492742 1.95741321517411 3.24900885312627 13.9599399591574
5.45703291886365 19.9595599924667 3.75170866241704 3.24900885312627 13.9599399591574
4.53198754174075 20.3688034550044 2.60988428689881 3.403723560418 22.5660169579411
5.51773637343509 20.181588017821 2.12053098310528 3.403723560418 22.5660169579411
5.01249609705771 20.2342260474421 2.77300205482999 4.02258238958491 5.12222080139157
5.55239986867904 19.6840735459666 4.89353303793528 4.02258238958491 5.12222080139157
7.26860321559454 19.0305014276644 5.21976857379763 4.02258238958491 5.12222080139157
-18.6871462002438 10.2636310458758 0.993314168894324 3.09429414583454 5.24885478187726
-6.62129757103242 20.287607461984 -0.331104722964774 3.09429414583454 5.24885478187726
3.9587676055848 20.8937806470435 1.82107597630626 3.24900885312627 11.0414445076618
5.60434393369025 20.4983625032265 1.98662833778865 3.24900885312627 11.0414445076618
5.61793280977587 20.5480649681912 1.3244188918591 3.403723560418 9.75383518521191
4.60211665593041 25.3824306258236 3.6372827655101 3.09429414583454 16.1883764095661
4.59688942675609 25.3536004609664 3.83935403026066 3.24900885312627 11.7572655586663
4.48272214161808 25.8838546387067 2.2495644413195 2.93957943854282 9.55243535994336
4.66727075194197 25.7417803437127 3.27209373282836 3.09429414583454 61.0889423833618
4.65756384455608 25.6882430430022 3.68110544943191 3.24900885312627 52.4286439607529
3.04518523139989 25.9950016279623 5.17351129632461 2.93957943854282 11.2738367075639
4.7228334989889 26.0482301097093 3.31104722964775 3.09429414583454 52.8761883797325
4.70765784667792 25.9645305925559 3.9318685852067 3.24900885312627 30.1059323426311
16.1645597224427 24.0096155171884 -5.72129484534721 -4.17729709687663 7.32903028621685
16.3357024328075 23.779248251429 -6.17899843297499 -4.02258238958491 7.5924885353232
-6.09226309570084 33.6011572374253 5.0883005220322 4.79615592604354 21.9799139689051
-4.45172887632615 33.4655450787037 7.23074284709839 4.79615592604354 21.9799139689051
14.3759650503573 31.1659880695505 3.74927406886584 4.79615592604354 21.9799139689051
16.0446144629676 30.5139365249355 1.87463703443291 4.79615592604354 21.9799139689051
17.6797750007299 29.0647118234633 5.89171639393202 4.79615592604354 21.9799139689051
14.5185741099078 31.475153557432 3.51311849439831 4.79615592604354 53.6716670882887
15.9206333512083 30.9317194922249 1.8916791892914 4.79615592604354 53.6716670882887
17.8156074704078 29.2880139631847 6.21551733624316 4.79615592604354 53.6716670882887
14.6373462330911 31.7326423980878 3.81744268829976 4.79615592604354 20.5316803058513
16.0485452811868 31.1802357321585 2.45407029962127 4.79615592604354 20.5316803058513
17.7078083126603 29.7134147582397 6.27151298792103 4.79615592604354 20.5316803058513
-10.6717658840583 40.3027231879417 5.54600410965998 4.17729709687663 5.88631800018804
-3.24572727849123 41.7184958125864 4.24106196621057 4.17729709687663 5.88631800018804
14.3435640869155 39.5038690977914 1.63117767931176 4.17729709687663 5.88631800018804
14.1328155647832 39.9464464935457 -0 4.02258238958491 6.83628727373834
14.1323904059957 39.9452447809303 0.328670129413562 4.17729709687663 22.8904402264922
14.2370747793735 40.2411354830113 -0.331104722964774 4.02258238958491 5.22267542623243
14.2375030874853 40.2423460972016 -0 4.17729709687663 14.8482717059376
-5.74210180268488 43.1658288414998 -7.89538688657915 4.02258238958491 8.98562105490296
18.7343088412578 39.7172051929746 5.49244305153332 4.02258238958491 8.98562105490296
-35.4738881948812 25.9879579102966 -7.25995796971293 3.86786768229318 5.57892042206158
-5.7563521549732 43.2729548188764 -8.98851939107316 3.86786768229318 5.57892042206158
13.8268272806853 42.3652979353195 0.691424568544087 3.86786768229318 5.57892042206158
18.8481437255757 39.958538006311 5.87710883262475 3.86786768229318 5.57892042206158
-6.87900408277246 43.8059199464017 4.49425969553657 4.02258238958491 22.6037375241435
-5.7655507047838 43.3421042419201 -8.64280710680111 4.02258238958491 22.6037375241435
14.1703655584143 42.2445591386833 1.03713685281614 4.02258238958491 22.6037375241435
18.8065512954243 39.8703610099354 6.56853340116885 4.02258238958491 22.6037375241435
-7.27934465089611 44.0920877988266 4.17776253387907 4.02258238958491 9.64479933902449
-5.80615317453579 43.6473303281308 -8.7036719455814 4.02258238958491 9.64479933902449
13.9107855629092 42.6225454996628 2.08888126693954 4.02258238958491 9.64479933902449
18.9162651838889 40.1029572085776 6.96293755646512 4.02258238958491 9.64479933902449
29.0881226317205 33.1715332349678 9.81628119848509 -3.55843826770973 7.23181366053798
37.9172455273488 22.3996934585114 10.1668626698596 -3.55843826770973 7.23181366053798
-32.0625533845124 32.1763419271065 2.82412851940544 -3.71315297500145 9.92061774256672
-36.2516042014025 28.0229190977956 -0.710901316953779 -3.71315297500145 6.00761151808605
-34.8331166113673 29.7740797437546 -0.35545065847689 -3.71315297500145 6.00761151808605
-32.3450368534125 32.4598279169801 0.35545065847689 -3.71315297500145 6.00761151808605
-29.143688818433 33.2348998410775 -12.0853223882143 -3.71315297500145 6.00761151808605
-28.8286852892215 34.9751980769716 -6.75356251106093 -3.71315297500145 6.00761151808605
-36.2461497588295 28.0187027491314 -1.06635197543067 -3.55843826770973 12.2277679372047
-32.6768576688346 32.0785368470044 1.77725329238445 -3.55843826770973 12.2277679372047
-25.5893676715782 38.0085130478097 -0.710901316953779 -3.55843826770973 12.2277679372047
-14.8528355759017 43.1046299617691 4.62085856019958 3.86786768229318 14.3150723772894
-5.33159948133173 45.5128101134091 -0.35545065847689 3.86786768229318 14.3150723772894
-14.8135115170332 42.9905070390816 5.68721053563025 4.02258238958491 10.0830195102142
-5.33031614100434 45.5018549723045 -1.06635197543067 4.02258238958491 10.0830195102142
14.5730385823067 43.4450041308224 0.35545065847689 4.02258238958491 10.0830195102142
17.5118531214828 41.6191316619503 7.8199144864916 4.02258238958491 10.0830195102142
-14.6197869845953 43.5843700234649 3.93673777230913 3.71315297500145 14.0515705660481
-13.1934663031714 44.0371198958825 3.93673777230913 3.71315297500145 14.0515705660481
13.9424009846431 43.9298519705941 2.14731151216861 3.71315297500145 14.0515705660481
-14.598506199602 43.5209279494786 4.65250827636533 3.86786768229318 120.97111499535
13.9537454047387 43.9655960792338 1.07365575608431 3.86786768229318 120.97111499535
-14.5865221142262 43.4852011080436 5.01039352839343 4.02258238958491 61.5488941847686
13.9537454047387 43.9655960792338 1.07365575608431 4.02258238958491 61.5488941847686
16.4547958115658 43.0815943443014 1.43154100811241 4.02258238958491 61.5488941847686
14.0507829338232 44.2713428650971 0.720639691158625 3.71315297500145 27.5913267713782
15.1220478908186 43.8859149330022 1.80159922789657 3.71315297500145 27.5913267713782
16.566733198039 43.3746664146708 1.44127938231726 3.71315297500145 27.5913267713782
14.0524739775932 44.2766710221753 -0 3.86786768229318 242.260750436322
16.5622429280395 43.3629100858271 1.80159922789657 3.86786768229318 242.260750436322
14.0520512357291 44.2753390430181 0.360319845579313 4.02258238958491 124.407668394495
15.1170354998328 43.8713684002837 2.16191907347588 4.02258238958491 124.407668394495
16.5567531664836 43.3485369095746 2.16191907347588 4.02258238958491 124.407668394495
14.145720656349 44.5704735601316 0.725508878261048 3.71315297500145 8.83437268044994
15.2242238900809 44.1824413852522 1.81377219565263 3.71315297500145 8.83437268044994
16.6741499748505 43.6559027215421 1.81377219565263 3.71315297500145 8.83437268044994
14.145720656349 44.5704735601316 -0.725508878261048 3.86786768229318 55.8751639341777
15.2191776315884 44.1677965651505 2.17652663478315 3.86786768229318 55.8751639341777
16.6620890195727 43.6243249864772 2.53928107391368 3.86786768229318 55.8751639341777
14.145720656349 44.5704735601316 -0.725508878261048 4.02258238958491 29.61439188016
15.2132117135229 44.1504827876375 2.53928107391368 4.02258238958491 29.61439188016
16.6620890195727 43.6243249864772 2.53928107391368 4.02258238958491 29.61439188016
-15.9476551642509 45.0760961816909 4.46991376002446 3.71315297500145 8.49258516591961
13.7818194811958 46.0009237095595 -0.372492813335371 3.71315297500145 8.49258516591961
16.3817931682137 45.1173926496097 1.48997125334149 3.71315297500145 8.49258516591961
13.7805755697112 45.9967717848166 -0.744985626670741 3.86786768229318 9.63562225563168
13.8572825415134 46.2528041296517 -2.2495644413195 3.71315297500145 13.0793977475037
16.4789305899078 45.3849205783623 2.2495644413195 3.71315297500145 13.0793977475037
13.8656353940109 46.2806842605023 -1.49970962754634 3.86786768229318 12.9597293668148
16.4724708486467 45.3671296882014 2.62449184820608 3.86786768229318 12.9597293668148
13.9890467342064 48.1043323174062 3.50581471374468 3.71315297500145 7.89172461077521
16.7374017839177 47.3083174217804 1.94767484096926 3.71315297500145 7.89172461077521
-18.1227846997548 51.2241064778875 5.50705061284059 0.309429414583454 7.12571388452758
-15.2388204614041 52.4019468609102 2.11809638955408 0.309429414583454 7.12571388452758
-15.31531380556 52.6649856023811 2.98237710023418 0.309429414583454 5.32405305852402
13.1997497280553 61.6296355813365 6.88503056282635 3.24900885312627 15.996509995978
13.2105944603665 61.6802696398669 6.3932426654816 3.403723560418 20.380772686743
16.2285123938618 61.288192588532 0.491787897344738 3.403723560418 20.380772686743
13.2860766005866 62.032695776006 5.93066989075141 3.24900885312627 32.9828017743668
16.3073795692449 61.586040383603 0.988444981791898 3.24900885312627 32.9828017743668
13.2953463518445 62.0759762475093 5.43644739985546 3.403723560418 41.5128631828265
16.3088515641284 61.5915994825346 0.494222490895949 3.403723560418 41.5128631828265
13.3413924253207 62.2909653788755 6.45654209781311 3.24900885312627 8.60831118167224
16.3877114883052 61.8894198928819 0.993314168894321 3.24900885312627 8.60831118167224
16.3891907343951 61.8950063765372 0.496657084447161 3.403723560418 12.6354300889425
13.0851216055488 63.54992919979 9.66777099186119 3.403723560418 6.04977104020972
13.4097614998752 65.1265933624772 11.5156274972308 3.24900885312627 11.5400815956128
4.37536366795454 4.0140211645665 0.55508732967624 2.28407765238576 5.95306846151391
4.34838889932482 4.45993107073781 0.779069936387706 2.28407765238576 5.75498865384184
4.61681329523104 4.23553050358737 0.389534968193853 2.28407765238576 5.75498865384184
6.73234719906436 5.34082880232211 -1.84055272471595 -1.34968224913704 5.73009627555063
6.82491042969629 5.4142600074542 -1.15886653037671 1.45350396060912 8.24369259286792
6.83826979585914 5.42485810726599 -1.02252929150886 1.5573256720812 6.09333255073062
-8.2284066603706 4.51932730404652 0.730378065363474 1.5573256720812 15.1734357954501
-6.13131996649011 6.84756149504632 -2.04505858301773 1.5573256720812 15.1734357954501
-5.89823840256654 7.30354565920012 -0.730378065363474 1.5573256720812 15.1734357954501
-2.06381403958918 8.93973080480885 -2.11809638955407 1.5573256720812 15.1734357954501
8.19721874397541 4.50219781495601 -1.09556709804521 1.5573256720812 15.1734357954501
-8.21120557767557 4.50987987079589 0.949491484972516 1.66114738355328 12.2102248282546
-6.16202188000919 6.88184990961065 -1.82594516340869 1.66114738355328 12.2102248282546
-5.9073353250017 7.31481000353969 -0.511264645754431 1.66114738355328 12.2102248282546
-2.07457596305993 8.9863477465124 -1.89898296994503 1.66114738355328 12.2102248282546
8.1724334539571 4.48858487109678 -1.31468051765425 1.66114738355328 12.2102248282546
4.67027113338635 8.51457250890505 -0.603779200700473 0.41528684588832 7.57562170012705
-2.43535756175489 9.19731024288011 -2.03775480236409 1.5573256720812 142.771708466397
-2.43535756175489 9.19731024288011 -2.03775480236409 1.66114738355328 123.218910245725
-2.43941518414978 9.21263415777471 -1.96228240227653 1.76496909502536 8.97482776679779
-1.84713180689468 9.74888415904713 1.55813987277541 0.62293026883248 92.0749277660663
-2.57612411817603 9.42239210378119 -2.33720980916312 1.45350396060912 17.5292869739645
-2.58561090059738 9.45709081381092 -2.18139582188558 1.5573256720812 617.805861299589
-2.59009680077158 9.47349837355601 -2.1034888282468 1.66114738355328 542.082646970683
-2.59441223886116 9.48928245379218 -2.02558183460803 1.76496909502536 34.4866194539338
-2.99502923935331 9.70976569065619 -2.00853967974955 1.45350396060912 18.3672613846215
-2.65146887752003 9.69797194114043 -2.49058920288945 1.45350396060912 18.3672613846215
-2.99961305081336 9.72462622512524 -1.92819809255957 1.5573256720812 472.930009923457
-2.66160845105639 9.73505828995051 -2.32990602850948 1.5573256720812 472.930009923457
-2.66641124124105 9.75262490174251 -2.2495644413195 1.66114738355328 415.508801311217
-2.66641124124105 9.75262490174251 -2.2495644413195 1.76496909502536 22.839039910482
4.96417974794354 9.44096638013594 -0.331104722964775 0.41528684588832 24.6233968276041
-3.41060745916788 9.89797346917418 -2.06940451852984 1.45350396060912 7.27319289848464
-3.10741444597386 10.0741140612975 1.65552361482388 1.45350396060912 7.27319289848464
-3.08086453364763 9.98804030134625 -2.15218069927104 1.5573256720812 68.1624912036103
-3.08086453364763 9.98804030134625 -2.15218069927104 1.66114738355328 42.313699384041
-2.71475457486773 9.92944473810857 -2.81439014520059 1.66114738355328 42.313699384041
4.84721532661844 9.21852133876536 3.49364174598862 0.31146513441624 16.9984651129826
5.11126205301785 9.72069015482293 -0.255632322877217 0.41528684588832 16.2779252981218
5.65872848516475 8.93120280300337 -2.98237710023419 0.726751980304561 26.9423578738097
-3.43759536372666 10.2481266301266 -1.95984780872532 1.5573256720812 12.6357121797625
-3.44239852456546 10.2624457675738 -1.87463703443292 1.66114738355328 9.72971180082261
-2.64081872739256 10.6603420822103 -0.255632322877217 1.66114738355328 9.72971180082261
-2.20418792793061 10.7049816566949 -1.10774006580127 1.66114738355328 9.72971180082261
5.25729811167551 9.99842415924645 -0.262936103530851 0.41528684588832 10.917854400655
6.37883560573863 9.28542351011986 0.876453678436169 0.62293026883248 14.0496847185147
5.74908517628249 9.07381327372952 -3.50581471374468 0.726751980304561 13.2036846737335
-3.4714761574331 10.6365776254726 -1.5776166211851 1.5573256720812 7.68154093751995
-3.4714761574331 10.6365776254726 -1.5776166211851 1.66114738355328 8.90978904847958
-1.77753773457558 11.3194693251502 1.8916791892914 0.5191085573604 6.27783481160793
-1.39326325098305 11.1396011092869 2.97263872602934 0.5191085573604 6.27783481160793
5.49223220152381 10.2261445036476 0.360319845579314 0.5191085573604 6.27783481160793
4.22100270866799 10.781473579478 0.900799613948285 0.62293026883248 8.29926301458744
5.49471234217612 10.230762348591 -0.0900799613948282 0.62293026883248 8.29926301458744
11.44922699876 13.3302007597124 -0.409011716603547 0 6.18460458819427
16.8401656044945 7.79352164770559 -3.21366348759929 -3.32229476710656 5.40732567511635
4.14074528247285 19.3331410103589 0.306758787452658 -0.31146513441624 16.6693525613009
5.51125077278626 18.9516157673851 -3.73953569466099 -0.20764342294416 6.53760522282947
21.6882777882753 15.8887023382413 -7.58375891202407 -2.38789936385784 5.06260191483777
-23.2245757909543 38.1801014186209 4.17776253387907 1.0382171147208 18.8157086126762
-23.2407796746985 38.2067398351974 3.82961565605582 1.14203882619288 7.65550928832095
-39.4963519697789 21.6927710594233 3.50581471374468 1.0382171147208 12.1613612764154
23.3210099705796 64.228815064623 -7.46446382801471 -0.31146513441624 6.02387915883073
