VERSION .7
FIELDS x y z velocity SNR
SIZE 4 4 4 4 4
TYPE F F F F F
COUNT 1 1 1 1 1
WIDTH 318
HEIGHT 1
VIEWPOINT 0 0 0 1 0 0 0
POINTS 318
DATA ascii
5.35030213958047 3.27037242795822 0.29215122614539 0.309429414583454 8.48539195435995
5.39336861337566 4.27860560071233 -0.535610581266548 -0.773573536458636 6.69972697929215
-9.664985721901 4.02820347800464 -3.32322019740381 4.17729709687663 18.9124064543298
-9.46027188274733 5.39323905178038 -1.44858316297089 4.17729709687663 18.9124064543298
-6.74242556045943 8.5206036200973 -1.6190047115557 4.17729709687663 18.9124064543298
-9.450129539679 5.38745696841209 -1.53379393726329 4.33201180416836 14.3813654546197
-2.63728989956538 10.6460970636497 -2.71700640315212 4.02258238958491 16.4734789401499
-2.33481983514521 10.901274535701 -1.84055272471595 4.02258238958491 16.4734789401499
-2.33481983514521 10.901274535701 -1.84055272471595 4.17729709687663 168.865251615033
-2.33777619310108 10.9150777719154 -1.75290735687234 4.33201180416836 93.603802651892
-3.04118267686307 10.7814395385637 -3.06271868742417 4.02258238958491 29.1252446156942
-2.70509016492113 10.9197902234489 -2.88255876463451 4.02258238958491 29.1252446156942
-2.40271442068722 11.2182743766909 -1.80159922789657 4.17729709687663 247.828819150042
-2.40833658421922 11.2445242599685 -1.62143930510691 4.33201180416836 131.477993721854
-3.23280697366078 11.1166989383733 -2.86795120332724 4.02258238958491 24.4512131400384
-2.10925449630642 11.6333439430992 -1.57274743408268 4.17729709687663 75.9783082574074
-2.10459997851484 11.6076725002015 -1.75777654397476 4.33201180416836 46.1538979144743
-2.58408779951312 11.6140602801702 -0.832630994514361 4.79615592604354 18.0753299215145
-1.7569302833408 11.7912439213807 0.370058219784161 4.79615592604354 18.0753299215145
0.277535315466584 11.9235731022977 0.0925145549460397 4.79615592604354 18.0753299215145
5.27269505105008 10.6968047307208 0.185029109892079 4.79615592604354 18.0753299215145
5.90952101789573 10.3337780755625 -0.740116439568321 4.79615592604354 18.0753299215145
-3.38117813834068 11.2856882070221 -3.32322019740381 4.02258238958491 11.894211653764
-2.16476119357764 11.9394845731808 -1.61413552445328 4.17729709687663 23.1916989856896
-2.16244035640104 11.9266842699653 -1.70908467295053 4.33201180416836 26.235300768085
5.68305023577134 10.8081272106973 0.854542336475265 4.48672651146009 29.8205348379975
5.30930878592745 11.0096505351532 0.664644039480761 4.64144121875182 33.5183004199169
5.79172382013159 10.7837765295959 -0.0949491484972513 4.64144121875182 33.5183004199169
5.31459243603367 11.0206069785558 0.379796593989007 4.79615592604354 32.2015760707965
-2.51478097160308 12.2134251034079 -1.46075613072695 4.17729709687663 15.8752589357447
-2.51907191763498 12.2342647505085 -1.26598864663002 4.33201180416836 16.3876529234923
-2.12373450429022 12.2627353343859 -1.65552361482387 4.33201180416836 16.3876529234923
6.25331080459136 10.7111321185104 -1.94767484096926 4.33201180416836 16.3876529234923
5.63616866754546 10.7189670005635 -3.31104722964775 4.48672651146009 13.7892985514977
5.44758036030011 11.2963774471052 0.584302452290779 4.64144121875182 20.6678010895786
5.93969340930849 11.059285347422 -0.194767484096926 4.64144121875182 20.6678010895786
5.54485858101976 11.2489474408002 0.584302452290779 4.79615592604354 23.4472846579002
-3.28693774655549 12.0222531399974 4.29462302433723 3.86786768229318 7.00747922543821
4.01247936372692 12.2942075034864 2.55632322877216 3.86786768229318 7.00747922543821
4.81108881554649 11.7083390928074 3.68110544943191 3.86786768229318 7.00747922543821
-3.59323867803606 12.3561205240201 -2.86308201622482 4.02258238958491 5.88931603716014
4.16757774692176 12.4243431737268 1.43154100811241 4.02258238958491 5.88931603716014
-3.01340937983889 12.1643998088963 -4.09011716603546 4.17729709687663 6.79678787423502
4.73438168073819 11.8017457444702 3.47659959113014 4.17729709687663 6.79678787423502
4.07254915741064 12.478260913185 3.14062568106294 3.55843826770973 10.4922843660383
4.56602918422397 12.5753835028228 1.77968788593566 3.55843826770973 10.4922843660383
4.08018407826827 12.5016542550038 3.03593815836084 3.71315297500145 11.189537898921
4.92563854924997 11.9871090712076 3.76875081727553 3.71315297500145 11.189537898921
4.91389291755622 11.9585247228402 3.87343833997762 3.86786768229318 19.8999864862683
-2.48131260767373 12.552943397595 4.29218843078602 4.33201180416836 7.31760614779359
4.9203135669986 12.5676845969339 -0 4.33201180416836 7.31760614779359
5.01849269797343 11.6513245814023 4.60625099889231 4.33201180416836 7.31760614779359
6.37651874793393 11.8726229616619 0.732812658914685 4.33201180416836 7.31760614779359
3.99216053051188 12.5785380395674 4.07064041762576 3.55843826770973 23.1113544441033
4.03858063967383 12.724798968814 3.53502983635921 3.71315297500145 18.2795408236297
-3.24151954817539 13.0852250066556 2.99941925509267 3.86786768229318 22.8126231623362
-3.75756487207961 12.9211913252632 3.10654137134598 4.17729709687663 12.2189088741568
-1.28407251349931 13.7355426097204 -0.642732697519857 4.17729709687663 12.2189088741568
4.59463907067562 12.3354233954318 4.17776253387907 4.17729709687663 12.2189088741568
6.03079195671222 11.972009424985 3.3207856038526 4.17729709687663 12.2189088741568
4.92702436903295 12.8998297895601 0.214244232506618 4.33201180416836 11.6556350780066
5.63634730811942 12.2191680590047 3.10654137134598 4.48672651146009 13.0898763979402
4.64802096811316 13.1376455068356 2.30069090589494 3.403723560418 30.7009441541683
3.96809737921986 12.864413904103 4.27271168237632 3.55843826770973 23.5684100267394
4.09636799440599 13.2802621375989 2.51980432550398 3.71315297500145 17.7670561060023
4.05054854218356 13.5199111209579 0.547783549022606 4.02258238958491 16.0244499522467
5.32140293404537 12.9502473119874 1.86246406667686 4.02258238958491 16.0244499522467
5.24923110818137 12.7746088562116 2.95803116472207 4.17729709687663 13.8968052885607
5.78486693554682 12.5411472040765 2.95803116472207 4.48672651146009 7.55727591059122
4.76845822180742 13.4780617733944 2.01584346040319 3.403723560418 13.2295207379198
4.65756384455608 13.5167837156049 2.01584346040319 3.55843826770973 10.6773753272142
4.91931485683508 13.2070943203762 -3.13575649396051 3.55843826770973 10.6773753272142
3.91339791548411 13.4570566096098 3.47173040402771 3.71315297500145 17.7375638291889
4.84856656179983 13.3535248009937 2.57579997718185 3.71315297500145 17.7375638291889
-3.67061299508988 13.8623449088363 1.67986955033599 3.86786768229318 18.8833182234747
3.93545188546807 13.5328939072601 3.13575649396051 3.86786768229318 18.8833182234747
4.9278496117621 13.2300079407894 3.02376519060478 3.86786768229318 18.8833182234747
3.33376482281569 13.9332413538477 1.79186085369172 4.02258238958491 9.39437682970686
5.44514921059896 13.2513981372808 1.79186085369172 4.02258238958491 9.39437682970686
6.93321824975508 12.6402488895327 0.783939123490128 4.02258238958491 9.39437682970686
5.47418599633701 13.3220625017564 1.00792173020159 4.17729709687663 11.8262286668857
6.26981478503523 13.0014042291791 -0.335973910067199 4.17729709687663 11.8262286668857
5.58269478432224 13.2679795590654 1.11991303355733 4.33201180416836 5.2998912910507
-6.56088397860914 12.2158978672294 5.03473946390555 2.93957943854282 5.67957489879622
-3.54197019280966 14.2980710901065 0.800981278348609 3.24900885312627 5.22037192230791
5.7206063573258 13.5957438381925 0.228851793813888 3.24900885312627 5.22037192230791
4.89895289359342 13.8469053630031 1.37311076288333 3.55843826770973 15.9105380974204
5.03337615506711 13.8625122420654 0.343277690720834 3.71315297500145 42.0402896836105
3.5539102935867 14.3462703691631 2.9215122614539 2.93957943854282 8.89046670698387
3.56455881618486 14.3892558616503 2.68779128053758 3.09429414583454 9.48312364350262
4.55262072967938 14.3444414597858 0.701162942748935 3.55843826770973 20.2662133573084
5.02258186262523 14.1963430227421 0.467441961832624 3.71315297500145 41.7495719269797
5.13427662814962 14.1404040586602 0.81802343320709 3.86786768229318 17.7781328739361
3.6335025711208 14.66756501041 2.86308201622482 2.93957943854282 7.79790967420399
3.62795009136976 14.645151001854 2.98237710023419 3.09429414583454 6.38470446791841
-2.95316548114969 14.9400438356529 -2.14731151216861 3.403723560418 8.50512470697246
5.12829959319458 14.4951545120911 0.357885252028103 3.71315297500145 8.86775994993364
4.82149466310153 14.773024479823 2.19113419609042 3.55843826770973 5.71985126606958
-3.48920522753775 19.2442991450709 2.91420848080026 3.09429414583454 18.8572113135212
4.83615012231636 18.8742059534601 3.37434666197925 3.09429414583454 18.8572113135212
5.95998284737858 18.7787716420582 1.68717333098963 3.09429414583454 18.8572113135212
-3.48061105054055 19.1968989773379 3.22096726825292 3.24900885312627 10.4223003512237
5.95130740541265 18.7514369755426 1.99393211844228 3.24900885312627 10.4223003512237
5.09696281029652 19.2490618211065 2.6488377837182 2.93957943854282 13.7909202627828
5.90952101789573 19.1584321360967 1.24651189822033 2.93957943854282 13.7909202627828
4.92568481838581 19.2236360271456 3.11627974555082 3.09429414583454 89.8414133248368
5.89933996126362 19.1254255553655 1.71395386005295 3.09429414583454 89.8414133248368
4.91291440997217 19.17379652415 3.4279077201059 3.24900885312627 43.2619874711307
5.89933996126362 19.1254255553655 1.71395386005295 3.24900885312627 43.2619874711307
5.98733975614832 19.4107173908938 1.89898296994503 2.93957943854282 11.9228365173169
5.17105302617639 19.5288690708141 2.84847445491755 3.09429414583454 127.511067118769
5.99151714815836 19.4242603296681 1.74073438911628 3.09429414583454 127.511067118769
4.99632228096918 19.499315231287 3.32322019740381 3.24900885312627 23.9024119412603
5.99151714815836 19.4242603296681 1.74073438911628 3.24900885312627 23.9024119412603
5.94080452853589 19.8292029774049 0.803415871899822 3.09429414583454 5.85429348280625
4.55113725331012 21.2492612497032 3.2380094231114 2.93957943854282 5.19477862873482
5.43705926820948 21.21939431446 1.70421548584811 2.93957943854282 5.19477862873482
-1.25221744238549 26.8772414342739 -4.65981205701896 -3.86786768229318 8.11019146151175
16.4189345939257 21.6075949514561 -5.14186158015886 -4.02258238958491 17.9704308634215
16.4166139565288 22.0454993666632 -4.9836129993301 -4.02258238958491 11.9114921227837
18.192258723346 21.1810335388665 -0.866715304231324 -4.02258238958491 11.9114921227837
16.4395519782907 22.0763023169892 -4.76693417327227 -3.86786768229318 22.938747249411
17.3022275257425 22.3136767540766 -6.04753038120956 -4.33201180416836 7.33691074244735
16.3549395385213 23.3321608715557 -6.33968160735495 -4.48672651146009 19.3699423520961
16.3833145063511 23.3726409548096 -6.11326440709228 -4.33201180416836 37.2425877716629
14.4531751274307 33.5556201386023 3.70301679139281 4.33201180416836 5.45553149191593
16.2343505519173 32.9348987761666 0.569694890983508 4.33201180416836 5.45553149191593
-8.26739000202365 37.157392972975 4.15828578546938 4.02258238958491 10.1671540273576
1.16902197735095 37.6600231371426 6.83146950469969 4.02258238958491 10.1671540273576
-7.97867586220157 37.2524400795236 3.86126537222156 4.17729709687663 8.18205752282824
1.16902197735095 37.6600231371426 6.83146950469969 4.17729709687663 8.18205752282824
14.6197869845953 35.5789365033392 3.29400507478927 4.02258238958491 42.9197932397659
16.1686244363225 35.0523359314196 0.598910013598047 4.02258238958491 42.9197932397659
14.6197869845953 35.5789365033392 3.29400507478927 4.17729709687663 35.0203230694881
16.1686244363225 35.0523359314196 0.598910013598047 4.17729709687663 35.0203230694881
14.7386470413807 35.8681961497079 3.3207856038526 4.02258238958491 33.3044501116452
16.3015480031951 35.3405040150788 0.301889600350235 4.02258238958491 33.3044501116452
14.7480232650182 35.891014270505 3.01889600350236 4.17729709687663 26.3927527525118
16.3015480031951 35.3405040150788 0.301889600350235 4.17729709687663 26.3927527525118
-9.2579256078054 38.6928649095807 2.47354704803097 3.86786768229318 13.0323843094839
-7.83300455025687 38.0422054602358 8.96660804911225 3.86786768229318 13.0323843094839
-2.46989822642047 39.7263211539238 2.16435366702709 3.86786768229318 13.0323843094839
0.305450181608885 39.3780636638403 6.18386762007742 3.86786768229318 13.0323843094839
-9.19480506971106 38.4290569511926 5.2562874770658 4.02258238958491 8.60295856792804
-2.46093948876649 39.5822270834198 4.01951395305032 4.02258238958491 8.60295856792804
0.609316533268031 39.2724265248945 6.80225438208515 4.02258238958491 8.60295856792804
-9.27656298522628 38.7707585498371 4.98604759288132 3.86786768229318 107.367758470337
14.3193540899317 37.4906265163889 1.86976784733049 3.86786768229318 107.367758470337
-9.26720510963004 38.7316479508083 5.2976755674364 4.02258238958491 59.8242195400734
14.3193540899317 37.4906265163889 1.86976784733049 4.02258238958491 59.8242195400734
14.436009038629 37.7960500072412 1.57031284053147 3.71315297500145 8.78296067422743
15.7026560066619 37.3193461165941 0.314062568106293 3.71315297500145 8.78296067422743
14.436009038629 37.7960500072412 1.57031284053147 3.86786768229318 300.38058365151
15.7012387254261 37.315977768656 0.628125136212586 3.86786768229318 300.38058365151
14.4312240437593 37.7835220360481 1.88437540863776 4.02258238958491 166.233766826524
15.6988763056977 37.3103631796667 0.942187704318884 4.02258238958491 166.233766826524
14.5430939975869 38.0764175557074 1.89898296994503 3.71315297500145 7.85323983646948
15.8205730212457 37.5995908012145 0.949491484972519 3.71315297500145 7.85323983646948
16.7561735189588 37.1556968162592 1.89898296994503 3.71315297500145 7.85323983646948
14.5373931043252 38.0614915989398 2.21548013160254 3.86786768229318 130.960869848913
15.8205730212457 37.5995908012145 0.949491484972519 3.86786768229318 130.960869848913
14.5308123713061 38.0442620645438 2.53197729326005 4.02258238958491 68.3031014373049
15.8172393929574 37.5916680123649 1.26598864663002 4.02258238958491 68.3031014373049
14.1323904059957 39.9452447809303 0.328670129413562 3.71315297500145 5.07184556262054
-33.3401967322461 26.4490641551303 8.06337384161275 3.71315297500145 5.13378773847679
10.4148778909302 42.0423257038124 0.335973910067197 3.71315297500145 5.13378773847679
13.2233633503632 40.5162888544706 7.72739993154555 3.71315297500145 5.13378773847679
-14.8787717020989 40.9778940641269 1.69204251809205 3.55843826770973 36.3334581112386
-13.1581688807873 41.4588858672007 3.3840850361841 3.55843826770973 36.3334581112386
-4.05650180400919 43.3918277897984 2.03045102171046 3.55843826770973 36.3334581112386
14.5357981310329 41.0854779516961 2.03045102171046 3.55843826770973 36.3334581112386
-14.8612790071753 40.9297171168742 2.70726802894728 3.71315297500145 63.1313676809211
-13.1198832555533 41.3382551486477 4.73771905065774 3.71315297500145 63.1313676809211
-4.05491165518635 43.3748181920675 2.36885952532887 3.71315297500145 63.1313676809211
14.314979429329 41.5437098228367 -0.34084309716962 3.55843826770973 258.75145070977
14.3154100811241 41.5449596236693 -0 3.71315297500145 274.41940145195
14.314979429329 41.5437098228367 0.34084309716962 3.86786768229318 5.36275719619737
14.0739619185291 41.9571615236024 -0.343277690720832 3.55843826770973 374.604395326074
16.8125087639911 40.9151776565664 1.37311076288333 3.55843826770973 374.604395326074
14.4172292823957 41.8404506072856 -0.343277690720832 3.71315297500145 405.284665702543
14.417663010275 41.8417093352669 -0 3.86786768229318 7.97156584282394
14.1742036551538 42.2560012362091 -0 3.55843826770973 45.2236287471993
15.5495630339996 41.746574798994 1.38284913708818 3.55843826770973 45.2236287471993
16.9271572111191 41.1941878654613 1.72856142136022 3.55843826770973 45.2236287471993
14.1742036551538 42.2560012362091 -0 3.71315297500145 69.3219922955929
15.545348459191 41.7352597503261 1.72856142136022 3.71315297500145 69.3219922955929
16.9215464941822 41.1805335391812 2.07427370563227 3.71315297500145 69.3219922955929
14.1661781964554 43.4050666660177 3.9099572432458 3.55843826770973 6.43025555556578
15.2843783145063 43.2013421337605 -0 3.55843826770973 6.43025555556578
16.7056783748394 42.6703895867497 0.35545065847689 3.55843826770973 6.43025555556578
13.957524829096 43.9775043260795 -0 3.55843826770973 6.15255307077431
15.3872139509176 43.4920073751418 0.715770504056202 3.55843826770973 6.15255307077431
16.8160521544287 42.9523112225889 1.07365575608431 3.55843826770973 6.15255307077431
-17.9478685745845 43.6782066016604 4.04385988856243 -0.928288243750363 6.16724844558158
-17.63743863387 43.9661565917883 1.4704945049318 3.403723560418 5.21364208544972
-15.7501703817782 44.5179048389841 4.04385988856243 3.403723560418 5.21364208544972
-5.86762793573656 46.9136285735631 3.30861263609654 3.403723560418 5.21364208544972
13.8477143018378 44.893739084506 6.24960164596012 3.403723560418 5.21364208544972
-18.1061043212398 44.06329152723 2.59040753848912 -0.928288243750363 10.2657259389597
-18.1241229228841 44.1071418709085 1.48023287913664 -0.773573536458636 11.7056007847676
-14.0109324080011 45.422885693993 4.07064041762576 3.24900885312627 10.8958310334011
14.0011637374545 45.3912160525517 4.44069863740992 3.24900885312627 10.8958310334011
16.652118927995 44.7066536126628 0.370058219784159 3.24900885312627 10.8958310334011
14.0469750719167 45.5397345770988 2.22034931870496 3.403723560418 24.2003694795501
16.6506159506845 44.7026185054011 0.740116439568318 3.403723560418 24.2003694795501
14.0469750719167 45.5397345770988 2.22034931870496 3.55843826770973 6.22759503107988
15.1705611995125 45.226332878849 0.740116439568318 3.55843826770973 6.22759503107988
16.6481106869724 44.695892517107 1.11017465935248 3.55843826770973 6.22759503107988
-18.6156740547883 44.2425015837833 1.48997125334149 -0.773573536458636 6.79472310306985
15.2648527249264 45.50743387834 1.48997125334149 3.24900885312627 7.19861432382078
16.7541066493094 44.9804643960992 1.48997125334149 3.24900885312627 7.19861432382078
15.2648527249264 45.50743387834 1.48997125334149 3.403723560418 22.9835030224392
16.7541066493094 44.9804643960992 1.48997125334149 3.403723560418 22.9835030224392
15.2648527249264 45.50743387834 1.48997125334149 3.55843826770973 6.01135834539148
16.7541066493094 44.9804643960992 1.48997125334149 3.55843826770973 6.01135834539148
13.8475515295958 47.6177707615525 0.384665781091428 3.24900885312627 7.67528101593306
13.8413011795602 47.5962775947252 1.53866312436572 3.403723560418 8.86924098175834
13.9318399959401 47.9076146996412 -1.16130112392793 3.24900885312627 7.02035410514562
16.6272798765053 46.9970575130912 2.32260224785585 3.24900885312627 7.02035410514562
13.9356134871351 47.9205906570377 -0 3.403723560418 8.2801363170684
15.0805561670629 47.5159623355405 2.32260224785585 3.403723560418 8.2801363170684
16.6433130489517 47.0423753241329 0.77420074928528 3.403723560418 8.2801363170684
4.25954520010586 49.7405938787149 5.45348955471394 2.32072060937591 17.6615449376113
6.60933271738338 49.6851735895203 3.11627974555083 2.32072060937591 17.6615449376113
4.25954520010586 49.7405938787149 5.45348955471394 2.47543531666763 13.6030672046357
6.60593873559745 49.6596595805568 3.50581471374468 2.47543531666763 13.6030672046357
4.28616735760652 50.0514725904568 5.4875738644309 2.32072060937591 16.1216852207586
6.64722585269494 49.9700324529353 3.52772605570558 2.32072060937591 16.1216852207586
4.28616735760652 50.0514725904568 5.4875738644309 2.47543531666763 13.1251505620929
6.64722585269494 49.9700324529353 3.52772605570558 2.47543531666763 13.1251505620929
13.9236066519955 49.361231871831 4.39200676638569 3.24900885312627 10.9915555186126
16.3702070383467 48.8027056530865 -0 3.24900885312627 10.9915555186126
13.9881156964827 49.5899259151452 5.22220316734884 3.24900885312627 8.17294550029843
16.4695299046617 49.0988060382581 0.401707935949909 3.24900885312627 8.17294550029843
-14.5245169034336 54.8529259878264 -8.91061239743439 2.93957943854282 5.07597603775657
13.6442431517103 55.0784868121946 8.91061239743439 2.93957943854282 5.07597603775657
16.4444158745332 54.888131507222 4.00977557884547 2.93957943854282 5.07597603775657
-14.9826327989923 54.8002481646857 -8.46508177756267 3.09429414583454 12.2065859823984
13.6269886057395 55.0088344121211 9.3561430173061 3.09429414583454 12.2065859823984
16.4349679933243 54.8565963921886 4.45530619871719 3.09429414583454 12.2065859823984
-14.9050302112246 54.5164101286777 10.2472042570495 3.24900885312627 5.30144214888801
13.2492073051742 55.3741529296712 7.57402053781922 3.24900885312627 5.30144214888801
18.970170751973 53.6192457506777 8.01955115769094 3.24900885312627 5.30144214888801
-15.0274000912227 54.9639883268319 -9.40726948188155 3.09429414583454 7.33867718074902
13.7188018574574 55.3794621499662 8.95930426845862 3.09429414583454 7.33867718074902
16.0567362529257 55.2145254297416 5.37558256107517 3.09429414583454 7.33867718074902
19.0052412918405 53.7183727390612 9.40726948188155 3.09429414583454 7.33867718074902
-29.642242732994 50.7734203726022 -5.03473946390555 2.93957943854282 10.8169318604478
-25.1047537230977 52.0584837700509 -11.9002932783222 2.93957943854282 10.8169318604478
-21.4706117245587 54.8411950952312 3.66162870102222 2.93957943854282 10.8169318604478
-11.8486302542725 57.544716546937 5.49244305153332 2.93957943854282 10.8169318604478
-7.1842487655301 57.4404481431814 11.4425896906944 2.93957943854282 10.8169318604478
13.6499062094302 57.0488465088377 6.40785022678888 2.93957943854282 10.8169318604478
16.476833465595 56.6591196403283 0.457703587627776 2.93957943854282 10.8169318604478
33.0475172827662 48.1059887563848 8.69636816492777 2.93957943854282 10.8169318604478
-28.2825365757536 48.4444153466789 18.3081435051111 3.09429414583454 9.17570550839577
-25.0195878322511 51.8818794824605 -12.8157004535778 3.09429414583454 9.17570550839577
-11.4339808698275 57.8444304938631 2.28851793813889 3.09429414583454 9.17570550839577
-7.31774775668959 58.5078167893863 2.28851793813889 3.09429414583454 9.17570550839577
13.7538065708737 57.4830909410894 5.06151999296888 2.93957943854282 39.3502132232755
16.5649745224436 56.9622115357241 -0 2.93957943854282 39.3502132232755
16.564476196795 56.9604979362875 0.460138181178987 3.09429414583454 35.0864584693029
16.190047115557 57.3960964038252 -0 2.93957943854282 22.9812762292106
16.190047115557 57.3960964038252 -0 3.09429414583454 25.3330305654326
-27.2079956658441 54.0118748722374 7.0846672340257 2.93957943854282 12.0092828874126
-12.226778028345 59.3812500537541 5.66773378722056 2.93957943854282 12.0092828874126
13.1573064005704 59.1348907299844 6.1400449361556 2.93957943854282 12.0092828874126
13.244406327508 59.526357228159 5.22220316734884 2.78486473125109 11.8010928851239
13.2351720925384 59.4848543962513 5.6969489098351 2.93957943854282 40.644868180165
13.244406327508 59.526357228159 5.22220316734884 3.09429414583454 9.90634169700488
13.3207952071132 59.8696834311763 4.7718033603747 2.78486473125109 8.65609253544497
13.303044769936 59.7899049316167 5.72616403244963 2.93957943854282 21.9999552674967
13.3207952071132 59.8696834311763 4.7718033603747 3.09429414583454 5.85489201080558
5.29999190736325 1.94898949825512 0.175290735687234 -3.01082963269032 5.08396565591305
-9.94140095590268 4.82134675936176 -2.36642493177766 1.66114738355328 21.31613137645
-7.03513603978317 8.19092640859984 -3.33052397805744 1.66114738355328 21.31613137645
-9.90302873235031 5.01818305499658 -2.1034888282468 1.76496909502536 30.3263041900161
-7.08571219011934 8.24981162746287 -3.06758787452659 1.76496909502536 30.3263041900161
-2.53244692416086 10.9696868735183 -0.964099046279786 1.76496909502536 30.3263041900161
-2.53405798036192 10.9766654134801 -0.876453678436169 1.86879080649744 5.14928065442325
-2.15598315495052 10.9071039362651 -2.01584346040319 1.86879080649744 5.14928065442325
-2.81375303888538 10.9813287459861 -2.5222389190552 1.66114738355328 110.41542342905
-2.74366520676469 11.0755082731667 -2.16191907347588 1.76496909502536 160.668865203331
-2.30772639765295 11.2078323461007 -1.98175915068623 1.86879080649744 24.8620667460935
-2.89963720813894 11.3165117857254 -2.40537842859704 1.66114738355328 136.805684188927
-2.90871568563719 11.3519426656014 -2.22034931870496 1.76496909502536 181.125340275443
-2.91297279602203 11.3685570336706 -2.12783476375892 1.86879080649744 24.5734724735677
-2.47061736608263 11.5353132498389 -1.75777654397476 1.86879080649744 24.5734724735677
-3.35841843966663 11.5486408582503 -2.27877956393404 1.66114738355328 38.769910575869
-3.3725175396542 11.5971236322423 -1.99393211844228 1.76496909502536 43.2406413929019
-2.89197143415737 11.6741843960406 -2.27877956393404 1.76496909502536 43.2406413929019
-3.23805306211406 11.4793739874429 -2.7535253064203 1.86879080649744 7.94253207948645
-2.61595929908248 12.2139147801717 -1.26598864663002 1.76496909502536 8.62950771577816
-2.57992908142776 12.5298270362033 1.39745669839545 1.76496909502536 7.34189077163674
-2.64703441850768 12.85573454772 -1.22703514981064 0.20764342294416 22.0143198396072
4.18296349094473 12.8165696257727 0.628125136212587 -0.10382171147208 39.5665317506655
6.02913130038194 11.713817789231 2.93125063565874 0 19.6967441918434
-2.99918406666363 12.9914312412478 -2.09375045404196 1.76496909502536 11.0596362867239
-3.18218647764701 13.2997300597102 -1.92819809255957 1.76496909502536 11.4192142131378
-3.17857204993088 13.2846238070495 -2.03532020881288 1.86879080649744 5.20478615372938
-1.96035887050327 13.9032181988423 -1.5337939372633 1.76496909502536 8.79692487377503
-1.96196947431186 13.9146408911461 -1.42423722745877 1.86879080649744 10.4416422657869
3.8525744979765 13.2479022659252 -4.25566952751784 -0.31146513441624 7.01546627752787
4.77357596532506 13.4925270911266 1.90385215704746 -0.31146513441624 7.01546627752787
5.00045289200747 13.0920787774124 -3.47173040402771 -0.31146513441624 7.01546627752787
3.7724856567765 13.3740160787013 -3.91969561745064 -0.20764342294416 6.12802793186415
4.64081473405407 13.468175878624 2.35181737047039 -0.20764342294416 6.12802793186415
7.36915711530535 12.36532595788 -1.11991303355733 0 23.0006368740029
-2.0021525427763 14.1996264502527 -1.67986955033599 1.76496909502536 8.74224928482546
-2.00392240095889 14.212178603261 -1.56787824698026 1.86879080649744 11.5284940519761
4.46207295871412 14.0591426666187 0.228851793813888 -0.10382171147208 12.283233460628
4.80227196532754 13.9367432557507 -0.572129484534721 -0.10382171147208 12.283233460628
6.95452617966398 12.9488315603103 -1.25868486597639 0 11.3376513368552
4.9952848255787 14.1191878638983 -1.63604686641418 -0.10382171147208 5.59653466243276
4.6533267135537 18.1606948789844 6.28855514277951 -0.41528684588832 5.67626531018711
-17.0278044394823 46.8965839678382 1.16130112392793 -0.62293026883248 5.30873121796908
7.34937366122315 49.3236745535924 -1.93550187321321 -0.62293026883248 5.30873121796908
-6.35034985721673 54.2092983948276 -19.8175915068623 -0.31146513441624 6.08756341204304
