VERSION .7
FIELDS x y z velocity SNR
SIZE 4 4 4 4 4
TYPE F F F F F
COUNT 1 1 1 1 1
WIDTH 273
HEIGHT 1
VIEWPOINT 0 0 0 1 0 0 0
POINTS 273
DATA ascii
-0.620978949148213 3.01588089454167 -0.608648387802895 0 5.39608926053228
0.0729300657407619 3.13324799315515 -0.17042154858481 0 5.39608926053228
4.0029052509674 5.59666206124176 2.18383041543679 -2.32072060937591 5.78420272988471
4.9349786906027 6.49451522147238 -0.253197729326005 -3.24900885312627 17.0425675995015
4.89616635697223 7.27239552190735 -0.613517574905319 -4.02258238958491 19.1107156561659
4.89616635697223 7.27239552190735 -0.613517574905319 -3.86786768229318 10.2610452125307
5.2604240897091 6.6477543044566 -2.31773306075342 -2.63015002395936 11.3085784931168
-7.88863790573753 3.65081150228522 -1.29520376924456 3.71315297500145 68.5402249648973
-6.06090124137317 6.21637171580278 -1.36337238867849 3.71315297500145 68.5402249648973
7.44762056974757 4.55235841449261 1.02252929150886 3.71315297500145 68.5402249648973
-7.87917161378512 3.64643056251376 -1.36337238867849 3.86786768229318 56.0637320049913
-6.04518765289545 6.20025505211259 -1.49970962754633 3.86786768229318 56.0637320049913
4.97878271204878 7.5460015953417 -1.05904819477704 -4.02258238958491 11.3763405010883
-2.54060770110559 8.48003423596844 -2.11809638955408 3.71315297500145 527.557353577808
-2.54537064882666 8.49593199134452 -2.04749317656894 3.86786768229318 474.137958426574
-2.54996369148988 8.51126263802973 -1.9768899635838 4.02258238958491 21.9190949059798
-2.62821486321268 8.77244920962252 -2.19113419609042 3.71315297500145 1595.73783283624
-2.63789347395505 8.8047544531342 -2.04505858301773 3.86786768229318 1803.15632643711
-2.64247008166954 8.82003024328731 -1.97202077648138 4.02258238958491 67.3495449189486
-2.72091345219401 9.08185833557518 -2.18869960253921 3.71315297500145 378.189869519587
-2.72582325642021 9.09824626823868 -2.11322720245165 3.86786768229318 811.229667718579
-2.73055241772519 9.11403125139689 -2.03775480236409 4.02258238958491 31.9079178964012
-3.73278656581786 9.08416629775046 -2.1034888282468 3.55843826770973 19.5792592334453
-3.81531211597229 9.0675713292323 -2.02558183460803 3.71315297500145 35.0158327289242
-3.46433024568758 9.07023533008546 -2.57093079007943 3.71315297500145 35.0158327289242
-2.90427077755472 9.41553036669691 -1.94767484096926 3.86786768229318 31.0179201340659
-3.64635443389963 9.54680716526377 -1.68717333098963 3.71315297500145 6.81496217673418
-3.3202140586238 9.63564146788547 -1.84785650536959 3.71315297500145 6.81496217673418
-3.34129580152936 9.69682310032525 -1.44614856941968 3.86786768229318 8.87677578110394
-2.6416041191678 9.97621581503992 -0.883757459089804 3.86786768229318 8.87677578110394
3.89001232298154 9.93604315816808 -0.165552361482387 -4.17729709687663 25.6268412598329
5.45269949184129 9.14954119066715 0.662209445929551 -4.17729709687663 25.6268412598329
-0.417966600388221 10.7689099323681 -2.13026935731013 -4.02258238958491 10.9743037076463
7.0952039120605 8.26086272803453 -1.44858316297089 -4.02258238958491 10.9743037076463
-10.4790907206656 4.1153341534791 -0.964099046279786 3.86786768229318 5.5271548907797
-3.55826306136893 10.6078600236064 -1.5776166211851 3.86786768229318 5.5271548907797
-3.29415648811018 10.6795243357327 -1.66526198902872 3.86786768229318 5.5271548907797
-3.65710370196251 10.90252280204 -1.62143930510691 3.86786768229318 9.55130508438566
5.36484295799676 10.8837467323746 1.61413552445328 -4.95087063333527 6.96306566600558
4.2354023352606 11.3709652165905 1.61413552445328 4.48672651146009 10.3854550918937
4.26340620925707 11.1623589217125 2.65857615792304 4.64144121875182 15.5399936554137
4.24776348162482 11.1214034669011 2.84847445491755 4.79615592604354 10.1252183396842
4.15093562202179 11.7326322531536 1.65552361482387 4.17729709687663 7.29326618264576
4.55370692803247 11.6312815512884 1.26598864663002 4.17729709687663 7.29326618264576
3.94913497112624 11.7731236464343 1.8502910989208 4.33201180416836 11.3426742180038
4.24746900858043 11.6980311654166 1.65552361482387 4.33201180416836 11.3426742180038
4.65737365362917 11.6097821011667 1.0712211625331 4.33201180416836 11.3426742180038
5.12143581476034 11.3564422200487 1.55813987277541 4.48672651146009 27.0673844096424
4.39462025551043 11.5059007302951 2.43459355121158 4.64144121875182 47.8245685366196
5.09885342528219 11.3063672780647 1.94767484096926 4.64144121875182 47.8245685366196
4.42455221595968 11.3013888191614 3.21366348759929 4.79615592604354 23.1427520405518
4.41976546764856 11.8659327780314 2.29582171879252 4.33201180416836 18.9970192030267
4.81935793439165 11.7284629465024 2.19600338319285 4.48672651146009 24.5711614292319
4.69283390264592 11.698176504312 2.59527672559155 4.64144121875182 32.4630802032943
4.55381508643591 11.6315578143115 3.09436840358992 4.79615592604354 13.0475973470253
5.31820254742559 11.2747229494121 3.19418673918959 4.79615592604354 13.0475973470253
5.78843076726349 10.7776451001057 3.99273342398699 4.79615592604354 13.0475973470253
-4.3503587822058 11.679593690621 4.29462302433723 4.17729709687663 5.86961759899565
3.55846965453778 12.236559792507 3.37434666197925 4.17729709687663 5.86961759899565
4.34364588965077 12.2773284150267 2.04505858301773 4.17729709687663 5.86961759899565
4.43313761212333 12.2093844222141 2.2495644413195 4.33201180416836 25.9874736871285
4.88683277262956 12.1817719329562 1.22703514981064 4.33201180416836 25.9874736871285
4.59791996680296 12.3442317571387 0.511264645754432 4.48672651146009 25.5181995921773
4.90681157089714 12.2315745710479 0.30675878745266 4.48672651146009 25.5181995921773
4.26554948742423 11.7478269389874 4.19237009518634 4.64144121875182 19.1530122470424
4.74462620605037 11.827283035538 3.37434666197925 4.64144121875182 19.1530122470424
3.94679471604488 12.4355989922501 3.45468824916923 4.17729709687663 16.0318926858795
4.00531422200598 12.6199828180413 2.61718806755245 4.33201180416836 23.0257168761244
4.36288352898923 12.6615876895925 1.67500036323357 4.48672651146009 16.2091333681311
5.01274174642395 12.4956346072974 -0.942187704318882 4.48672651146009 16.2091333681311
4.83627974881161 12.055754646234 3.66406329457343 4.64144121875182 10.5245732686711
4.14213398940906 12.6914683308773 3.53502983635921 4.17729709687663 20.3399011920339
4.13319035620001 12.6640651039595 3.64215195261252 4.33201180416836 19.146013769207
4.11648492554309 12.9702605467647 -2.35668655757281 4.48672651146009 7.81968718902877
5.09497941170515 12.3992195758997 3.3207856038526 4.48672651146009 7.81968718902877
5.24503462879746 12.7643962400021 -0.535610581266548 4.64144121875182 5.55539895730895
4.21768582745199 12.9229586115667 3.83448484315824 4.17729709687663 6.83946269852502
4.24512841923107 13.0070425126119 3.50581471374468 4.33201180416836 9.42914463044616
4.12237793695181 13.3645853369951 1.97202077648138 4.48672651146009 5.67400699539747
5.20028231355806 12.6554863233284 3.50581471374468 4.48672651146009 5.67400699539747
-5.25963120012064 13.7706538786073 -0.572129484534721 4.17729709687663 5.46797434977004
-4.68793215662927 13.9756187949058 0.572129484534721 4.17729709687663 5.46797434977004
-1.59805429706733 14.6289995235444 1.0298330721625 4.17729709687663 5.46797434977004
4.56586942019236 13.9897906000765 1.0298330721625 4.17729709687663 5.46797434977004
-4.68920312465059 13.9794077926927 0.457703587627778 4.33201180416836 5.06260269554372
-4.15975047477227 13.8844050672618 2.74622152576666 4.33201180416836 5.06260269554372
-1.71012938844196 14.5983947965421 1.25868486597639 4.33201180416836 5.06260269554372
-1.09874234368652 14.1225290762892 4.11933228864999 4.33201180416836 5.06260269554372
4.55370692803247 13.9525248128117 1.48753665979027 4.33201180416836 5.06260269554372
4.6721691745351 14.3154922720337 0.467441961832624 4.17729709687663 22.8493690240888
5.13799310576077 14.1506396768208 0.584302452290779 4.33201180416836 20.5182369163569
5.60862853075687 13.9810459651942 0.233720980916311 4.33201180416836 20.5182369163569
5.01531717966151 14.1758093740879 0.934883923665248 4.48672651146009 10.0961268891231
5.49244305153332 14.0290432709959 -0 4.48672651146009 10.0961268891231
4.77051124948333 14.6168116723692 0.357885252028103 4.17729709687663 38.2856334675076
5.12582929632479 14.4881722104202 0.596475420046837 4.33201180416836 35.2487799748059
5.60535071814291 14.3174370741963 0.357885252028103 4.33201180416836 35.2487799748059
5.11980295423779 14.471138736048 0.95436067207494 4.48672651146009 16.2313441646089
5.60619423017928 14.3195916103011 0.238590168018734 4.48672651146009 16.2313441646089
4.86786862192177 14.9151139513972 0.365189032681738 4.17729709687663 15.8586914357002
5.23185610690128 14.7878573153564 0.486918710242317 4.17729709687663 15.8586914357002
5.71974563075807 14.6096296675472 0.365189032681738 4.17729709687663 15.8586914357002
5.23043805747427 14.7838491943064 0.608648387802895 4.33201180416836 12.9976368675759
5.71854039591535 14.6065512029002 0.486918710242317 4.33201180416836 12.9976368675759
5.21860599404035 14.7504058307597 1.21729677560579 4.48672651146009 6.11372693978751
5.71974563075807 14.6096296675472 0.365189032681738 4.48672651146009 6.11372693978751
4.59251427788772 19.1940983409731 1.22703514981064 3.55843826770973 6.28595560036765
5.36811728599838 19.0307647071726 -0.153379393726329 3.55843826770973 6.28595560036765
4.59015595966147 19.1842419117461 1.38041454353697 3.71315297500145 12.536215387404
5.52149206559834 18.9868326454292 0.153379393726329 3.71315297500145 12.536215387404
4.66541132991768 19.4987665686076 1.24651189822033 3.55843826770973 7.93781852154896
5.45332549688725 19.3328403374452 -0.155813987277541 3.55843826770973 7.93781852154896
5.60913479679831 19.2882109413884 0.155813987277541 3.71315297500145 15.3175869929522
4.88781662086603 19.7309253653289 1.74073438911628 3.71315297500145 5.1886641869523
5.854492889093 19.5411121961639 0.316497161657504 3.71315297500145 5.1886641869523
-5.16212284622361 20.8382327951269 2.85577823557118 3.403723560418 6.71720629074416
3.50686420167807 21.2416050749728 2.35181737047039 3.403723560418 6.71720629074416
6.62973533436296 20.3134607072838 3.52772605570558 3.403723560418 6.71720629074416
10.0546273402108 19.1220712189259 -1.51188259530239 3.403723560418 6.71720629074416
4.5993263043113 20.6714543354558 4.53564778590717 3.71315297500145 11.0710711637985
3.70388409195027 21.386736542197 3.40843097169621 3.24900885312627 10.3320841152472
3.70833405825269 21.4124312601117 3.2380094231114 3.403723560418 17.934103317624
4.25425383487777 21.5222408587562 -1.19295084009367 3.55843826770973 22.928004913664
4.85583292914762 21.0337939305555 4.09011716603545 3.71315297500145 14.0751785654187
4.31307557843952 21.8198196544287 -1.38284913708818 3.71315297500145 10.6260722482135
4.88435989369439 21.1573629047143 -5.01282812194464 3.71315297500145 10.6260722482135
4.78137764597216 21.4896754719565 3.45712284272045 3.86786768229318 8.4214007917978
5.66015288395447 21.3759913178208 2.76569827417636 3.86786768229318 8.4214007917978
3.92101244457675 21.6258808279469 5.25872207061702 3.403723560418 10.9070732145383
4.54644018861707 22.0804942290468 -1.57761662118511 3.55843826770973 10.838351063232
4.37157710443949 22.1157784716609 -1.57761662118511 3.71315297500145 5.40898556929741
5.0018809194852 21.6664234665292 4.03168692080638 3.71315297500145 5.40898556929741
5.50282884168263 21.4760754438309 4.38226839218084 3.86786768229318 7.51146113763705
7.1313577948927 21.2599360872923 2.80465177099574 3.86786768229318 7.51146113763705
5.28520291408588 22.0891429719453 -3.02133059705357 3.403723560418 5.12288264092271
4.34341046089995 21.0944487637601 7.8199144864916 3.55843826770973 6.15167514482861
5.27353999193077 22.0403985889684 -3.37678125553046 3.55843826770973 6.15167514482861
-10.9685764287752 20.422706732763 1.44127938231726 4.17729709687663 5.49183594066046
-10.9814871588088 20.4467455909406 0.900799613948285 4.33201180416836 5.20554444653635
-11.111091807117 20.6880601991571 1.64335064706782 4.17729709687663 9.20205466930537
-10.7701593260019 20.9250184844674 0.547783549022607 4.33201180416836 8.98012473711101
-11.2592396978786 20.9639010018125 1.66526198902872 4.17729709687663 7.16146328464727
-9.98676161056876 21.6505321290202 0.740116439568321 4.17729709687663 7.16146328464727
-11.0897171620395 21.0906236695808 1.11017465935248 4.33201180416836 5.7175760355235
-10.1738454198165 21.5688077721115 0.555087329676242 4.33201180416836 5.7175760355235
16.2321576199386 21.7977971265883 -4.92761734765224 -3.55843826770973 8.88042643897837
16.2321576199386 21.7977971265883 -4.92761734765224 -3.403723560418 6.18205947286084
16.3926221987432 22.0132813780775 -5.20029182538793 -3.55843826770973 13.5151830877978
16.4166139565288 22.0454993666632 -4.9836129993301 -3.403723560418 8.94749585771384
-13.9884691545421 23.9604820441671 3.25018239086746 3.24900885312627 11.2580588104739
-7.30275069316159 26.7104290440196 3.68354004298312 3.24900885312627 11.2580588104739
-13.9303328097349 23.8609018234527 4.11689769509878 3.403723560418 6.07086623402558
-11.8252020345528 25.0697252636507 3.46686121692529 3.403723560418 6.07086623402558
-7.27789172872825 26.6195052765923 4.33357652115661 3.403723560418 6.07086623402558
4.35993216513747 27.764315458987 2.84847445491755 3.09429414583454 6.1684713272285
4.35635304556282 27.741523405998 3.06758787452659 3.24900885312627 62.8686131883374
4.35250552777456 27.7170221767217 3.28670129413563 3.403723560418 53.2817176766428
4.41172403084613 28.0941292366514 2.65857615792304 3.09429414583454 9.34908059474942
4.40475696829129 28.0497625549535 3.10167218424355 3.24900885312627 111.647021623411
4.40475696829129 28.0497625549535 3.10167218424355 3.403723560418 93.7766512090365
4.45681954658497 28.3813002469645 2.91177388724905 3.24900885312627 18.1221863551251
5.36765283852006 28.3296652320038 1.56787824698026 3.24900885312627 18.1221863551251
4.45316089101977 28.3580017039091 3.13575649396052 3.403723560418 13.2102345346695
5.3697577837244 28.34077481654 1.34389564026879 3.403723560418 13.2102345346695
30.073357191202 15.8826879416858 3.71518975914887 -4.79615592604354 6.08463268178644
14.7580527649374 33.4808664756967 3.1333219004093 4.79615592604354 49.0329842799613
14.8841899680566 33.7670277276257 3.16010242947263 4.79615592604354 15.7786487783999
-16.1230781534115 44.4048609513199 6.66104795611488 4.02258238958491 8.19557726738297
-6.25378681651906 47.0123833762172 -5.18081507697825 4.02258238958491 8.19557726738297
14.4318364042623 45.4719698279645 -0.370058219784159 4.02258238958491 8.19557726738297
-15.9355520635775 45.0418867305563 4.84240657335983 3.86786768229318 11.7067726763579
-6.31329962348789 47.4597665344699 3.72492813335372 3.86786768229318 11.7067726763579
13.7805755697112 45.9967717848166 0.744985626670741 3.86786768229318 11.7067726763579
16.7601594766758 44.9967146797787 0.744985626670741 3.86786768229318 11.7067726763579
-16.2927603904049 44.8721858670654 5.21489938669521 4.02258238958491 61.8444101892285
13.7718650434241 45.9676978112567 1.86246406667686 4.02258238958491 61.8444101892285
16.3891907343951 45.1377664203336 0.372492813335371 4.02258238958491 61.8444101892285
13.7619034052817 45.9344478795743 2.6074496933476 4.17729709687663 20.9396136369125
16.3877114883052 45.1336924019417 0.744985626670741 4.17729709687663 20.9396136369125
13.8723140548036 46.3029762783323 -0 3.86786768229318 33.8590141714861
16.494820713719 45.4286838555492 0.749854813773164 3.86786768229318 33.8590141714861
13.8718967327069 46.3015833416481 0.374927406886582 4.02258238958491 216.277371749389
16.4923388910709 45.4218486229376 1.12478222065975 4.02258238958491 216.277371749389
13.8685577038551 46.2904383392276 1.12478222065975 4.17729709687663 58.6511012413806
16.4923388910709 45.4218486229376 1.12478222065975 4.17729709687663 58.6511012413806
16.5994320007532 45.7167956919178 1.13208600131339 3.86786768229318 16.411726152553
16.5959342553799 45.7071624881666 1.50944800175118 4.02258238958491 104.301793981361
13.9623940161984 46.6036449554643 -0 4.17729709687663 29.2813148584556
16.5959342553799 45.7071624881666 1.50944800175118 4.17729709687663 29.2813148584556
-7.33274823627717 49.2120967393254 3.87100374642641 3.86786768229318 19.4531053327934
16.6272798765053 46.9970575130912 2.32260224785585 3.86786768229318 19.4531053327934
13.5485131124924 48.0314701484642 -0 4.02258238958491 17.5077804582694
16.6207619823196 46.978634665206 2.70970262249849 4.02258238958491 17.5077804582694
13.6136122716089 48.2622562348656 2.72674477735697 3.86786768229318 58.5921847651964
16.3525921108728 47.4570951959204 1.55813987277541 3.86786768229318 58.5921847651964
13.6234665683051 48.2971911648959 1.94767484096926 4.02258238958491 50.0386980700363
16.3560385696571 47.4670972140413 1.16860490458156 4.02258238958491 50.0386980700363
14.0018122558259 48.1482292966542 6.27151298792103 3.86786768229318 27.8811246404646
16.4547958115658 47.7537020408949 1.56787824698026 3.86786768229318 27.8811246404646
14.0018122558259 48.1482292966542 6.27151298792103 4.02258238958491 23.0447773419462
16.4547958115658 47.7537020408949 1.56787824698026 4.02258238958491 23.0447773419462
-18.8711833065207 48.2016189695705 1.60683174379964 3.71315297500145 10.258806863724
-17.2604455896651 48.786702341211 2.00853967974955 3.71315297500145 10.258806863724
13.6379222935224 49.8818556232648 2.81195555164937 3.71315297500145 10.258806863724
16.462096075901 49.076644378602 -1.60683174379964 3.71315297500145 10.258806863724
-17.254724400147 48.7705313815098 2.41024761569946 3.86786768229318 15.0727860754747
13.6317487296032 49.859275290464 3.21366348759929 3.86786768229318 15.0727860754747
16.4655656136504 49.0869877315687 -1.20512380784974 3.86786768229318 15.0727860754747
13.7205763680286 50.1841698997695 2.82899770650785 3.71315297500145 27.974936598893
16.5653569203998 49.3844846269115 -1.21242758850337 3.71315297500145 27.974936598893
13.7143653885705 50.1614527164668 3.23314023600898 3.86786768229318 44.706477183685
16.5678497310466 49.391916170322 -0.808285059002242 3.86786768229318 44.706477183685
14.2147800026581 50.3934841923814 2.439462738314 3.71315297500145 14.1559772656703
16.2625956782173 49.8284745388941 -0.406577123052333 3.71315297500145 14.1559772656703
16.2625956782173 49.8284745388941 -0.406577123052333 3.86786768229318 13.7484325419517
-15.0430415601278 55.0211983238436 3.10167218424355 0.773573536458636 5.41379661597501
-15.0285106234842 54.9680501926162 3.98786423688457 0.928288243750363 5.32411045337229
6.79938786072714 58.0424785613109 5.46322792891879 2.93957943854282 9.24303893737201
13.1880917491569 61.5752044742377 7.37681846017109 3.403723560418 5.93041614806317
13.1756183649542 61.5169662395199 7.86860635751583 3.55843826770973 12.762795371909
13.2533793320735 61.8800322191597 7.41333736343926 3.403723560418 6.04384345631916
13.2408441984441 61.8215056763492 7.90755985433521 3.55843826770973 14.9417921330723
13.319379006818 67.3826466873323 9.68481314671966 3.403723560418 12.643529445481
13.3042504362637 67.3061113530632 10.2228583215374 3.55843826770973 7.60121077383474
13.3644506644821 67.6106638931223 10.2691155990104 3.403723560418 14.3159587874682
13.3644506644821 67.6106638931223 10.2691155990104 3.55843826770973 6.46952395527402
4.80702026414774 6.19933451718296 -0.182594516340869 1.14203882619288 15.7979291080488
5.18866952752724 5.79479359442968 1.03470225926492 1.14203882619288 15.7979291080488
5.76296547237927 5.04543472608861 1.70421548584811 1.76496909502536 7.59149192714905
-1.01129691160523 8.08565372723886 -0.443096026320507 0.934395403248721 6.91307353226762
5.43047022529261 6.06484068976034 0.56969489098351 1.0382171147208 11.6517277527655
4.99101816231819 6.4366259073867 -0.506395458652009 1.14203882619288 20.9570446158652
5.41155856104359 6.04371982433061 0.886192052641016 1.14203882619288 20.9570446158652
5.10499494997909 6.71825948738389 -0.788808310592552 1.0382171147208 11.0837986430525
5.1803188687608 6.68075602107259 -0.591606232944414 1.14203882619288 12.969164033912
-8.37987176799958 3.29093176191468 -1.34146104671758 1.5573256720812 21.3000732195013
-8.18109836252214 3.96764120601596 -0.423619277910815 1.5573256720812 21.3000732195013
-6.15457535707781 6.45007508276773 -1.83568353761353 1.5573256720812 21.3000732195013
-8.37987176799958 3.29093176191468 -1.34146104671758 1.66114738355328 18.6362725616846
-8.18381098853184 3.96895676613462 -0.353016064925679 1.66114738355328 18.6362725616846
-6.12264831744791 6.41661512967015 -2.04749317656894 1.66114738355328 18.6362725616846
-2.65110243674814 8.84884329717665 1.82594516340869 1.5573256720812 108.448887734546
-2.65110243674814 8.84884329717665 -1.82594516340869 1.66114738355328 99.0981547332199
-2.65110243674814 8.84884329717665 -1.82594516340869 1.76496909502536 7.5147669534956
-2.99839269691136 9.18705335309864 1.13208600131339 1.45350396060912 10.0190163488931
-2.68411340689383 9.22989863112722 1.50944800175118 1.45350396060912 10.0190163488931
-2.73947251797308 9.14380474041588 1.88681000218897 1.5573256720812 153.957742554081
-2.73510187313764 9.12921641266198 1.96228240227653 1.66114738355328 140.440414925394
-2.7476807541425 9.17120217123657 -1.73586520201386 1.76496909502536 11.7366375242386
4.9943185612636 8.04454569027874 -3.35000072646713 0.726751980304561 7.95543354006981
-2.75965843833666 9.48967639629609 1.79186085369172 1.5573256720812 53.0922975897231
-2.43351614173871 9.49736540193395 -2.18139582188558 1.5573256720812 53.0922975897231
-2.82784259919802 9.4387661836551 -1.94767484096926 1.66114738355328 47.5454608800059
-2.44179975422227 9.52969413534772 -2.02558183460803 1.66114738355328 47.5454608800059
-2.5221298857712 9.52501242386852 -1.94767484096926 1.76496909502536 5.50365203099235
5.9602133627741 8.16696382088924 -2.2495644413195 1.0382171147208 18.5224753988461
-4.39960390988227 9.32727077028779 -0.964099046279786 1.5573256720812 7.40894851225879
-4.01964450544786 9.33232060967947 -2.00853967974955 1.5573256720812 7.40894851225879
-3.77715899481257 9.41560547908043 -2.08888126693954 1.5573256720812 7.40894851225879
-3.24569003744744 9.67602029514101 -1.76751491817961 1.5573256720812 7.40894851225879
-2.61025880841161 9.54724262378194 3.05298031321932 1.5573256720812 7.40894851225879
-2.62530384405878 9.91465660518252 -1.44614856941968 1.66114738355328 7.35442039580886
5.30329451545087 9.27369044395602 -3.68110544943191 0.62293026883248 7.01288938057111
6.58831297622036 9.78578224103033 1.75777654397476 0.31146513441624 40.9576796084493
6.77664373641697 10.0655145207844 1.61413552445328 0.20764342294416 12.5680318338329
4.47843913216802 11.7253535198593 -0.29215122614539 0.31146513441624 17.3770156789674
5.68290154381581 11.0411384131211 -1.8502910989208 0.5191085573604 6.38685306185863
6.61491900893586 10.6549106854358 0.584302452290779 0.5191085573604 6.38685306185863
5.71214153083881 11.3394414423362 -2.09618504759317 0.5191085573604 7.73495403244382
5.92906398150071 11.7700644255954 0.30675878745266 0.31146513441624 16.9045767103698
5.60203836052848 19.2638083258936 7.28430390522505 0 9.31953564156862
5.70123497526598 19.6049171241383 7.22343906644476 0 7.77368811577962
15.7540427529378 15.1247952537653 -6.93128784029937 1.97261251796952 8.34508647000591
