VERSION .7
FIELDS x y z velocity intensity
SIZE 4 4 4 4 4
TYPE F F F F F
COUNT 1 1 1 1 1
WIDTH 767
HEIGHT 1
VIEWPOINT 0 0 0 1 0 0 0
POINTS 767
DATA ascii
-6.597440 1.476020 11.018300 -11.899200 4.350000
-6.678040 -0.598827 11.553300 -11.899200 5.730000
-6.991740 -0.159915 11.883600 -11.899200 7.410000
-7.304470 -0.164912 12.199100 -11.899200 7.770000
-6.371610 0.916933 13.160600 -12.520800 3.160000
-6.929410 1.114470 13.833900 -12.432000 8.680000
-6.246630 1.466620 15.064600 -12.787200 3.550000
7.842170 1.226890 14.321600 -12.520800 4.040000
8.605020 1.176390 13.881100 -12.165600 4.570000
-5.986400 1.660440 15.614700 -12.964800 5.750000
8.023990 1.815520 14.653700 -12.520800 4.880000
-6.139900 1.703010 16.015000 -12.964800 4.540000
7.909360 1.862070 15.200500 -12.698400 8.900000
-6.305070 1.378230 16.445900 -12.964800 5.150000
8.226940 1.908630 15.517500 -12.609600 9.070000
-6.561970 1.188540 16.824300 -12.964800 6.280000
-6.116870 1.216840 17.447500 -13.142400 5.380000
-6.393810 1.362130 17.796900 -13.142400 8.960000
9.061230 1.333270 17.091200 -12.698400 15.560000
0.355365 7.259900 18.440600 1.065600 7.880000
9.262590 1.362900 17.471000 -12.698400 16.870000
0.504444 2.125660 20.134100 1.065600 7.770000
9.187670 1.392520 17.994500 -12.787200 14.230000
-0.238016 1.979950 20.586800 1.065600 6.010000
-0.405061 1.956190 21.019400 1.065600 3.950000
-5.879890 1.777320 20.200800 -13.408800 7.600000
-0.124005 1.996110 21.452000 1.065600 4.970000
-6.118950 1.813590 20.578100 -13.408800 8.840000
-6.402910 1.849860 20.940900 -13.408800 8.250000
-6.531750 1.748000 21.362200 -13.320000 8.070000
-6.193270 1.834420 21.905200 -13.408800 7.560000
-0.267768 2.227450 23.160200 1.065600 4.960000
-0.454527 2.268700 23.586300 1.065600 8.140000
9.456340 -3.124280 21.505400 -13.142400 8.910000
-6.239010 1.510240 23.260900 -13.497600 6.870000
7.658970 -1.584720 22.827700 -13.320000 7.360000
9.628270 -3.181090 21.896400 -13.142400 7.390000
8.596760 -1.613020 22.951100 -13.320000 8.210000
9.731340 -1.564180 22.966600 -13.231200 7.950000
10.360400 -2.469370 22.609100 -12.876000 10.950000
-5.581020 1.218250 24.773000 -13.675200 7.090000
10.639300 -3.195560 22.867600 -12.964800 9.350000
18.472500 1.538310 18.023000 -10.300800 5.330000
-5.869620 1.238890 25.148400 -13.675200 5.050000
18.780400 1.563950 18.323400 -10.300800 7.430000
-6.115140 1.259540 25.532600 -13.586400 6.820000
19.088200 1.589580 18.623800 -10.300800 10.390000
-6.215380 1.280190 25.951200 -13.586400 4.410000
18.497100 1.699020 19.796800 -10.656000 9.140000
18.790700 1.725990 20.111100 -10.656000 6.110000
-6.253290 1.896200 26.792300 -13.675200 7.040000
9.469970 0.810137 25.888000 -13.408800 4.140000
9.614900 1.082510 26.284200 -13.408800 6.340000
-5.330780 1.516510 27.894100 -13.764000 8.530000
9.762820 1.099170 26.688500 -13.408800 8.160000
-5.412200 1.472610 28.320200 -13.764000 8.340000
-5.657390 1.652950 28.702300 -13.764000 5.300000
-5.400440 1.952600 29.172300 -13.764000 8.780000
-5.079040 1.980900 29.666200 -13.852800 7.820000
-5.147010 2.386690 30.063200 -13.852800 4.550000
-5.617640 2.720390 31.709000 -13.764000 3.940000
9.189310 -2.222110 30.903700 -13.586400 5.040000
11.546200 -2.022650 30.116700 -13.320000 8.500000
9.729020 -2.453780 31.173400 -13.497600 7.890000
9.001560 2.486070 31.838000 -13.675200 4.950000
10.946300 -2.486070 31.222800 -13.408800 7.940000
10.707200 1.119230 32.747900 -13.586400 8.440000
10.841000 1.133220 33.157200 -13.586400 17.280000
-8.683770 1.584000 34.213500 -13.586400 8.320000
-8.789670 1.603310 34.630700 -13.586400 8.750000
19.055700 1.713800 30.216800 -12.165600 13.110000
19.027100 2.066180 31.228200 -12.343200 6.730000
19.006800 2.090490 31.743000 -12.343200 7.900000
-20.062900 -4.998830 30.752900 -0.088800 10.100000
11.893700 -2.693300 35.449400 -13.497600 8.380000
19.227900 2.114800 32.112100 -12.343200 7.230000
12.306400 -2.724260 35.763100 -13.497600 6.050000
19.448900 2.139110 32.481200 -12.343200 7.820000
-19.992100 1.064670 35.210800 -12.165600 8.880000
19.215800 -0.381135 40.482900 -12.964800 8.230000
-18.353500 -0.381135 40.881100 -12.698400 8.960000
19.400500 -0.384799 40.872200 -12.964800 7.240000
-17.651000 -0.384799 41.657600 -12.787200 5.610000
19.586000 0.000000 41.262900 -12.964800 8.350000
-17.819800 0.000000 42.055900 -12.787200 6.300000
12.011000 1.135980 45.837900 -13.764000 10.080000
-3.677540 2.550490 47.620100 -14.030400 8.250000
11.763300 1.146310 46.346600 -13.764000 10.040000
-3.711690 2.312600 48.062300 -14.030400 8.010000
-3.745870 2.032370 48.504800 -14.030400 8.660000
-16.439600 -2.596440 45.758900 -13.142400 9.460000
-3.496090 2.050360 48.955100 -14.030400 8.110000
-17.206200 -2.619420 45.936000 -13.053600 7.670000
-4.765340 1.187610 49.309500 -13.941600 6.330000
-16.996600 -2.795420 46.463400 -13.053600 7.890000
-7.386300 1.313850 49.418200 -13.941600 9.630000
-17.134700 -3.282630 46.840900 -13.053600 7.870000
-17.045500 0.272860 47.445500 -13.053600 8.850000
-17.191200 0.275192 47.851000 -13.142400 10.590000
-2.686180 2.318040 51.586100 -14.030400 12.220000
-3.475510 1.776780 54.584900 -14.030400 6.110000
-3.183710 2.302160 55.015100 -14.030400 10.790000
-3.208980 2.148370 55.451800 -14.030400 6.180000
-6.135400 2.165020 55.637900 -13.941600 11.170000
15.685500 0.623008 71.551200 -13.852800 4.570000
16.193500 0.626673 71.879700 -13.852800 6.350000
16.287100 1.088740 72.294900 -13.852800 7.730000
16.381700 1.095070 72.715200 -13.852800 7.590000
16.477100 0.869538 73.138500 -13.852800 6.630000
16.572300 0.641332 73.561100 -13.852800 8.270000
16.239100 0.644997 74.076600 -13.941600 7.010000
16.330800 0.884530 74.495100 -13.852800 6.650000
16.423100 0.889527 74.916000 -13.852800 6.060000
16.515400 0.894524 75.336900 -13.852800 6.550000
16.607000 1.139380 75.754700 -13.852800 7.140000
16.699900 0.904519 76.178700 -13.852800 7.860000
16.792200 0.909516 76.599500 -13.852800 6.380000
16.901200 -19.298300 75.020900 -13.852800 6.000000
16.468400 0.924508 77.991400 -13.852800 7.800000
16.557400 0.929506 78.413000 -13.852800 9.510000
16.646400 0.934503 78.834600 -13.852800 15.460000
16.735400 0.939500 79.256100 -13.852800 16.930000
16.765800 6.855380 79.400300 -13.852800 14.900000
16.854500 6.891650 79.820400 -13.852800 10.520000
17.623100 0.699968 80.389900 -13.941600 8.150000
17.090800 1.215340 80.939100 -13.852800 17.150000
27.333600 1.436880 93.906600 -13.675200 10.820000
26.726200 1.443210 94.529100 -13.675200 10.570000
26.843400 1.449540 94.943700 -13.675200 10.740000
26.960700 1.455870 95.358300 -13.675200 9.450000
17.521500 1.846630 102.341000 -13.941600 8.200000
16.802500 1.531830 102.904000 -13.941600 8.370000
16.872600 1.214350 103.333000 -14.030400 7.810000
16.943100 0.243876 103.765000 -14.030400 8.160000
16.242600 4.439890 168.071000 -14.119200 6.960000
17.580800 4.974750 168.355000 -14.119200 5.520000
7.664870 0.527502 6.922440 -9.412800 5.610000
7.989310 0.527502 6.545330 -8.880000 5.550000
7.888400 0.807165 7.291660 -9.590400 9.440000
8.256130 0.549481 6.897910 -9.057600 8.730000
8.145250 0.839451 7.646330 -9.679200 9.550000
8.433800 0.839451 7.326840 -9.235200 8.560000
7.743920 1.210350 8.005180 -10.212000 7.840000
7.904340 1.106960 7.862070 -9.945600 7.120000
8.684460 0.871738 7.692670 -9.324000 6.920000
7.977450 1.256900 8.374810 -10.300800 9.910000
8.128900 1.192110 8.835660 -10.389600 7.430000
8.205470 1.277260 9.906880 -10.744800 4.840000
8.379970 1.319840 10.318300 -10.833600 4.070000
8.567940 1.362410 10.717500 -10.922400 5.870000
8.786700 0.549583 11.166500 -11.100000 7.870000
-6.690450 1.125870 14.902500 -12.432000 6.510000
8.368880 1.344610 15.007800 -12.165600 7.430000
8.578100 1.378230 15.383000 -12.165600 6.460000
8.076500 1.523420 16.123900 -12.432000 6.290000
-6.636100 1.245140 17.716600 -12.787200 9.090000
9.179710 1.626750 17.978900 -12.432000 10.640000
9.126520 1.661360 18.486200 -12.520800 8.110000
-5.721330 1.813590 20.692100 -13.231200 8.850000
-5.672910 1.849860 21.150300 -13.231200 5.690000
-10.516700 1.570290 20.211300 -12.254400 8.090000
-10.712700 1.671710 20.588100 -12.254400 11.490000
-10.908600 1.775760 20.964600 -12.254400 15.080000
-10.776600 1.808050 21.514400 -12.343200 14.200000
18.495500 1.669610 17.362600 -9.768000 7.760000
8.101190 -1.916070 23.107500 -13.053600 8.770000
18.809000 1.697910 17.656900 -9.768000 7.490000
19.122500 1.726210 17.951200 -9.768000 8.640000
9.399890 -1.669610 23.562400 -12.876000 9.180000
18.699300 1.384690 19.630700 -10.212000 10.890000
9.739550 0.000000 24.413900 -12.876000 11.450000
18.996100 1.406670 19.942300 -10.212000 9.110000
9.867230 -2.145920 24.733900 -12.964800 6.700000
-5.949480 2.034050 26.408500 -13.320000 8.420000
10.368800 -2.034050 25.005900 -12.876000 5.690000
-5.887340 2.151380 26.855800 -13.320000 6.970000
10.189800 -2.066340 25.542500 -12.876000 5.620000
-5.979330 2.185000 27.275400 -13.320000 9.770000
-5.172060 2.227770 29.193900 -13.497600 10.580000
-5.248210 2.167030 29.623800 -13.497600 4.990000
-5.554600 2.197980 30.005000 -13.497600 10.060000
-5.986780 2.037490 30.373400 -13.497600 9.410000
-8.668750 1.232400 30.660900 -13.142400 6.100000
-10.366300 1.330940 30.125100 -12.876000 8.760000
-8.592180 2.222110 31.075000 -13.142400 8.070000
9.491770 1.025330 33.571800 -13.320000 9.930000
19.278700 1.884150 29.550900 -11.721600 7.220000
10.781700 1.037990 33.632700 -13.231200 7.930000
10.650500 1.050650 34.125900 -13.231200 13.400000
-4.386890 2.679790 35.393300 -13.586400 6.000000
11.044700 1.063310 34.453000 -13.231200 14.950000
-4.439750 2.712070 35.819800 -13.586400 11.640000
-4.213110 2.744360 36.279700 -13.586400 6.710000
19.300600 1.042020 34.611500 -12.254400 14.850000
19.508700 1.177230 34.984700 -12.254400 10.700000
19.718500 1.189890 35.360800 -12.254400 12.020000
-8.383920 2.486930 40.872200 -13.408800 11.660000
-8.475640 2.023530 41.319400 -13.408800 7.570000
-8.562120 2.044180 41.741000 -13.408800 13.800000
-7.510310 1.798560 42.392300 -13.497600 10.840000
19.592500 0.632988 38.372900 -12.432000 9.870000
-7.917080 1.547550 42.766700 -13.497600 7.270000
19.787400 0.773898 38.754700 -12.432000 8.840000
-7.995470 1.562870 43.190200 -13.497600 8.260000
19.770100 -0.392129 41.650700 -12.609600 9.970000
19.950800 -2.337360 48.114100 -12.876000 6.490000
20.489000 -2.356680 48.355300 -12.876000 6.240000
20.668800 -1.556980 48.779600 -12.876000 6.050000
20.836800 -1.569640 49.176200 -12.876000 7.540000
21.007900 -1.290890 49.580000 -12.876000 6.020000
21.464500 -1.301210 49.853400 -12.787200 9.490000
24.434100 -4.269150 48.780100 -12.520800 8.830000
20.725700 -1.449760 51.092500 -12.876000 7.480000
23.579000 -4.302760 49.675100 -12.609600 8.980000
-15.148500 -2.022540 54.787100 -13.231200 6.290000
-15.587500 -1.373500 55.132100 -13.142400 7.610000
-15.704700 -1.383830 55.546600 -13.142400 8.400000
14.231600 1.817570 74.468900 -13.586400 5.780000
14.312400 1.827890 74.892100 -13.586400 6.220000
15.845200 0.889527 75.040400 -13.497600 7.860000
16.515400 0.894524 75.336900 -13.497600 6.100000
16.607600 0.899522 75.757800 -13.497600 8.470000
16.112300 0.904519 76.305100 -13.497600 7.880000
16.792200 0.909516 76.599500 -13.497600 7.460000
16.883700 1.158370 77.017300 -13.497600 16.590000
16.378700 1.164700 77.566700 -13.497600 19.470000
16.465900 1.664030 77.979700 -13.497600 17.030000
16.646900 0.685309 78.837000 -13.586400 14.750000
16.735900 0.688974 79.258600 -13.586400 15.970000
16.824900 0.692639 79.680200 -13.586400 10.010000
16.914300 0.443105 80.103500 -13.586400 7.270000
17.003000 0.699968 80.523400 -13.586400 14.820000
17.092000 0.703633 80.944900 -13.586400 20.110000
17.103400 5.866380 83.380200 -13.497600 11.470000
17.276100 5.925630 84.222400 -13.497600 8.900000
17.739600 1.869620 103.615000 -13.586400 8.050000
17.814500 0.897865 104.053000 -13.586400 13.810000
-11.480300 1.753380 118.793000 -13.675200 8.150000
-11.521800 1.759710 119.222000 -13.675200 9.490000
-10.580900 1.449230 124.504000 -13.675200 7.950000
-10.616500 2.229750 124.922000 -13.675200 4.690000
-10.652900 2.237410 125.351000 -13.675200 7.340000
30.348600 1.854660 122.538000 -13.408800 6.930000
16.325500 4.462550 168.929000 -13.675200 5.550000
16.367900 4.079200 169.368000 -13.675200 5.250000
7.985470 0.516206 7.211980 -9.501600 7.410000
8.158830 0.536854 7.659080 -9.679200 5.130000
8.031090 1.390950 8.302040 -10.300800 7.820000
8.177990 1.442470 8.752650 -10.389600 8.910000
8.021960 1.436300 10.034600 -11.011200 4.270000
8.374660 1.402030 10.311800 -11.011200 3.270000
8.560220 1.278720 10.174500 -10.833600 4.170000
-7.133240 0.351121 12.791900 -11.988000 5.660000
9.043680 0.871707 11.493100 -11.188800 6.960000
-7.242930 0.174907 13.227300 -11.988000 8.800000
-7.930630 0.943902 12.793200 -11.632800 8.020000
-7.973480 4.146810 12.643700 -11.721600 6.590000
-6.543490 1.051780 15.443100 -12.609600 8.750000
-7.511560 1.051780 14.996100 -12.165600 8.500000
-6.711270 1.078740 15.839000 -12.609600 7.080000
8.345330 1.862070 14.965600 -12.254400 5.970000
9.934130 1.908630 14.484100 -11.988000 5.640000
-5.969300 1.411840 17.026600 -12.964800 6.470000
-6.115600 1.274010 17.443900 -12.964800 8.100000
-6.158020 1.093860 18.354100 -12.964800 8.440000
8.263580 1.751580 18.406500 -12.787200 6.920000
-5.619170 1.102910 19.874700 -13.142400 4.470000
9.736210 0.946534 18.711400 -12.432000 6.800000
-5.729570 1.516920 20.265100 -13.142400 5.180000
-5.846500 1.547880 20.678700 -13.142400 4.190000
-10.672100 1.570290 20.129600 -12.254400 3.850000
-6.064610 1.922410 21.933700 -13.231200 4.730000
-10.873500 1.599920 20.509400 -12.254400 10.370000
-11.077100 1.556420 20.893600 -12.254400 11.860000
-11.114200 1.584720 21.359700 -12.343200 9.280000
18.511400 1.296780 17.377600 -9.768000 6.720000
8.759430 -2.124260 22.847700 -13.053600 9.000000
18.825200 1.318760 17.672100 -9.768000 7.530000
8.891230 -2.776840 23.191500 -13.053600 10.760000
7.582130 -2.776840 23.651900 -13.142400 10.410000
8.853690 -3.039490 23.637000 -13.053600 10.740000
8.818220 -3.091010 24.106300 -13.053600 9.370000
9.540130 -1.259540 24.460100 -12.964800 7.710000
-5.157280 1.589580 26.165000 -13.497600 5.490000
9.654060 -2.804060 24.752200 -12.964800 7.250000
-5.452010 0.881396 26.579000 -13.497600 4.440000
10.048800 -1.216970 25.189000 -12.876000 4.770000
-6.058860 0.724881 26.894000 -13.408800 5.930000
-6.149470 1.255610 27.296200 -13.408800 5.540000
-5.864070 1.779930 27.771300 -13.497600 5.620000
9.970420 0.923367 26.618400 -13.142400 5.510000
10.119300 1.115820 27.015700 -13.142400 5.630000
-5.574620 1.424730 29.170000 -13.497600 6.960000
-5.655410 1.445380 29.592800 -13.497600 9.150000
-5.732620 1.820330 29.996800 -13.497600 9.190000
-5.225200 1.941740 30.519900 -13.586400 10.200000
18.711700 1.468090 26.836100 -11.632800 7.620000
18.957900 1.487410 27.189200 -11.632800 6.220000
19.204100 1.506730 27.542300 -11.632800 4.920000
19.450300 1.526040 27.895400 -11.632800 6.140000
10.651100 0.917427 33.225400 -13.320000 5.920000
10.782600 0.928753 33.635500 -13.320000 7.950000
10.914100 0.940080 34.045700 -13.231200 9.250000
11.033700 1.930100 34.418800 -13.231200 8.440000
10.680300 1.101280 35.917800 -13.408800 13.670000
19.209200 1.699900 32.649400 -12.165600 8.400000
10.804600 0.908783 36.335900 -13.408800 7.180000
19.430100 1.600720 33.024800 -12.165600 7.230000
10.927400 0.919110 36.748800 -13.408800 6.400000
19.390500 1.618700 33.546300 -12.254400 8.730000
19.242600 0.836513 35.141500 -12.343200 8.490000
-20.579600 1.053340 34.369600 -11.721600 13.150000
-8.520270 3.227070 40.350600 -13.497600 6.130000
19.569900 1.227860 36.912400 -12.432000 7.890000
-9.034670 1.762590 41.212700 -13.408800 8.400000
-7.758450 1.780580 41.909800 -13.497600 5.270000
19.291600 1.132630 38.513600 -12.520800 4.930000
19.484500 1.143950 38.898800 -12.520800 8.760000
-7.916170 1.682060 42.761800 -13.497600 6.740000
19.678600 1.053360 39.286200 -12.520800 5.370000
20.091200 0.000000 41.498600 -12.609600 5.890000
20.279000 0.000000 41.886400 -12.609600 6.180000
20.463500 -0.835197 42.267600 -12.609600 4.980000
-3.527600 1.762060 49.396400 -13.675200 13.120000
-3.846240 1.777390 49.804500 -13.675200 11.720000
-3.881000 1.052390 50.254700 -13.675200 12.530000
-15.796000 -1.336500 48.311900 -12.964800 9.950000
-15.647900 -1.347820 48.812600 -12.964800 8.890000
19.964000 -1.370480 48.145900 -12.876000 8.240000
20.112800 -2.519080 48.504800 -12.876000 10.910000
12.930400 2.872170 52.208500 -13.497600 6.710000
23.841400 -1.142340 49.244600 -12.609600 10.640000
23.937800 -4.940180 49.443600 -12.609600 6.980000
-15.355100 -1.003770 54.310000 -13.231200 9.170000
-15.471400 -1.187310 54.721300 -13.231200 7.570000
-14.523400 -1.196300 55.426000 -13.320000 6.730000
-13.877100 -1.383830 56.031100 -13.231200 9.160000
32.149500 0.637667 67.731000 -12.609600 7.480000
15.489200 0.869538 73.354100 -13.586400 6.080000
32.334900 0.408123 68.121800 -12.698400 7.160000
16.146300 0.874535 73.653400 -13.586400 6.040000
15.668000 0.410456 74.201100 -13.586400 7.530000
15.325400 0.412788 74.712600 -13.586400 8.440000
16.515400 0.894524 75.336900 -13.586400 5.620000
16.607600 0.899522 75.757800 -13.586400 8.320000
16.699900 0.904519 76.178700 -13.586400 10.930000
16.792200 0.909516 76.599500 -13.586400 9.330000
16.885000 0.670650 77.022800 -13.586400 7.330000
16.977200 0.674315 77.443700 -13.586400 6.820000
17.069500 0.677980 77.864600 -13.586400 8.900000
16.557900 0.681645 78.415400 -13.586400 9.140000
16.646400 0.934503 78.834600 -13.586400 10.780000
16.735400 0.939500 79.256100 -13.586400 8.710000
16.824900 0.692639 79.680200 -13.586400 12.710000
16.914000 0.696304 80.101800 -13.586400 11.160000
17.003000 0.699968 80.523400 -13.586400 8.780000
17.092000 0.703633 80.944900 -13.586400 16.030000
17.335000 4.480590 82.095700 -13.586400 14.740000
16.963400 2.481050 82.698100 -13.586400 15.440000
17.053600 1.771970 83.137800 -13.586400 11.770000
17.802000 1.532470 84.307400 -13.586400 12.630000
17.891000 1.540130 84.728900 -13.586400 19.850000
17.437000 6.790300 85.006600 -13.586400 21.710000
17.538900 5.744600 85.503600 -13.586400 19.070000
26.961800 1.149390 95.362200 -13.408800 6.680000
27.079000 1.154390 95.776800 -13.408800 8.860000
27.196200 1.159380 96.191400 -13.408800 8.650000
16.942000 1.219350 103.758000 -13.675200 8.350000
17.012300 0.571373 104.189000 -13.675200 8.180000
17.082000 0.000000 104.616000 -13.675200 6.920000
-13.752800 2.808910 105.937000 -13.675200 5.830000
-13.808300 2.820240 106.364000 -13.675200 6.170000
-11.479700 2.122470 118.787000 -13.675200 6.100000
-11.521200 2.130140 119.216000 -13.675200 6.060000
-10.580500 1.835670 124.499000 -13.764000 5.080000
-10.617000 1.842000 124.928000 -13.675200 6.620000
-10.653500 1.848330 125.357000 -13.675200 7.950000
-43.239200 -19.575500 161.209000 -13.142400 5.280000
16.326500 4.068870 168.939000 -13.764000 7.370000
16.367900 4.079200 169.368000 -13.764000 9.420000
16.410500 3.561930 169.808000 -13.764000 7.470000
7.662640 0.583393 6.920420 -9.501600 4.600000
7.770260 0.607701 7.436430 -9.856800 4.130000
7.898050 0.607701 7.300570 -9.679200 4.790000
8.242050 1.664490 8.652580 -10.389600 3.430000
8.284090 1.237470 9.846320 -10.833600 3.380000
-6.829260 0.120937 12.471800 -11.988000 8.020000
-7.031200 0.566237 12.840600 -11.988000 8.320000
8.720090 1.537710 11.672000 -11.366400 7.870000
-7.238000 0.582891 13.218300 -11.988000 5.630000
8.883690 1.582940 12.084100 -11.455200 5.560000
-7.758040 0.551603 13.421700 -11.899200 5.770000
-7.127700 0.948623 14.229700 -12.254400 5.570000
-6.615150 1.608710 15.364300 -12.609600 8.120000
-6.450730 1.676740 16.825800 -12.787200 7.840000
-6.604320 1.716660 17.226400 -12.787200 7.130000
-6.772450 1.245140 17.664900 -12.787200 7.710000
-11.045600 1.668510 16.373700 -12.076800 10.500000
-11.156400 1.704780 16.816200 -12.076800 8.350000
-5.725850 1.695970 20.252000 -13.142400 5.300000
-5.845170 1.614330 20.674000 -13.142400 7.120000
8.545970 1.765200 20.169100 -12.876000 5.250000
-10.669800 1.640750 20.125200 -12.254400 4.800000
-6.328760 0.557663 22.384400 -13.231200 6.340000
-11.028800 1.671710 20.420500 -12.254400 4.500000
-6.314060 0.567990 22.835900 -13.231200 8.320000
-11.235500 1.629550 20.803200 -12.254400 9.180000
-6.407890 2.031220 23.175200 -13.231200 10.920000
-11.439800 1.659180 21.181500 -12.254400 9.530000
9.044550 -2.728960 22.671700 -12.964800 5.850000
9.031210 -2.623150 23.155300 -12.964800 4.930000
8.706800 -7.400150 22.710400 -13.142400 7.060000
9.044820 -6.988370 23.190200 -13.142400 6.830000
7.399570 -7.104840 24.200500 -13.408800 10.420000
9.022090 -1.097120 24.663600 -13.053600 10.850000
8.831050 -1.115110 25.189300 -13.142400 8.700000
9.014060 2.393940 26.866600 -13.231200 6.060000
10.264600 1.494590 27.403700 -13.142400 10.190000
-5.653860 1.608420 29.584700 -13.497600 5.930000
-5.733650 1.725870 30.002200 -13.497600 7.170000
-5.638440 1.750180 30.457900 -13.497600 6.380000
-4.767910 2.022650 31.899800 -13.586400 7.860000
18.720600 1.063270 26.848900 -11.632800 5.070000
18.966900 1.077260 27.202200 -11.632800 7.750000
19.213300 1.091250 27.555500 -11.632800 8.850000
10.395300 0.836494 33.308400 -13.320000 8.510000
10.783200 0.846821 33.637500 -13.320000 8.150000
10.914700 0.857148 34.047700 -13.320000 8.160000
11.046300 0.867475 34.457900 -13.320000 12.450000
-18.315500 -1.415590 31.686600 -11.810400 6.370000
18.736000 1.912200 32.414100 -12.165600 16.980000
10.792300 2.022010 36.294700 -13.408800 16.760000
18.951400 1.934170 32.786700 -12.165600 6.580000
19.169700 1.837690 33.164400 -12.165600 8.680000
11.038900 1.978130 37.124000 -13.408800 8.100000
19.382100 1.978130 33.531900 -12.165600 6.960000
-20.169800 1.139260 33.103600 -11.721600 6.890000
10.958300 -0.333493 37.648100 -13.408800 9.160000
-20.393900 1.151910 33.471400 -11.721600 7.310000
-20.356500 1.164570 33.997200 -11.721600 6.050000
-19.932500 0.854503 35.744700 -11.899200 13.370000
-8.714340 2.023530 41.269700 -13.497600 17.270000
-8.562120 2.044180 41.741000 -13.497600 16.850000
-8.323390 2.064820 42.228000 -13.497600 7.520000
19.788400 0.639318 38.756700 -12.609600 12.590000
-18.211300 -0.384799 41.415800 -12.520800 6.360000
19.903500 0.000000 41.110800 -12.698400 8.100000
-18.384700 -0.388464 41.810200 -12.520800 5.620000
20.091200 0.000000 41.498600 -12.698400 9.550000
20.278900 0.107945 41.886300 -12.698400 4.980000
11.554600 -0.108944 45.524500 -13.586400 6.330000
20.466700 0.108944 42.274200 -12.698400 7.740000
-19.707000 -2.966550 43.005800 -12.432000 8.220000
-3.496090 2.050360 48.955100 -13.764000 15.190000
-3.146030 2.068350 49.410300 -13.764000 10.310000
-3.173790 1.931870 49.846100 -13.764000 13.710000
-16.880700 -2.395200 46.986700 -12.964800 17.570000
-3.588540 1.948520 50.249700 -13.764000 10.110000
-15.649500 -2.415840 47.864000 -13.053600 10.020000
-16.802800 -2.436490 47.927700 -12.964800 15.260000
-16.945200 -2.457140 48.333900 -12.964800 7.850000
-16.822300 -0.919483 48.886400 -12.964800 8.730000
-16.962400 -0.927146 49.293800 -12.964800 6.140000
12.218400 3.371080 52.349900 -13.586400 7.780000
12.316200 3.398050 52.768700 -13.586400 6.060000
16.062000 0.163916 68.817800 -13.586400 9.030000
16.160000 0.164916 69.237500 -13.586400 7.290000
15.720600 0.165915 69.780300 -13.586400 7.270000
-14.414500 1.095070 73.130600 -13.497600 5.570000
-14.497800 1.101400 73.553300 -13.497600 5.590000
16.571800 0.874535 73.558800 -13.586400 8.800000
16.665800 1.114060 73.976200 -13.586400 6.370000
16.328400 1.592070 74.483900 -13.586400 7.980000
16.853400 1.601070 74.808600 -13.586400 5.240000
16.515400 0.894524 75.336900 -13.586400 5.580000
16.608200 0.659656 75.760100 -13.586400 5.370000
16.885000 0.670650 77.022800 -13.586400 6.360000
16.977800 0.183906 77.446300 -13.586400 7.240000
17.070100 0.184906 77.867200 -13.586400 7.360000
17.162100 0.433777 78.287200 -13.586400 5.360000
17.254000 0.685309 78.706400 -13.586400 6.310000
16.735400 0.939500 79.256100 -13.675200 9.970000
16.824900 0.692639 79.680200 -13.675200 10.330000
16.914000 0.696304 80.101800 -13.586400 5.530000
17.623100 0.699968 80.389900 -13.586400 7.910000
17.048500 5.943840 80.738700 -13.586400 9.000000
17.137300 5.974800 81.159200 -13.586400 11.420000
17.243200 4.715760 81.660800 -13.586400 13.060000
15.687100 0.466427 84.739000 -13.675200 9.840000
16.256700 1.004470 85.065600 -13.675200 7.740000
18.638400 0.471091 85.021500 -13.586400 7.310000
18.029100 6.014520 85.383000 -13.586400 14.040000
18.121700 5.772900 85.821400 -13.586400 18.020000
18.874700 5.801200 86.099200 -13.675200 16.790000
26.522500 1.770010 95.923000 -13.497600 11.260000
26.637300 1.777670 96.338200 -13.408800 8.900000
16.942900 -0.569041 103.764000 -13.675200 9.630000
17.012300 -0.571373 104.189000 -13.675200 11.030000
17.082000 -0.245875 104.616000 -13.675200 11.920000
17.959900 0.905195 104.902000 -13.675200 8.250000
-11.711400 1.900270 106.203000 -13.675200 8.310000
-12.374800 1.907930 106.561000 -13.675200 8.040000
-13.248700 1.915590 106.890000 -13.675200 9.050000
16.369000 3.552930 169.379000 -13.764000 7.180000
16.411500 3.034290 169.818000 -13.764000 9.800000
7.913120 1.006230 8.469170 -10.567200 3.410000
7.743170 1.648540 11.289700 -11.721600 3.580000
8.284950 1.142190 11.500200 -11.544000 8.320000
-6.892490 2.066030 12.761900 -12.165600 5.190000
-7.161410 2.066030 12.612900 -11.988000 5.350000
8.536000 1.176800 11.848700 -11.544000 7.760000
-7.342610 -0.396419 13.167400 -11.988000 7.480000
-8.107830 1.397280 12.639700 -11.544000 6.760000
-6.346060 0.743336 14.135400 -12.520800 4.380000
-7.552400 -0.407745 13.543600 -11.988000 7.380000
-8.241360 1.389430 13.068400 -11.544000 5.940000
-7.047790 0.850163 14.275700 -12.343200 4.420000
-6.550180 1.819310 14.896300 -12.609600 4.830000
-7.238270 0.873141 14.661500 -12.343200 8.400000
-7.312550 0.896118 15.104100 -12.343200 8.530000
-5.996400 1.349860 15.640700 -12.787200 4.950000
-7.380440 0.919096 15.548800 -12.432000 7.090000
-6.242780 1.384470 16.006000 -12.787200 3.270000
-6.195280 1.523420 16.936000 -12.876000 6.860000
-6.247080 1.388320 17.388500 -12.876000 7.440000
-6.396540 1.245140 17.804500 -12.964800 8.370000
9.190090 1.011760 18.982200 -12.698400 7.350000
-5.839680 1.863390 20.654600 -13.320000 7.100000
8.507970 1.148870 19.760600 -12.964800 4.400000
8.664010 1.714380 20.123000 -12.876000 5.560000
8.395520 1.799810 20.696400 -13.053600 4.480000
-10.667400 1.711190 20.120600 -12.432000 3.730000
-10.868600 1.743480 20.500300 -12.432000 4.900000
-6.012430 1.671710 22.416200 -13.320000 12.000000
-11.069900 1.775760 20.879900 -12.432000 6.400000
-6.116630 2.049720 22.804600 -13.320000 13.710000
-11.273700 1.733620 21.264400 -12.432000 7.090000
7.827700 -1.882460 22.747700 -13.231200 11.080000
8.897600 -1.916070 22.812700 -13.142400 5.550000
7.731140 -2.392440 23.645600 -13.231200 7.140000
9.640540 -3.585180 23.249500 -12.964800 8.100000
7.539300 -2.433690 24.157200 -13.320000 6.080000
9.235940 -0.530691 23.680200 -13.142400 8.690000
9.392480 -0.539686 24.081500 -13.142400 8.700000
9.736190 -0.690902 24.405400 -13.142400 11.160000
9.029690 -0.702228 25.133800 -13.231200 8.770000
8.971000 1.300840 25.588500 -13.320000 5.220000
10.191200 1.384690 25.123000 -12.964800 5.910000
9.113400 1.321490 25.994700 -13.320000 5.050000
-5.243900 1.896000 28.326700 -13.586400 3.970000
-5.322170 1.924300 28.749500 -13.586400 4.810000
10.270300 1.132470 27.419000 -13.320000 7.370000
-5.175440 1.952600 29.213000 -13.586400 5.270000
-5.478710 1.980900 29.595000 -13.586400 5.980000
-5.729200 2.103600 29.979000 -13.586400 9.820000
-5.985530 2.133230 30.367100 -13.586400 9.870000
-4.878960 2.065790 31.006300 -13.675200 6.700000
-8.947900 1.968710 30.091900 -13.231200 5.040000
-10.400300 1.118530 29.665500 -13.053600 8.450000
-4.945800 2.094090 31.431000 -13.675200 6.730000
-10.542800 1.133850 30.071900 -13.053600 6.880000
11.306700 -2.321810 30.185900 -13.231200 5.680000
-5.702690 1.948520 32.189100 -13.586400 6.000000
9.754320 -0.683602 31.254500 -13.408800 6.050000
11.484600 -0.683602 30.660900 -13.231200 5.320000
-5.777730 1.974160 32.612700 -13.586400 6.680000
9.882670 -0.692597 31.665700 -13.408800 6.960000
11.608200 -2.383730 30.990900 -13.142400 7.690000
-18.559700 -2.235580 28.448800 -11.455200 6.420000
-17.901200 -2.157490 29.380400 -11.632800 8.860000
10.522600 0.399787 32.824300 -13.408800 6.480000
10.396700 0.620651 33.312700 -13.408800 7.790000
10.524400 0.737571 33.722000 -13.408800 7.910000
10.652700 0.746565 34.133200 -13.408800 9.240000
19.262300 1.661260 31.614200 -12.076800 7.760000
10.186000 1.912200 36.027200 -13.497600 7.420000
18.954300 1.817040 32.791700 -12.254400 8.180000
11.073100 1.934170 36.214800 -13.408800 7.850000
19.169700 1.837690 33.164400 -12.254400 6.640000
19.385100 1.858340 33.537000 -12.254400 5.620000
-20.171500 1.019360 33.106500 -11.721600 5.170000
19.603300 1.757850 33.914500 -12.254400 8.280000
-20.137000 1.030690 33.630500 -11.721600 9.120000
-20.358300 1.042020 34.000100 -11.721600 7.490000
19.771500 1.548830 34.822300 -12.254400 6.210000
-20.579600 1.053340 34.369600 -11.721600 9.850000
10.378000 -1.053340 38.692200 -13.586400 5.710000
20.254800 1.565480 35.041600 -12.254400 7.880000
-17.328900 -0.524721 41.791100 -12.698400 16.590000
-17.492400 -0.812210 42.185300 -12.698400 5.890000
19.770500 0.249538 41.651600 -12.787200 7.000000
19.955500 0.107945 42.041400 -12.787200 7.080000
20.325100 0.109944 42.819900 -12.787200 6.330000
22.965400 1.146310 41.940200 -12.432000 10.210000
23.172300 1.156630 42.318000 -12.432000 9.860000
-16.260500 -1.043390 47.254100 -13.053600 16.510000
-16.400700 -1.052390 47.661400 -13.053600 16.080000
-15.144900 -1.061380 48.526700 -13.142400 15.690000
-6.456110 2.338130 55.594600 -13.764000 7.900000
-6.505770 2.356110 56.022200 -13.764000 8.130000
-6.555440 2.374100 56.449900 -13.764000 7.880000
15.436300 0.380138 68.518400 -13.675200 8.380000
15.531000 0.382470 68.938800 -13.675200 8.460000
16.160000 0.164916 69.237500 -13.586400 9.750000
-14.892700 0.171912 72.602900 -13.586400 5.970000
-14.979300 0.172912 73.025000 -13.586400 7.980000
16.054600 0.637667 73.234800 -13.675200 8.100000
15.576800 1.340910 73.769000 -13.675200 7.480000
15.666600 1.114060 74.194200 -13.675200 6.830000
14.747800 1.120390 74.821500 -13.675200 8.390000
16.855900 0.889527 74.819800 -13.675200 9.140000
16.515400 0.894524 75.336900 -13.675200 10.110000
16.023300 0.899522 75.883500 -13.675200 6.750000
16.112800 0.663321 76.307500 -13.675200 5.430000
16.201300 0.909516 76.726700 -13.675200 6.720000
16.290300 0.914514 77.148300 -13.675200 7.910000
16.379300 0.919511 77.569800 -13.675200 6.030000
16.646400 0.934503 78.834600 -13.675200 6.620000
16.736300 0.438441 79.260300 -13.675200 7.790000
16.825300 0.440773 79.681900 -13.675200 10.110000
16.451200 0.189903 80.200900 -13.675200 12.700000
16.491300 6.166740 80.396600 -13.675200 12.050000
16.577700 6.199020 80.817500 -13.675200 8.320000
17.133400 6.231310 81.140700 -13.675200 8.980000
16.780700 3.747500 81.807200 -13.675200 16.100000
16.875300 2.728130 82.268300 -13.675200 19.080000
26.410900 0.842894 95.519400 -13.497600 21.350000
26.525700 0.846559 95.934700 -13.497600 17.400000
26.640600 0.850223 96.350000 -13.497600 11.960000
16.873100 -0.890536 103.336000 -13.764000 13.970000
16.942500 -0.894200 103.762000 -13.764000 12.760000
17.012000 -0.897865 104.187000 -13.764000 10.140000
-11.665900 -0.246874 105.791000 -13.764000 10.190000
-12.326800 0.578369 106.148000 -13.764000 10.680000
-10.362400 0.249873 107.225000 -13.852800 9.380000
16.330100 1.968950 168.976000 -13.852800 6.930000
16.371500 1.973950 169.405000 -13.852800 6.320000
16.413000 1.978950 169.834000 -13.852800 5.510000
-6.423930 1.623620 12.581600 -12.254400 6.650000
-6.878280 1.656390 12.334700 -12.076800 5.930000
-7.209570 -0.252858 12.253900 -11.899200 4.980000
-6.697870 2.021170 12.872200 -12.254400 7.600000
-7.422740 0.611511 12.616200 -11.899200 7.300000
-7.540740 0.629496 13.045800 -11.988000 9.590000
-6.207550 1.675870 14.117100 -12.609600 3.820000
-7.756190 0.647482 13.418500 -11.988000 8.670000
-6.830670 0.665468 14.390500 -12.520800 8.600000
-7.971640 0.665468 13.791300 -11.988000 5.200000
-7.013340 0.784633 14.775400 -12.520800 9.420000
-7.309640 1.315240 14.592900 -12.343200 7.020000
-7.190620 1.103640 15.148900 -12.520800 7.170000
-7.494530 1.131940 15.480000 -12.520800 4.680000
-11.671000 1.419080 13.186900 -11.632800 4.730000
-6.081110 2.010810 16.926500 -13.053600 4.520000
-11.955700 1.453690 13.508500 -11.632800 4.950000
-6.234030 1.830740 17.352200 -13.053600 5.780000
-0.109155 1.698190 18.883100 1.065600 12.850000
-6.379010 1.873320 17.755700 -13.142400 9.500000
-0.116094 2.607740 20.083400 1.065600 12.760000
8.960620 0.657549 18.150200 -12.876000 7.530000
9.008140 0.671540 18.606400 -12.876000 10.250000
-0.243664 1.256280 21.075300 1.065600 6.750000
9.193780 0.816048 18.989800 -12.876000 10.270000
-0.247934 2.062450 21.444600 1.065600 7.390000
9.223980 1.215400 19.432700 -12.876000 7.430000
0.676435 1.171850 21.934200 1.154400 6.290000
0.560410 1.194820 22.367900 1.154400 7.380000
0.703047 1.164900 22.797100 1.154400 5.160000
-0.582035 1.186880 23.231000 1.065600 4.650000
-6.478600 2.012460 22.257700 -13.408800 5.430000
-6.426980 1.903640 22.731800 -13.320000 7.620000
-11.233100 1.702660 20.798700 -12.520800 4.510000
-6.543830 1.938250 23.145100 -13.320000 5.570000
8.696680 -3.613980 22.684000 -13.231200 7.200000
8.739790 -1.949690 23.332900 -13.231200 8.250000
8.691160 -2.511950 23.759000 -13.320000 10.800000
8.811480 -3.249720 24.087900 -13.320000 11.870000
8.958340 -3.303880 24.489400 -13.320000 8.610000
-5.855040 2.001770 25.989300 -13.586400 5.370000
10.031000 1.280190 24.728000 -13.142400 7.860000
-5.964540 0.650606 26.475400 -13.586400 8.970000
10.191200 1.384690 25.123000 -13.142400 6.780000
-6.059210 0.660933 26.895600 -13.586400 9.630000
9.403050 1.011270 26.820900 -13.408800 4.760000
-6.170030 1.806900 28.145300 -13.675200 4.550000
9.755080 1.026590 27.152900 -13.408800 8.130000
-6.262120 1.833870 28.565400 -13.675200 4.170000
9.899550 1.132470 27.555000 -13.408800 9.160000
-5.738470 1.860830 29.113700 -13.675200 7.190000
10.043900 1.241010 27.956700 -13.408800 7.120000
-5.649690 1.980900 29.562900 -13.675200 9.320000
-5.902400 2.103600 29.945300 -13.675200 5.590000
-5.985530 2.133230 30.367100 -13.675200 8.890000
-4.950050 1.626470 31.458000 -13.764000 6.740000
-4.771060 1.648440 31.920800 -13.852800 6.870000
11.697900 -2.150690 30.512200 -13.320000 5.000000
9.694330 -1.282360 31.705500 -13.497600 4.140000
10.001700 -1.610560 32.047100 -13.497600 5.110000
11.768600 -1.999800 31.418900 -13.231200 6.100000
10.566800 -1.631210 32.318400 -13.497600 8.300000
9.182760 1.012670 33.211000 -13.675200 9.110000
10.508300 -1.838190 32.779800 -13.408800 6.930000
10.650200 1.025330 33.222500 -13.586400 6.250000
10.522200 1.037990 33.714700 -13.586400 13.830000
10.650500 1.050650 34.125900 -13.586400 17.500000
-20.238600 -0.550700 31.551000 -11.632800 7.660000
18.957000 1.699900 32.796500 -12.432000 5.300000
19.172400 1.719210 33.169100 -12.432000 8.270000
-20.330000 -4.261010 32.237600 -0.177600 5.460000
19.385100 1.858340 33.537000 -12.432000 15.490000
-16.521900 1.878990 35.511500 -12.343200 8.190000
-20.138200 0.939765 33.632500 -11.899200 10.450000
11.291800 -1.409650 37.974500 -13.586400 7.200000
-20.359500 0.950092 34.002100 -11.899200 7.010000
11.414600 -1.424970 38.387200 -13.675200 6.660000
20.292200 -2.136900 34.490000 -12.343200 17.910000
-20.580800 0.960419 34.371700 -11.899200 7.580000
9.961140 -1.064670 39.246200 -13.675200 7.210000
20.778500 -2.159870 34.701800 -12.343200 14.720000
10.601200 -1.075990 39.524300 -13.675200 6.660000
-18.507700 1.854430 36.948700 -12.343200 7.350000
-18.984900 2.002880 37.183000 -12.343200 5.470000
-17.889400 -0.804548 41.549800 -12.698400 8.570000
-16.915500 -1.482980 42.401700 -12.964800 7.220000
-19.024700 -0.812210 41.516800 -12.698400 7.130000
20.091200 0.106945 41.498500 -12.876000 7.450000
19.955500 0.107945 42.041400 -12.876000 8.320000
20.140300 0.108944 42.430600 -12.876000 15.460000
20.654200 0.256535 42.661500 -12.876000 17.160000
10.499900 2.291950 46.606900 -13.764000 6.390000
11.438100 -1.177290 47.757900 -13.764000 7.690000
-16.257100 -1.468370 47.244000 -13.142400 9.380000
-16.397200 -1.481030 47.651200 -13.142400 6.460000
-15.530800 -0.927146 49.763400 -13.231200 7.900000
24.490500 -2.115060 48.892700 -12.698400 5.410000
-6.460720 0.996107 55.634300 -13.852800 7.370000
-6.508020 1.832740 56.041500 -13.941600 6.900000
-6.558320 1.670910 56.474700 -13.941600 7.830000
-6.608010 1.683570 56.902600 -13.852800 12.600000
-17.069400 -0.879853 57.404600 -13.408800 5.140000
22.221500 1.880160 67.964200 -13.497600 5.860000
21.957800 2.113950 68.495800 -13.497600 5.510000
16.477100 0.869538 73.138500 -13.852800 7.980000
16.572300 0.641332 73.561100 -13.852800 7.340000
15.934700 0.655991 75.464300 -13.852800 15.240000
16.607600 0.899522 75.757800 -13.852800 8.190000
16.700400 0.663321 76.181000 -13.852800 6.280000
16.793300 0.181907 76.604500 -13.852800 10.280000
17.018100 6.218840 77.630100 -13.852800 16.710000
16.647300 0.436109 78.838700 -13.852800 16.340000
16.735900 0.688974 79.258600 -13.852800 5.630000
16.824900 0.692639 79.680200 -13.852800 12.580000
16.914000 0.696304 80.101800 -13.852800 6.420000
17.003400 0.445438 80.525100 -13.852800 5.640000
17.044600 6.199020 80.720300 -13.852800 13.220000
17.137300 5.974800 81.159200 -13.852800 19.830000
16.330000 -1.501820 82.849000 -13.852800 13.810000
26.961800 1.149390 95.362200 -13.675200 10.400000
27.079000 1.154390 95.776800 -13.675200 8.090000
27.196200 1.159380 96.191400 -13.675200 6.450000
27.312300 1.474860 96.602100 -13.675200 8.340000
16.942000 1.219350 103.758000 -13.941600 8.720000
17.012000 0.897865 104.187000 -13.941600 7.270000
17.081800 -0.573705 104.614000 -13.941600 8.550000
17.151200 -0.576037 105.040000 -13.941600 7.160000
-18.031300 1.569810 105.319000 -13.941600 10.640000
-18.104800 1.244340 105.748000 -13.941600 14.620000
