VERSION .7
FIELDS x y z velocity SNR
SIZE 4 4 4 4 4
TYPE F F F F F
COUNT 1 1 1 1 1
WIDTH 305
HEIGHT 1
VIEWPOINT 0 0 0 1 0 0 0
POINTS 305
DATA ascii
-0.0242725860187923 3.12917619658812 0.243459355121158 0 5.0555066130501
0.455787957956403 3.05891875144453 -0.535610581266548 0 5.0555066130501
4.1261379111371 7.68257440199993 1.09069791094279 4.79615592604354 13.7229432397201
4.37731756321395 7.49779248295725 1.36337238867849 4.79615592604354 13.7229432397201
5.77366943775056 6.31396407823618 3.10654137134598 -2.78486473125109 8.75937140757967
-1.31171262612605 8.80326537487706 1.90628675059867 4.64144121875182 13.8680201533387
0.811596931803305 8.68153793614286 2.61231888045003 4.64144121875182 13.8680201533387
4.02002247123933 8.15548689458018 0.423619277910815 4.64144121875182 13.8680201533387
4.29109062149479 7.98970457976592 0.776635342836494 4.64144121875182 13.8680201533387
4.46926494293311 7.8152513446187 1.34146104671758 4.64144121875182 13.8680201533387
4.75399373781811 7.65744502799615 1.27085783373244 4.64144121875182 13.8680201533387
4.44611637287574 7.7747722287961 1.62387389865812 4.79615592604354 32.8273797290783
4.73689785484194 7.62990801568296 1.48266747268785 4.79615592604354 32.8273797290783
6.11013883469636 6.54182062539211 -2.9215122614539 -3.403723560418 10.0147329148728
6.65070119012868 6.24260134523008 -2.33720980916312 -3.403723560418 10.0147329148728
5.8354566255505 6.65464202851555 3.21366348759929 -2.63015002395936 5.64370327261272
6.34068975098865 6.50333718650005 -2.48328542223581 -2.47543531666763 5.93842821209168
4.16265398767111 8.44484584004272 0.146075613072694 4.64144121875182 17.382395318907
4.62337752717218 8.0847427702952 1.3877183241906 4.64144121875182 17.382395318907
4.51403928419278 8.05939334992929 1.82594516340869 4.79615592604354 24.1862359006852
4.70284182842045 8.39648256727985 1.43397560166362 4.79615592604354 11.4527614732526
3.48092757855429 8.89114063897454 3.11627974555082 3.55843826770973 5.78558128365783
5.48863309959221 8.31874707557277 1.24651189822033 4.64144121875182 8.44935909021321
4.90282232427011 8.75352896783071 0.467441961832623 4.79615592604354 15.0757316888635
6.90916864293125 7.71627600919363 -0.0803415871899819 -3.09429414583454 6.7539532114767
4.67121638852022 8.69747163704426 3.1333219004093 4.64144121875182 12.2002546804375
4.97878027661396 9.07702881918078 0.321366348759929 4.79615592604354 12.829292151537
6.03611359565397 8.78653637670437 -0.496657084447162 -4.95087063333527 5.24831210060138
6.4066263116719 8.43122832093874 -1.3244188918591 -4.33201180416836 5.35824698426326
4.91622509264761 8.96298176827579 3.06271868742417 4.79615592604354 7.77873280604859
6.61256378379183 8.70224550889566 -1.10774006580127 -4.33201180416836 5.44911828888258
4.81556609237476 9.55960727187456 2.47111245447975 4.17729709687663 5.88517312579522
-10.0209160129219 6.93728690313857 -1.13938978196702 4.33201180416836 10.3354859347681
-7.1793549652597 9.83748880951256 -1.23433893046427 4.33201180416836 10.3354859347681
-10.0279076479703 6.94212707724942 -1.04444063346977 4.48672651146009 5.1589807689614
-9.68452179759708 7.48624996916416 -0.0949491484972513 4.48672651146009 5.1589807689614
-7.15312394399568 9.80154583421806 -1.61413552445328 4.48672651146009 5.1589807689614
-2.41333466396616 12.2090434484282 -1.65552361482387 4.17729709687663 5.72553462673415
-2.23165820903064 12.3084471573044 -1.0712211625331 4.33201180416836 30.9380287313926
-2.23010225735079 12.2998654896667 -1.16860490458156 4.48672651146009 19.8763041577813
-2.90083775314123 12.1238523684262 3.19418673918959 4.17729709687663 18.3129010286262
-2.29520005523611 12.6589047018929 -0.299455006799025 4.48672651146009 21.4717473511338
-3.07683821615961 12.420446574258 -3.16984080367748 4.17729709687663 34.9425527254117
-3.0642377580742 12.3695815935648 -3.37434666197925 4.33201180416836 42.8855586572308
-3.13146564137614 12.6409641864053 2.04505858301773 4.48672651146009 8.0117931854984
-3.15009626892531 12.7161714926927 -3.24531320376504 4.17729709687663 8.13656092958549
-3.16214266065791 12.7647998424517 -3.03593815836084 4.33201180416836 11.5555696049268
4.58666810693126 13.6737313722804 -0.671947820134396 3.24900885312627 7.1312140899269
5.70725938736495 13.2504191187321 0.559956516778664 3.24900885312627 7.1312140899269
-2.63256536002088 13.8942844469286 2.91177388724905 3.403723560418 7.98484911937186
-0.774448491953237 14.2423093829545 2.23982606711465 3.403723560418 7.98484911937186
5.59804891521003 13.304470591199 0.335973910067199 3.403723560418 7.98484911937186
-3.32305259765501 13.8884703437335 2.12783476375892 3.55843826770973 5.84258959340347
-0.778614877746337 14.318930302345 1.67986955033599 3.55843826770973 5.84258959340347
0.220389389172719 14.2048108340836 2.57579997718185 3.55843826770973 5.84258959340347
5.4869135018776 13.3530363532873 -0.223982606711465 3.55843826770973 5.84258959340347
5.83554518573157 13.5482574470726 -0.114425896906944 3.24900885312627 9.74690046069714
5.34621326536014 13.6555366222271 1.60196255669722 3.403723560418 33.7528916353308
5.82939737662472 13.5339842133191 0.686555381441665 3.403723560418 33.7528916353308
5.34621326536014 13.6555366222271 1.60196255669722 3.55843826770973 31.8329573349187
5.34621326536014 13.6555366222271 1.60196255669722 3.71315297500145 5.13968942450217
5.81813886870452 13.5078455820657 1.14425896906944 3.71315297500145 5.13968942450217
5.46444831363896 13.957537861546 1.51918637595602 3.403723560418 64.3906636628273
5.95342710804227 13.8219413242408 0.701162942748935 3.403723560418 64.3906636628273
5.46444831363896 13.957537861546 1.51918637595602 3.55843826770973 122.273819079911
5.95109336444615 13.8165231228476 0.81802343320709 3.55843826770973 122.273819079911
5.45514026147744 13.9337628191255 1.75290735687234 3.71315297500145 10.8145579094977
5.94839944564504 13.8102687105695 0.934883923665248 3.71315297500145 10.8145579094977
4.696539081843 14.0012776785595 4.29462302433723 3.24900885312627 7.92153190747536
5.46375053050944 14.3050747423082 1.43154100811241 3.403723560418 20.6249316903182
5.94678357460412 14.1332825737871 1.19295084009367 3.403723560418 20.6249316903182
6.30359058908037 13.9777915594329 1.19295084009367 3.403723560418 20.6249316903182
5.57829098683978 14.2483199003282 1.55083609212178 3.55843826770973 45.3693329472803
6.07745683945982 14.1098984351625 0.715770504056204 3.55843826770973 45.3693329472803
5.55790973111406 14.1962611869632 2.02801642815925 3.71315297500145 7.82945034614745
6.07232443409598 14.0979826420397 0.95436067207494 3.71315297500145 7.82945034614745
4.96264228412839 14.402156288396 3.77362000437795 3.09429414583454 5.93719141097284
4.48075409069864 15.4080322917567 4.38713757928327 2.93957943854282 7.6062141170808
5.90043818060119 15.4484010048679 1.80646841499899 3.09429414583454 6.48828187898175
-3.60546994959382 16.204613999886 -3.41816934590106 2.93957943854282 8.12036373471255
4.67555238620216 16.0778879380926 2.62936103530851 2.93957943854282 8.12036373471255
5.52149206559834 16.024002360237 -0.131468051765425 2.93957943854282 8.12036373471255
5.9073353250017 15.8596749933551 0.920276362357976 3.09429414583454 5.72358526407432
5.90203037453074 16.6821069360704 2.63666481596214 2.78486473125109 6.1123894913473
5.93677429819552 16.7803107427563 1.80403382144778 2.93957943854282 12.1582472827393
6.03596916424092 17.0606853355438 1.9768899635838 2.78486473125109 7.36832891663361
6.04551633677486 17.0876704479613 1.69447711164326 2.93957943854282 13.3506124638997
18.1061043212398 15.4764386983796 -1.29520376924456 -2.47543531666763 6.32185917999824
-9.80654282428024 21.7453544260778 -0 2.78486473125109 12.4383191887727
-9.80654282428024 21.7453544260778 -0 2.93957943854282 7.18242327732585
-9.93557628249446 22.0314775106315 -0 2.78486473125109 11.7303654553522
-9.93557628249446 22.0314775106315 -0 2.93957943854282 5.52486505845653
-6.32060569753268 30.6970050937593 1.7042154858481 4.64144121875182 5.72409473598125
1.46075613072695 31.3532569290452 -0 4.64144121875182 5.72409473598125
2.65734877180961 31.0310373157675 3.89534968193853 4.64144121875182 5.72409473598125
1.46784382892961 31.5053852810057 3.1966213327408 4.64144121875182 23.2323600477697
14.7252045100527 28.0046589323491 -1.96715158937896 4.64144121875182 23.2323600477697
16.7187763668569 26.9295918389924 0.491787897344738 4.64144121875182 23.2323600477697
1.46663885867281 31.4795221398156 3.44251528141318 4.79615592604354 10.5210672666906
16.7162608476793 26.9255399931379 0.737681846017111 4.79615592604354 10.5210672666906
14.8548226435009 28.2511690311519 -2.48328542223581 4.64144121875182 23.9139879604658
16.6300021556109 27.3389350405448 0.993314168894326 4.64144121875182 23.9139879604658
14.9996698969089 27.9283151630489 -4.46991376002446 4.79615592604354 11.2226380982819
16.6300021556109 27.3389350405448 0.993314168894326 4.79615592604354 11.2226380982819
-5.41353298304824 32.7905852844902 1.54840149857056 4.17729709687663 9.69508159062007
-4.08398348233543 32.6528004654065 4.90327141214012 4.17729709687663 9.69508159062007
0.513503121671745 33.0969414337006 -3.35486991356956 4.17729709687663 9.69508159062007
-6.44856682943646 32.6232551896859 1.03226766571371 4.33201180416836 35.5026944792909
-4.0886274743101 32.6899307192305 4.64520449571169 4.33201180416836 35.5026944792909
0.515994073923706 33.2574913842616 -0.774200749285285 4.33201180416836 35.5026944792909
4.11114503094233 32.8699660418171 3.09680299714113 4.33201180416836 35.5026944792909
17.1016808322796 28.1143524205784 4.90327141214012 4.33201180416836 35.5026944792909
-6.40179476845042 32.386635655198 4.12907066285484 4.48672651146009 9.6118563257409
-4.09714865180827 32.7580603553521 4.12907066285484 4.48672651146009 9.6118563257409
0.516071722448113 33.2624960834665 -0.516133832856853 4.48672651146009 9.6118563257409
4.10102743061425 32.7890724764708 3.87100374642641 4.48672651146009 9.6118563257409
16.6026981380035 27.2940485302047 -9.29040899142339 4.48672651146009 9.6118563257409
-5.20752189245058 33.1618188323395 1.04200603991856 4.17729709687663 45.1379521866434
16.4036939612193 29.2872555381332 -1.04200603991856 4.17729709687663 45.1379521866434
-5.204384808501 33.1418416893248 1.56300905987783 4.33201180416836 177.722056683368
16.4036939612193 29.2872555381332 -1.04200603991856 4.33201180416836 177.722056683368
-5.204384808501 33.1418416893248 1.56300905987783 4.48672651146009 42.64380168889
16.4071511901873 29.2934280958802 -0.781504529938919 4.48672651146009 42.64380168889
16.2897735966734 29.6985880436352 -1.31468051765425 4.17729709687663 83.0332720469964
16.2897735966734 29.6985880436352 -1.31468051765425 4.33201180416836 350.51656734258
16.2941899961911 29.7066397718644 -1.0517444141234 4.48672651146009 87.9319410465231
16.4406048336796 29.9735749699652 -1.32685348541031 4.17729709687663 23.965480957961
16.4406048336796 29.9735749699652 -1.32685348541031 4.33201180416836 108.192513707425
16.4406048336796 29.9735749699652 -1.32685348541031 4.48672651146009 28.3552055812307
-0.526628410102065 33.9429088371012 7.83695664135007 4.02258238958491 5.61895454645589
-6.21675009437682 34.2877505691346 4.63546612150685 4.02258238958491 36.9478353509316
-4.7992970131944 34.0374788409858 7.36221089886382 4.02258238958491 36.9478353509316
-0.271284668052997 34.9735098317714 3.54476821056406 4.02258238958491 36.9478353509316
-6.21008512607477 34.2509907240029 4.90814059924254 4.17729709687663 25.6857517895905
-4.79098490404808 33.978527865788 7.63488537659951 4.17729709687663 25.6857517895905
-0.270822566172638 34.9139365253549 4.09011716603546 4.17729709687663 25.6857517895905
14.5276097977006 32.2140054528285 3.02619978415599 3.86786768229318 10.9539011996394
16.2138474384468 31.5013963196197 1.65065442772145 3.86786768229318 10.9539011996394
14.5174808905151 32.1915452769394 3.3013088554429 4.02258238958491 153.279576127022
16.2138474384468 31.5013963196197 1.65065442772145 4.02258238958491 153.279576127022
14.5174808905151 32.1915452769394 3.3013088554429 4.17729709687663 106.720768472416
16.2138474384468 31.5013963196197 1.65065442772145 4.17729709687663 106.720768472416
14.9222929307081 32.3503849529204 3.33052397805744 3.86786768229318 9.49962990462075
16.3509207390788 31.7677119109337 1.94280565386684 3.86786768229318 9.49962990462075
18.0492031350736 30.2862697256966 6.10596062643864 3.86786768229318 9.49962990462075
14.9109680047701 32.3258333833085 3.60806764289556 4.02258238958491 140.572768169503
16.3509207390788 31.7677119109337 1.94280565386684 4.02258238958491 140.572768169503
14.9109680047701 32.3258333833085 3.60806764289556 4.17729709687663 101.260476764928
16.3509207390788 31.7677119109337 1.94280565386684 4.17729709687663 101.260476764928
16.1898148745345 32.1391647494926 2.79978258389332 4.02258238958491 12.5941433238912
14.4315041362894 32.0008975607624 -8.39934775167995 4.17729709687663 9.60416854279693
-9.59523525745327 34.0165191566969 9.96966059221142 3.86786768229318 7.44960828682373
-1.13595702567948 36.5948362808632 2.84847445491755 3.86786768229318 7.44960828682373
-10.0536613854279 35.6417071532149 0.574564078085931 3.71315297500145 10.8818424039624
-7.45493852093096 36.2060689595006 2.29825631234373 3.71315297500145 10.8818424039624
-2.58273676010657 36.9065830962141 1.7236922342578 3.71315297500145 10.8818424039624
14.5877775921055 33.8681237327624 3.4473844685156 3.71315297500145 10.8818424039624
-9.76494445557506 35.7161112241818 0.861846117128902 3.86786768229318 40.1951075404433
-7.45111030912242 36.18747665316 2.5855383513867 3.86786768229318 40.1951075404433
-2.58172432722297 36.892115714588 2.01097427330076 3.86786768229318 40.1951075404433
14.5767065387763 33.8424203107271 3.73466650755856 3.86786768229318 40.1951075404433
-2.47676994705492 35.3923470920885 -10.6294354445898 4.02258238958491 9.48677749243126
14.5647403489983 33.8146386700043 4.02194854660153 4.02258238958491 9.48677749243126
16.5118608177621 33.4978884988361 -0.579433265188354 3.71315297500145 28.1807722987699
16.5133512702617 33.5009122047767 -0.289716632594177 3.86786768229318 120.48574510586
14.7310324548051 34.200715409911 2.89716632594178 4.02258238958491 28.2168552124193
16.224131425274 33.6431773759532 -0 4.02258238958491 28.2168552124193
16.6506159506845 33.7793833601709 -0.584302452290777 3.71315297500145 13.5159118267329
16.3599764906617 33.9248725564649 -0.292151226145389 3.86786768229318 55.0612110340516
16.3599764906617 33.9248725564649 -0.292151226145389 4.02258238958491 13.7230403623971
-11.3669600910905 36.8512325854155 1.79673004079415 3.55843826770973 5.30676549543775
-3.58469322564038 38.3449579567577 2.69509506119122 3.55843826770973 5.30676549543775
-1.79624352148913 38.5540635098035 0.898365020397075 3.55843826770973 5.30676549543775
1.18608768712298 38.2097946874797 5.39019012238244 3.55843826770973 5.30676549543775
14.6095938098404 35.5541302378476 3.59346008158829 3.55843826770973 5.30676549543775
-11.0678295623776 36.9421747269296 1.79673004079415 3.71315297500145 9.0299397272673
-8.35947862487208 37.5712809287484 2.99455006799024 3.71315297500145 9.0299397272673
-3.59335197919892 38.4375794226017 0.299455006799023 3.71315297500145 9.0299397272673
-1.79537827275163 38.535492055333 1.49727503399512 3.71315297500145 9.0299397272673
1.1907364991205 38.3595560869906 4.19237009518634 3.71315297500145 9.0299397272673
14.4889570377886 36.1177020767516 0.60377920070047 3.55843826770973 31.5824924998792
14.4867770188392 36.1122677811891 0.90566880105071 3.71315297500145 53.773300467263
14.6071218666623 36.4122603444088 0.304324193901447 3.55843826770973 53.5503327478999
16.7373271388838 35.4835538364256 0.304324193901447 3.55843826770973 53.5503327478999
14.6058034655127 36.4089738676932 0.608648387802893 3.71315297500145 88.9032031750042
16.433012099995 35.6255080797165 -0.304324193901447 3.71315297500145 88.9032031750042
14.6058034655127 36.4089738676932 0.608648387802893 3.86786768229318 7.71731608532326
16.4315288987018 35.6222926132313 -0.608648387802893 3.86786768229318 7.71731608532326
14.7239788415956 36.7035584271641 0.306758787452658 3.55843826770973 10.9419927663111
16.564476196795 35.9105121443542 -0.306758787452658 3.55843826770973 10.9419927663111
14.7204347126914 36.6947237131438 0.92027636235798 3.71315297500145 17.9976617600278
16.5649745224436 35.911592476086 -0 3.71315297500145 17.9976617600278
-13.8004075431482 40.0503632743473 0.986010388240693 3.24900885312627 5.87843083058772
-3.60655111116258 42.1152929938875 2.95803116472207 3.24900885312627 5.87843083058772
14.3877761449537 39.6256343259244 4.27271168237632 3.24900885312627 5.87843083058772
-13.7937599004089 40.031071053752 1.64335064706782 3.403723560418 7.41319125442843
-3.60218743522881 42.0643364193607 3.6153714235492 3.403723560418 7.41319125442843
14.1323904059957 39.9452447809303 0.328670129413562 3.403723560418 7.41319125442843
14.2357897777197 40.2375034218999 -0.662209445929548 3.24900885312627 20.0755181193135
14.2370747793735 40.2411354830113 -0.331104722964774 3.403723560418 27.5407844735627
14.3404647025559 40.5333674176491 -0.667078633031971 3.24900885312627 12.8047010343066
15.6758762832397 40.0400231053747 0.333539316515985 3.24900885312627 12.8047010343066
14.3417591527512 40.5370261850922 -0.333539316515985 3.403723560418 16.6882989896924
-13.3551680540626 42.079592769107 3.0894992164875 3.09429414583454 7.56841784237019
-6.52207991346471 43.771477937171 0.343277690720832 3.09429414583454 7.56841784237019
-4.44916501724463 43.8978202207066 3.43277690720833 3.09429414583454 7.56841784237019
14.0726916390215 41.953374578406 -0.686555381441663 3.09429414583454 7.56841784237019
-13.3551680540626 42.079592769107 3.0894992164875 3.24900885312627 16.2588334302794
-4.4463364099491 43.8699116819015 3.77605459792916 3.24900885312627 16.2588334302794
14.0743853195541 41.9584237627146 -0 3.24900885312627 16.2588334302794
5.87268719569437 44.1474949487102 1.72856142136022 2.16600590208418 5.40442830681189
14.1724979627025 42.2509162420827 -0.691424568544087 3.09429414583454 17.2872844001852
14.1737772512846 42.2547300450464 -0.345712284272043 3.24900885312627 42.6977393721768
14.1742036551538 42.2560012362091 -0 3.403723560418 6.11942985895096
6.59865277375672 44.2853795313448 3.13332190040931 1.85657648750073 13.0757940096572
6.59865277375672 44.2853795313448 3.13332190040931 2.01129119479245 37.2398488660493
14.2723042863835 42.5484579057593 -0.69629375564651 3.09429414583454 7.66767682143443
15.3069377942456 42.1571140371953 1.74073438911628 3.09429414583454 7.66767682143443
16.7065251104355 41.6455991347584 1.04444063346977 3.09429414583454 7.66767682143443
14.2735925840401 42.5522985664904 -0.348146877823255 3.24900885312627 18.0912765731882
15.3110877323827 42.1685434568247 1.39258751129303 3.24900885312627 18.0912765731882
16.7065251104355 41.6455991347584 1.04444063346977 3.24900885312627 18.0912765731882
14.0520512357291 44.2753390430181 0.360319845579313 3.09429414583454 6.91187391622757
16.8732766326274 43.0984765397849 3.96351830137245 3.09429414583454 6.91187391622757
14.0127084702567 48.185698262906 1.94767484096926 2.93957943854282 8.62293767274018
16.7318539637789 47.292636491161 2.33720980916312 2.93957943854282 8.62293767274018
-8.0302907687322 51.1373841807105 1.60683174379964 2.78486473125109 14.7949225252732
13.9881156964827 49.5899259151452 5.22220316734884 2.78486473125109 14.7949225252732
-8.02545320937071 51.1065783059682 2.41024761569946 2.93957943854282 19.4534924269118
14.0835805600088 49.9283628863913 4.84971035401347 2.63015002395936 15.4409685662739
16.5693452374172 49.3963745597021 -0.404142529501121 2.63015002395936 15.4409685662739
14.1023724769183 49.9949829936001 4.04142529501122 2.78486473125109 152.281123958358
16.5693452374172 49.3963745597021 -0.404142529501121 2.78486473125109 152.281123958358
14.1104794315519 50.0237233392191 3.6372827655101 2.93957943854282 88.4255261266551
16.5693452374172 49.3963745597021 -0.404142529501121 2.93957943854282 88.4255261266551
14.1873265279841 50.2961575899471 4.06577123052334 2.63015002395936 7.10536585601358
16.6696620451457 49.6954380735698 -0 2.63015002395936 7.10536585601358
14.1873265279841 50.2961575899471 4.06577123052334 2.78486473125109 143.809693578139
16.6696620451457 49.6954380735698 -0 2.78486473125109 143.809693578139
14.6151851744486 50.2574434034151 2.84603986136633 2.93957943854282 102.214556541539
16.6691605701728 49.6939430811461 -0.406577123052333 2.93957943854282 102.214556541539
14.7084669728103 50.578212839161 2.45407029962127 2.78486473125109 8.94972551647636
16.7694803807454 49.9930155470642 -0 2.78486473125109 8.94972551647636
14.7084669728103 50.578212839161 2.45407029962127 2.93957943854282 13.0011100849445
16.7694803807454 49.9930155470642 -0 2.93957943854282 13.0011100849445
13.7370332703414 51.8789350640789 5.86250127131749 2.63015002395936 5.47020134738927
16.7494997404394 51.3203450340706 0.41875009080839 2.63015002395936 5.47020134738927
16.7479879737879 51.3157129920771 0.837500181616781 2.78486473125109 8.38364950871882
16.424225996969 51.7496102409581 0.842369368719204 2.63015002395936 5.65012136578561
16.4217547960531 51.7418239571935 1.26355405307881 2.78486473125109 7.17796871629514
16.4675907803951 53.3872744433614 -0 2.63015002395936 6.20462326108747
16.5601053353412 53.6872029514702 -0 2.63015002395936 6.72721133158517
13.3594826730593 55.8350412639688 6.27151298792103 2.63015002395936 5.59709791912218
16.1146147407952 55.4135530023419 2.23982606711465 2.63015002395936 5.59709791912218
13.4075324395849 56.0358619665614 7.20639691158628 2.63015002395936 8.14820911803122
16.1904745944491 55.6744133510886 3.15279864881899 2.63015002395936 8.14820911803122
13.4030462035149 65.0939794807636 7.25995796971294 2.47543531666763 6.80723107799489
5.50408000482484 6.01914671577419 -2.30069090589494 0.726751980304561 13.5675593235872
5.27072290610209 6.9363602738602 -1.15886653037671 0.830573691776641 9.34964318698776
5.7941583404427 6.60754626182256 -0.068168619433924 0.830573691776641 9.34964318698776
6.23757061715963 5.59117796581296 2.65857615792304 1.34968224913704 7.42780656393438
6.77770454613129 6.07533840384412 0.0706032129851356 1.24586053766496 6.54949351050655
6.96865944599528 5.81302886685712 0.706032129851359 1.45350396060912 5.67274219839709
5.31231682367078 7.73293349703847 -0.803415871899821 0.5191085573604 15.6254728091949
5.75590985417866 7.42306224563621 -0.657340258827127 0.726751980304561 20.4487873716612
6.2539824173533 6.98455298790747 0.876453678436169 0.726751980304561 20.4487873716612
6.56845709543281 6.73694707740554 -0.365189032681737 1.45350396060912 6.4280088404112
5.42640066332593 8.22442561378033 -1.94767484096926 0.31146513441624 15.3555700628882
6.04577260232396 7.95633875099031 -1.01279091730402 0.62293026883248 5.85700811165019
5.29728993471769 8.36074231822676 -3.05298031321932 0.5191085573604 5.15133405975748
-10.1202894507409 7.41406340463756 -0.486918710242316 1.76496909502536 14.8308747547282
-7.58472683703922 9.98162848963496 -0.681686194339242 1.76496909502536 14.8308747547282
-2.02030041379106 12.2372641352975 -1.94767484096926 1.76496909502536 14.8308747547282
1.84828619367325 12.4043586434637 -0.584302452290779 1.76496909502536 14.8308747547282
-10.1202894507409 7.41406340463756 -0.486918710242316 1.86879080649744 7.09196372107341
-2.02272766813783 12.2519663807469 -1.8502910989208 1.86879080649744 7.09196372107341
-10.9150845752713 6.67184594674093 -1.39745669839545 1.66114738355328 5.94346418030123
-10.6986222052267 6.53953331313331 2.89473173239057 1.76496909502536 66.0829200127144
-2.46524752873313 12.4716702738478 -1.9963667119935 1.76496909502536 66.0829200127144
-10.775680939172 6.3657564384544 2.99455006799024 1.86879080649744 44.7507798225269
-2.47101601483954 12.5008530053422 -1.79673004079415 1.86879080649744 44.7507798225269
-2.08378887346088 12.6218233054186 -1.39745669839545 1.86879080649744 44.7507798225269
-1.68209426078441 12.6450201426834 -1.69691170519447 1.86879080649744 44.7507798225269
-1.39745669839545 12.7926775783011 -0 1.86879080649744 44.7507798225269
-2.99436556503005 12.5147454414546 2.86308201622482 1.66114738355328 9.30735720724517
-3.00455829132818 12.5573452417145 2.65857615792305 1.76496909502536 89.1033252865106
-1.82632333771642 12.952614058563 -1.63604686641418 1.86879080649744 71.6494069427146
-1.43046398967203 13.0948348011469 0.511264645754432 1.86879080649744 71.6494069427146
-3.11320171651634 13.0114129834746 -1.77968788593566 1.66114738355328 8.91417317032813
-3.11634537784945 13.0245517003359 -1.67500036323357 1.76496909502536 39.2407274459513
-3.05441186805798 12.7657048452999 3.14062568106294 1.86879080649744 22.3148059432335
0.105088745240467 13.547843640607 2.67805290633274 -0.20764342294416 12.0500633316512
4.80597203172088 12.9027980056687 1.0712211625331 -0.20764342294416 12.0500633316512
-3.13695440146006 13.1106857005715 -2.99941925509267 1.76496909502536 16.3050270972048
-2.0195850665753 13.5539926460178 -1.71395386005295 1.86879080649744 12.1562307087233
-2.06926769664234 13.8874264853288 -1.5337939372633 1.76496909502536 9.40991491411558
-2.06926769664234 13.8874264853288 -1.5337939372633 1.86879080649744 12.4767350441631
3.71004772074283 14.0112731039683 2.74622152576666 -0.31146513441624 5.0908840994112
5.6761631296484 14.1493944885748 -2.02801642815925 -0.41528684588832 5.67027261001488
-11.5433922096672 10.1061566637272 -1.07365575608431 1.86879080649744 5.60868813944772
-1.54166493890195 15.2108834053532 -1.67013117613114 1.86879080649744 5.60868813944772
-1.69413729549665 15.5085679717647 -1.70421548584811 1.86879080649744 12.9522745773312
16.5363907984705 32.1280561086019 -6.55149124631036 -0.10382171147208 22.6200138954918
16.7010303331183 32.4479293065278 -6.32020485894526 0 11.9202637710914
8.44426735688953 42.7194904170382 7.89538688657915 -0.726751980304561 5.87093602834274
