VERSION .7
FIELDS x y z velocity intensity
SIZE 4 4 4 4 4
TYPE F F F F F
COUNT 1 1 1 1 1
WIDTH 974
HEIGHT 1
VIEWPOINT 0 0 0 1 0 0 0
POINTS 974
DATA ascii
19.078100 2.274760 38.087400 -10.123200 8.540000
-12.462600 1.780580 40.759200 -13.320000 6.770000
-12.827800 1.665400 41.102600 -13.320000 17.100000
-13.516400 1.547550 41.339800 -13.231200 17.680000
-13.647000 1.834530 41.739100 -13.231200 14.380000
-13.780800 1.852520 42.148300 -13.231200 15.870000
19.566300 2.047600 41.221500 -10.212000 12.940000
9.525240 0.392129 45.109900 -10.922400 11.870000
19.750900 2.066920 41.610300 -10.212000 14.580000
9.614260 0.395794 45.531500 -10.922400 6.200000
19.611200 2.086240 42.151600 -10.212000 6.610000
10.057200 0.399458 45.877000 -10.922400 8.630000
20.117200 2.250660 42.382000 -10.212000 6.140000
19.390700 2.271310 43.191500 -10.300800 7.840000
8.692590 -2.698190 46.955900 -11.011200 7.050000
19.567000 2.291950 43.584100 -10.300800 5.780000
8.770900 -2.722500 47.378900 -10.922400 5.500000
19.743300 2.312600 43.976800 -10.300800 6.270000
8.849220 -2.746810 47.802000 -10.922400 5.210000
19.919600 2.333250 44.369400 -10.300800 8.950000
8.941640 0.265863 48.301200 -11.011200 14.460000
9.020070 0.268195 48.724900 -11.011200 14.930000
19.579100 2.068350 45.474500 -10.389600 15.360000
19.749400 2.086330 45.869900 -10.389600 7.210000
19.919600 2.104320 46.265300 -10.389600 14.020000
19.801500 1.079370 47.754100 -10.389600 9.330000
19.965100 1.249580 48.148700 -10.389600 12.650000
19.783600 2.065100 49.591100 -10.478400 8.610000
19.940700 2.248200 49.984800 -10.478400 9.310000
20.100200 2.266190 50.384700 -10.478400 7.540000
20.259800 2.284170 50.784600 -10.478400 9.630000
20.419300 2.302160 51.184500 -10.478400 6.790000
6.411350 0.816555 55.209100 -11.011200 6.450000
20.585900 1.804760 51.602100 -10.478400 12.140000
20.344100 1.818750 52.160500 -10.478400 10.650000
20.500600 1.832740 52.561700 -10.478400 9.770000
-22.709600 -1.832740 51.645700 -10.034400 9.290000
-23.980700 -1.846730 51.543300 -9.945600 6.320000
16.942700 1.011430 54.287400 -9.679200 9.660000
20.089800 2.037870 53.634400 -10.567200 9.750000
-24.162400 -1.860720 51.933800 -9.945600 12.450000
20.240800 2.053190 54.037700 -10.567200 16.750000
20.391900 2.068510 54.440900 -10.567200 16.480000
-4.509860 1.902700 58.397600 -11.011200 6.220000
20.542900 2.083830 54.844200 -10.567200 11.550000
-4.201440 2.464030 58.832000 -11.011200 7.290000
20.267600 2.099150 55.405300 -10.567200 5.960000
20.415500 2.114480 55.809700 -10.567200 13.880000
20.563400 2.129800 56.214200 -10.567200 5.830000
20.711400 2.145120 56.618600 -10.567200 15.310000
-8.689520 2.175770 60.528500 -11.100000 12.290000
-5.882130 2.175770 60.865500 -11.100000 12.020000
20.802900 2.042600 59.337300 -10.656000 9.710000
20.945400 2.056590 59.743700 -10.656000 7.530000
20.741800 1.873440 60.276800 -10.656000 13.540000
-19.246500 -3.719130 62.946000 -10.567200 15.900000
-17.791900 -2.497530 67.899900 -10.744800 7.350000
-17.901100 -2.512860 68.316500 -10.744800 8.850000
-19.855300 -2.747920 68.214500 -10.567200 14.940000
-19.975700 -2.764570 68.627900 -10.567200 4.480000
21.039700 0.834556 68.810800 -10.744800 5.250000
-20.510000 0.166915 68.975300 -10.567200 10.730000
21.565400 0.839554 69.099300 -10.744800 13.520000
21.692900 1.069750 69.507800 -10.744800 11.890000
21.666300 1.547100 70.860300 -10.744800 6.800000
21.792300 1.556090 71.272300 -10.744800 7.800000
21.918300 1.565090 71.684200 -10.744800 9.030000
21.190200 1.583080 72.800600 -10.744800 7.950000
21.733500 1.592070 73.089900 -10.744800 5.390000
21.856300 1.601070 73.502800 -10.744800 8.640000
21.979100 1.610060 73.915700 -10.744800 8.230000
21.783200 2.773340 74.837800 -10.833600 7.890000
21.901000 3.031030 75.242600 -10.833600 10.780000
21.437600 3.047690 75.823500 -10.833600 7.070000
21.237000 2.095360 76.807000 -10.833600 11.860000
21.351800 2.106680 77.222200 -10.833600 8.830000
-28.112300 0.681645 75.052300 -10.300800 13.050000
-28.844100 0.685309 75.235700 -10.300800 6.900000
21.911000 2.616210 77.497900 -10.833600 9.440000
22.209500 1.789960 82.803600 -10.833600 8.460000
22.542700 2.086070 84.046100 -10.833600 9.320000
22.654300 2.096400 84.462200 -10.833600 4.590000
22.767500 1.834930 84.884100 -10.833600 7.140000
22.385600 1.843930 85.431100 -10.833600 5.010000
-27.448700 1.297630 83.951600 -10.478400 6.850000
22.494800 1.852920 85.847800 -10.833600 10.350000
-27.582600 1.303960 84.361100 -10.478400 12.500000
22.604000 1.861920 86.264500 -10.833600 11.650000
-27.715100 1.586110 84.766400 -10.478400 8.470000
22.711700 2.148030 86.675300 -10.833600 8.970000
23.323900 2.158360 86.958600 -10.833600 8.310000
23.435500 2.168690 87.374700 -10.833600 6.540000
23.547100 2.179010 87.790700 -10.833600 6.650000
19.559000 1.344290 114.242000 -11.011200 10.640000
19.632300 0.989484 114.670000 -11.011200 10.690000
19.705400 0.632008 115.098000 -11.011200 10.170000
22.354100 2.689490 149.561000 -11.100000 8.610000
22.417800 2.697150 149.987000 -11.100000 8.170000
21.611700 2.704810 150.540000 -11.100000 6.080000
-59.651800 -9.951420 147.052000 -10.212000 5.440000
-59.813500 -9.978390 147.451000 -10.212000 9.300000
-59.937700 -11.485200 147.757000 -10.123200 12.310000
-60.085600 -12.010600 148.121000 -10.123200 11.060000
-6.440920 1.938970 167.054000 -11.100000 4.990000
-6.457520 1.943970 167.484000 -11.100000 6.090000
-6.474320 1.429250 167.920000 -11.100000 5.690000
-5.259790 0.395798 170.555000 -11.100000 4.780000
-5.273070 0.396798 170.986000 -11.100000 6.160000
-5.286350 0.397797 171.416000 -11.100000 7.270000
-5.299650 0.000000 171.847000 -11.100000 8.470000
-48.708800 -11.461700 176.164000 -10.656000 5.450000
6.420650 1.191560 6.871830 -8.258400 2.940000
6.705900 0.352413 7.288940 -8.169600 8.700000
6.998200 0.335770 7.606650 -8.169600 9.110000
6.506280 -0.516206 8.570220 -8.791200 5.630000
7.054810 -0.536854 8.686640 -8.613600 5.950000
5.676220 -0.467626 9.647700 -9.412800 6.370000
7.180390 -0.728153 9.125170 -8.702400 10.970000
7.354820 -0.755121 9.534440 -8.791200 6.540000
5.075380 -1.609030 11.305000 -9.945600 12.680000
5.160100 -1.664520 11.735000 -10.034400 8.350000
5.332100 -1.720000 12.126200 -10.034400 9.910000
-8.689070 0.405069 10.698900 -8.258400 9.900000
-9.101880 1.235050 10.284000 -7.992000 5.560000
5.600420 -1.775480 12.474500 -10.034400 4.150000
-8.874460 0.461684 11.100900 -8.347200 7.640000
6.726260 1.361220 12.454100 -9.679200 3.800000
6.733450 1.357360 12.940600 -9.768000 3.870000
-8.402560 1.304370 12.455800 -8.791200 5.790000
6.543630 1.397280 13.515900 -9.856800 6.700000
-8.642640 1.341640 12.811700 -8.880000 5.960000
6.730590 1.437200 13.902100 -9.856800 6.210000
-8.688820 1.145430 13.318500 -8.968800 6.380000
6.834670 -0.382102 14.399000 -9.945600 5.010000
-8.262620 1.617860 14.043700 -9.235200 4.460000
-8.825140 0.974261 13.758000 -9.057600 4.270000
6.473410 -0.392429 15.035100 -10.034400 6.630000
-8.368710 1.660440 14.478200 -9.235200 4.350000
-9.057390 0.999899 14.120000 -9.057600 3.960000
7.205920 -0.142925 15.181100 -10.034400 5.310000
7.270230 0.199894 15.626400 -10.034400 11.550000
7.451690 0.259525 16.016400 -10.034400 17.130000
7.633440 0.265855 16.407000 -10.034400 18.130000
6.474950 -1.602510 17.286400 -10.300800 5.900000
7.025230 -0.043978 17.610000 -10.212000 7.860000
-7.465430 1.756580 17.339200 -9.945600 6.400000
-8.043060 1.796500 17.552000 -9.768000 3.430000
4.747290 -1.714310 19.168000 -10.656000 5.340000
-8.228000 1.668510 17.955600 -9.768000 8.250000
4.850490 -1.751580 19.584700 -10.567200 7.020000
6.971830 -1.613540 19.405800 -10.389600 9.530000
7.248150 -0.816048 19.814200 -10.389600 4.070000
7.276150 -1.032410 20.252900 -10.389600 9.270000
-7.397700 0.699521 20.223000 -10.123200 7.380000
7.422740 -0.985168 20.660900 -10.389600 7.900000
-7.426290 0.713511 20.670800 -10.034400 9.110000
7.283470 -1.004480 21.166200 -10.389600 8.860000
-7.571110 0.796759 21.073900 -10.034400 9.260000
4.099860 -3.051610 23.141800 -10.656000 8.680000
18.349500 1.537210 16.253900 -7.459200 9.410000
5.613900 -1.156300 23.439800 -10.656000 6.300000
5.576140 -1.176950 23.891000 -10.656000 8.440000
18.133100 1.238890 18.387100 -7.903200 7.060000
4.702090 -1.079140 25.399900 -10.656000 9.500000
6.116830 -1.097120 25.539700 -10.656000 8.230000
18.070000 1.197650 19.641100 -8.258400 7.320000
7.460790 -1.032550 25.632100 -10.478400 6.850000
7.029640 -0.797479 26.208600 -10.656000 7.260000
6.783330 -0.490391 26.725800 -10.656000 7.110000
7.982430 -0.324827 26.845000 -10.567200 7.100000
6.523180 -0.324827 27.236300 -10.656000 7.100000
-7.947950 -0.153921 27.305800 -10.389600 9.220000
18.177200 8.702210 21.270200 -8.791200 7.130000
18.444500 8.830180 21.583000 -8.702400 9.200000
8.148420 0.364806 30.379800 -10.567200 7.890000
6.498320 0.364806 30.775000 -10.567200 6.900000
8.497600 -0.172578 30.733000 -10.567200 6.220000
18.590300 1.603310 30.511400 -9.501600 5.760000
18.814300 1.622630 30.879000 -9.501600 8.110000
19.038300 1.641950 31.246600 -9.501600 9.660000
19.262300 1.661260 31.614200 -9.501600 6.630000
18.520700 1.890220 32.041600 -9.590400 7.890000
18.985300 1.912200 32.268800 -9.590400 13.980000
-27.173000 1.363680 27.027700 -7.459200 6.420000
-27.481200 1.259140 27.334300 -7.459200 7.980000
19.421800 1.956150 33.010600 -9.590400 15.270000
19.640000 1.978130 33.381500 -9.590400 12.100000
19.333200 2.090940 34.050400 -9.679200 10.080000
19.282100 2.022090 34.578400 -9.679200 8.400000
19.491700 2.044070 34.954200 -9.679200 17.840000
-8.223260 0.981073 40.089000 -10.656000 12.390000
19.152600 1.961580 36.125400 -9.768000 17.770000
-6.049480 0.981073 40.474100 -10.656000 12.390000
19.351300 2.110010 36.500100 -9.768000 8.270000
19.552800 2.131990 36.880300 -9.768000 10.040000
19.754400 2.153970 37.260500 -9.768000 7.870000
19.566700 2.297740 38.322500 -9.856800 11.330000
19.764800 2.219910 38.710400 -9.856800 5.250000
19.656200 2.343690 39.241600 -9.945600 6.410000
19.510900 1.870500 40.299900 -9.945600 20.290000
19.384300 1.888490 40.838000 -9.945600 15.700000
19.886100 1.906470 41.074900 -9.945600 5.530000
20.073700 1.924460 41.462400 -9.945600 5.180000
19.367200 2.086240 42.264300 -10.034400 11.560000
9.703280 0.399458 45.953100 -10.744800 7.170000
19.549200 1.960430 42.661300 -10.034400 5.710000
9.791990 0.549708 46.373300 -10.744800 10.430000
19.728500 1.978420 43.052700 -10.034400 14.700000
9.880610 0.702617 46.792900 -10.656000 11.080000
19.907900 1.996400 43.444100 -10.034400 17.450000
9.969620 0.708947 47.214500 -10.656000 9.520000
19.409200 2.014390 44.139900 -10.034400 15.680000
19.577000 2.333250 44.521700 -10.034400 8.750000
19.750300 2.353900 44.915700 -10.034400 9.060000
19.923500 2.374550 45.309700 -10.034400 13.020000
-24.666700 -1.622890 43.443800 -9.235200 16.140000
19.919600 2.104320 46.265300 -10.123200 8.450000
-25.098000 -1.218600 44.203400 -9.324000 10.870000
20.089900 2.122300 46.660800 -10.123200 7.330000
20.260200 2.140290 47.056200 -10.123200 15.030000
20.135600 0.284520 48.559900 -10.123200 7.220000
20.300700 0.286852 48.957900 -10.123200 6.900000
20.037800 2.165020 52.265700 -10.300800 12.530000
20.191900 2.181680 52.667700 -10.300800 11.160000
20.346100 2.198330 53.069800 -10.300800 5.550000
20.500200 2.214990 53.471800 -10.300800 6.530000
20.654400 2.231640 53.873900 -10.300800 9.420000
20.391900 2.068510 54.440900 -10.389600 9.960000
20.542900 2.083830 54.844200 -10.389600 14.500000
20.694000 2.099150 55.247500 -10.389600 14.400000
20.845000 2.114480 55.650700 -10.389600 9.270000
-9.705920 2.221730 61.682000 -10.744800 7.520000
21.416400 2.025340 65.502000 -10.478400 10.140000
21.550300 2.038000 65.911400 -10.478400 6.430000
21.686000 1.834850 66.326500 -10.478400 5.560000
21.821100 1.683310 66.739800 -10.478400 6.690000
-18.016500 -1.703970 68.756800 -10.478400 6.280000
-18.124600 -1.880160 69.169500 -10.478400 6.490000
-17.959900 -1.848550 74.988200 -10.478400 7.500000
22.153400 1.655040 76.109700 -10.567200 12.140000
-15.294900 -0.454766 82.620500 -10.656000 7.770000
21.990300 0.721957 81.986300 -10.567200 6.640000
22.735600 0.989474 82.227200 -10.567200 5.930000
21.842900 0.999469 83.359900 -10.567200 12.710000
21.952200 1.004470 83.776700 -10.567200 10.770000
22.061400 1.009460 84.193500 -10.567200 8.010000
21.721900 2.594970 85.582800 -10.656000 10.790000
22.492000 2.333210 85.836800 -10.567200 4.840000
22.604000 1.861920 86.264500 -10.567200 8.980000
22.714600 1.593770 86.686500 -10.567200 8.280000
22.823800 1.601430 87.103200 -10.567200 6.590000
22.933000 1.609100 87.520000 -10.567200 9.640000
22.461500 2.965970 88.496600 -10.567200 10.840000
-55.303800 -19.151100 110.408000 -9.412800 6.260000
-55.494500 -19.217100 110.789000 -9.412800 8.700000
21.611700 2.704810 150.540000 -10.744800 5.020000
21.672900 2.712480 150.967000 -10.744800 6.230000
21.735200 2.247110 151.401000 -10.833600 5.420000
-59.278900 -10.032300 148.593000 -9.945600 5.150000
-59.414000 -11.051300 148.932000 -9.945600 9.420000
-60.435500 -11.080900 148.984000 -9.945600 9.240000
-5.193200 1.432920 168.396000 -10.833600 5.140000
-5.206480 1.436580 168.826000 -10.833600 4.110000
-5.299460 1.462240 171.841000 -10.833600 9.640000
-5.312740 1.465900 172.272000 -10.833600 10.470000
-5.325850 2.003930 172.697000 -10.833600 6.490000
-5.339300 1.473230 173.133000 -10.833600 4.620000
-48.850400 -15.913300 176.676000 -10.300800 7.500000
-48.964800 -15.950600 177.089000 -10.300800 6.520000
-49.104700 -14.848400 177.595000 -10.300800 4.350000
-47.845700 -14.883000 178.383000 -10.300800 4.420000
6.287430 1.336850 6.967620 -8.347200 7.320000
6.473070 1.336850 6.795500 -8.080800 5.730000
6.551400 0.712023 7.402310 -8.347200 9.640000
6.748680 0.712023 7.222900 -8.080800 8.920000
6.951670 1.236400 7.556070 -8.258400 9.410000
6.695730 -1.031230 8.375590 -8.702400 6.100000
7.165160 1.287920 7.940310 -8.347200 7.210000
7.073440 -1.113720 9.169680 -8.791200 8.550000
7.337570 -1.117820 9.512080 -8.791200 11.850000
5.566210 -0.391732 10.697300 -9.768000 10.140000
6.740550 0.540876 9.992070 -9.235200 11.190000
7.710740 0.820657 9.799160 -8.791200 11.490000
5.593540 -0.405722 11.166900 -9.856800 8.640000
6.901310 0.560193 10.402400 -9.235200 11.470000
7.139290 0.579510 10.761100 -9.235200 9.720000
-9.162330 1.402030 9.618710 -7.725600 5.230000
5.177370 -1.525220 12.218900 -10.034400 8.100000
-9.361790 1.447260 10.019600 -7.814400 3.080000
5.419100 -1.532050 12.586400 -10.034400 7.460000
6.347840 1.142190 12.672800 -9.945600 5.170000
6.540200 1.176800 13.056800 -9.856800 6.660000
-8.192220 1.629320 12.557300 -8.968800 5.010000
6.439270 1.397280 13.566000 -9.945600 5.350000
-7.704890 1.582940 12.867800 -9.235200 7.180000
6.519130 1.341640 14.012000 -9.945600 5.970000
-7.925030 1.628160 13.235500 -9.235200 7.410000
-8.973600 1.575290 13.083600 -8.880000 5.590000
6.700220 1.378910 14.401200 -9.945600 7.070000
-7.615030 1.673390 13.906800 -9.412800 6.790000
-9.112290 1.617860 13.507900 -8.880000 6.360000
6.996480 1.378330 14.739900 -9.945600 7.500000
-8.254650 1.768970 14.030200 -9.235200 4.950000
7.088850 0.090953 15.236500 -10.034400 12.860000
-8.471880 1.815520 14.399400 -9.235200 5.000000
7.270460 0.146590 15.626900 -10.034400 18.050000
-7.486470 1.384470 15.463400 -9.679200 6.860000
7.452220 0.150255 16.017500 -10.034400 19.200000
-8.368300 1.419080 15.494400 -9.501600 5.540000
7.633980 0.153920 16.408200 -10.034400 16.180000
-8.076500 1.523420 16.123900 -9.590400 8.910000
5.599730 -2.612930 17.467900 -10.389600 8.010000
-8.278610 1.274010 16.527400 -9.590400 8.050000
-8.477710 1.069550 16.924900 -9.590400 8.490000
-8.087760 1.714310 18.014900 -9.856800 12.120000
-8.263580 1.751580 18.406500 -9.856800 10.290000
4.914130 -0.816048 20.518100 -10.656000 5.980000
-7.609230 7.377160 18.758000 -10.123200 8.980000
5.459910 -0.449738 20.836800 -10.656000 8.450000
5.558300 -1.443220 21.212300 -10.656000 8.240000
6.085310 -1.333200 21.523400 -10.567200 9.020000
4.557790 -2.660260 22.219600 -10.656000 6.250000
4.667340 -1.384480 22.753600 -10.656000 7.640000
4.880500 -1.903640 23.113300 -10.744800 7.680000
7.048080 -1.410110 22.583200 -10.478400 7.790000
5.599290 -2.086990 23.378800 -10.656000 8.990000
5.239730 -2.124260 23.901700 -10.656000 5.220000
17.684700 1.564180 17.590200 -7.903200 5.450000
17.986100 1.669610 17.889900 -7.903200 6.780000
6.444090 0.058970 24.592800 -10.656000 6.120000
18.287100 1.777690 18.189300 -7.903200 5.050000
5.340280 -0.539686 25.290700 -10.656000 9.690000
18.591900 1.807320 18.492500 -7.903200 9.490000
8.549710 -0.690902 24.845900 -10.389600 13.700000
9.877100 -0.690902 24.348700 -10.212000 10.290000
17.855600 1.836950 19.787300 -8.347200 13.130000
18.143600 1.866570 20.106400 -8.347200 9.630000
-8.411270 1.151080 26.238300 -10.300800 5.230000
7.977000 1.082510 26.826700 -10.567200 6.140000
17.924300 8.025340 20.569700 -8.702400 12.890000
7.731590 1.099170 27.346200 -10.567200 5.710000
18.356300 8.146930 20.740500 -8.702400 12.020000
-7.848740 1.115820 27.760500 -10.478400 5.930000
18.663800 8.094500 21.087900 -8.702400 5.420000
8.172860 1.833870 28.078500 -10.567200 6.870000
18.938300 8.213530 21.398000 -8.702400 8.920000
8.293050 1.860830 28.491400 -10.567200 6.430000
18.819300 1.824280 30.358200 -9.501600 4.820000
19.046100 1.846260 30.723900 -9.501600 9.550000
19.278500 1.641950 31.098900 -9.501600 8.160000
18.985300 1.912200 32.268800 -9.590400 9.290000
18.951400 1.934170 32.786700 -9.679200 8.480000
19.166800 1.956150 33.159300 -9.679200 13.810000
19.123100 1.978130 33.680300 -9.679200 15.850000
18.802900 2.212030 34.338500 -9.768000 13.260000
19.009500 2.236340 34.715800 -9.768000 7.120000
19.216100 2.260650 35.093200 -9.768000 8.540000
-7.064730 0.720262 39.877200 -10.656000 13.430000
19.426100 2.159870 35.476600 -9.768000 6.510000
-7.139890 0.727924 40.301500 -10.656000 16.070000
18.870700 2.088030 36.266400 -9.856800 14.320000
19.552800 2.131990 36.880300 -9.856800 6.090000
-5.753270 1.893070 41.791600 -10.744800 7.440000
19.754400 2.153970 37.260500 -9.856800 11.440000
19.276100 2.064820 38.482700 -9.945600 14.600000
19.243800 2.085470 38.979400 -9.945600 9.240000
19.437200 1.970340 39.371000 -9.945600 8.520000
19.197200 2.008970 40.443700 -9.945600 16.560000
19.381700 2.028290 40.832600 -9.945600 6.400000
19.566300 2.047600 41.221500 -9.945600 17.780000
19.750900 2.066920 41.610300 -9.945600 9.830000
10.057200 0.399458 45.877000 -10.744800 5.950000
19.538400 2.504540 42.637800 -10.034400 7.840000
10.149400 0.403123 46.297900 -10.744800 7.970000
19.717600 2.527510 43.029000 -10.034400 6.110000
9.881010 0.554705 46.794800 -10.744800 12.330000
9.970030 0.559702 47.216400 -10.744800 6.270000
19.403800 2.312600 44.127700 -10.123200 15.010000
10.700600 0.564700 47.498000 -10.744800 12.920000
19.577000 2.333250 44.521700 -10.123200 17.990000
11.812400 18.274300 44.040300 -10.744800 11.330000
19.750300 2.353900 44.915700 -10.123200 16.420000
9.242670 18.434600 45.058700 -10.744800 7.810000
19.920500 2.527610 45.302700 -10.123200 7.570000
9.774280 -2.659490 51.145400 -10.744800 9.170000
19.965100 1.249580 48.148700 -10.212000 9.510000
20.130100 1.259900 48.546600 -10.212000 15.500000
19.918700 1.106360 49.102900 -10.300800 10.020000
20.100200 2.266190 50.384700 -10.300800 13.640000
19.867700 2.284170 50.939200 -10.300800 9.070000
20.021500 2.472580 51.333400 -10.300800 8.320000
20.175000 2.663620 51.727100 -10.300800 15.460000
20.042200 1.818750 52.277200 -10.389600 6.710000
20.194300 2.007220 52.673800 -10.300800 16.790000
20.348400 2.022540 53.075900 -10.300800 7.250000
20.502600 2.037870 53.478000 -10.300800 13.670000
20.656700 2.053190 53.880100 -10.300800 6.930000
20.965000 2.083830 54.684200 -10.300800 6.120000
20.746200 1.331230 60.289700 -10.478400 6.870000
20.886400 1.340220 60.697000 -10.478400 11.720000
21.023900 1.698940 61.096600 -10.478400 11.730000
-3.806000 2.548070 65.768400 -10.833600 11.930000
21.440500 2.140530 62.307200 -10.478400 15.970000
21.580600 2.154520 62.714400 -10.478400 15.810000
21.416400 2.025340 65.502000 -10.478400 6.130000
21.550300 2.038000 65.911400 -10.478400 7.730000
21.684100 2.050660 66.320800 -10.478400 8.860000
21.431900 2.063320 66.855100 -10.478400 6.600000
-16.551800 0.000000 70.916100 -10.478400 9.070000
-16.383500 -0.172912 72.722900 -10.478400 8.920000
20.089900 2.084030 76.669800 -10.567200 9.880000
21.878000 0.979479 81.567600 -10.567200 6.340000
21.988700 1.246990 81.980500 -10.567200 5.340000
22.734700 1.253320 82.223800 -10.567200 7.160000
22.322400 1.532470 83.224700 -10.656000 7.330000
22.434000 1.540130 83.640800 -10.656000 5.010000
22.544300 1.816940 84.051900 -10.656000 5.100000
22.767500 1.834930 84.884100 -10.656000 5.290000
22.879100 1.843930 85.300200 -10.656000 5.120000
22.992100 1.578450 85.721500 -10.656000 9.590000
22.605400 1.586110 86.269700 -10.656000 11.560000
22.044500 1.870910 86.853800 -10.656000 9.470000
22.150500 1.879910 87.271300 -10.656000 8.130000
22.256500 1.888900 87.688900 -10.656000 10.290000
22.575800 1.632080 88.946900 -10.656000 11.390000
-55.698800 -17.061000 109.089000 -9.501600 11.780000
-55.047500 -17.120500 109.897000 -9.590400 9.300000
-56.205900 -18.386900 110.082000 -9.412800 5.530000
31.185500 1.689100 142.256000 -10.744800 5.640000
31.277700 1.694100 142.677000 -10.744800 5.930000
31.370000 1.699100 143.098000 -10.744800 11.490000
21.612700 2.234450 150.548000 -10.833600 12.560000
21.674900 1.769060 150.980000 -10.833600 9.030000
21.736100 1.774060 151.407000 -10.833600 6.660000
-6.490720 1.953960 168.345000 -10.833600 7.780000
-6.507520 1.436580 168.781000 -10.833600 5.010000
-6.523920 1.963960 169.207000 -10.833600 6.650000
-4.306130 0.930521 171.873000 -10.833600 5.180000
-5.312850 0.932854 172.276000 -10.833600 4.860000
-5.326130 0.935186 172.706000 -10.833600 7.930000
-48.823400 -11.488600 176.578000 -10.389600 6.650000
-47.572400 -11.515600 177.364000 -10.389600 9.590000
-47.906700 -11.596500 178.611000 -10.300800 9.970000
6.407030 0.564046 6.964080 -8.258400 3.200000
6.557920 0.559085 7.409670 -8.347200 7.840000
6.844210 0.551457 7.733140 -8.347200 8.220000
7.400380 -0.871738 8.934840 -8.613600 8.190000
6.036590 2.022630 9.737840 -9.501600 9.540000
6.784470 -0.799961 9.417430 -8.968800 9.560000
7.674460 -0.904024 9.265760 -8.613600 9.160000
6.182150 2.097550 10.146400 -9.590400 8.990000
6.746600 0.177237 10.001000 -9.146400 10.800000
4.480830 -1.981150 11.962600 -10.300800 5.890000
6.895500 0.029985 10.934300 -9.412800 9.130000
4.630190 -2.047190 12.361400 -10.300800 7.030000
7.125350 0.030984 11.298800 -9.412800 9.060000
-9.133790 0.447693 10.320100 -8.080800 7.410000
5.328120 -1.902270 12.574700 -10.212000 5.740000
6.682710 1.362410 11.984000 -9.768000 4.850000
-8.961380 0.373767 11.034200 -8.258400 6.150000
6.337260 1.404990 12.651700 -9.945600 4.400000
-9.232940 0.385093 11.368600 -8.258400 4.190000
6.453840 1.447560 13.072600 -9.945600 4.820000
6.643660 1.490140 13.457100 -9.945600 4.160000
-8.613610 0.804209 12.353600 -8.791200 6.140000
-7.742890 1.114470 13.395500 -9.235200 5.690000
-8.262850 0.827186 13.102500 -9.057600 6.290000
-8.859710 0.827186 12.706500 -8.791200 6.610000
-8.063850 1.145430 13.705900 -9.235200 7.200000
-8.580340 1.280630 13.376300 -9.057600 6.940000
7.108470 1.416170 14.682600 -10.034400 4.800000
-8.281790 1.176390 14.076300 -9.235200 7.660000
7.269940 0.253195 15.625700 -10.034400 16.400000
7.358980 0.259525 16.059200 -10.123200 18.180000
-8.011210 1.323750 15.690400 -9.679200 5.650000
7.633440 0.265855 16.407000 -10.123200 15.140000
-8.082480 1.356040 16.135800 -9.679200 5.730000
-8.796900 1.132680 15.775400 -9.501600 6.450000
-8.881610 1.159650 16.219900 -9.412800 7.380000
-8.365980 1.522910 16.945700 -9.768000 5.300000
-7.916040 1.557530 17.632400 -9.856800 5.720000
6.873870 -2.977170 18.351400 -10.300800 8.180000
-8.544200 6.134260 17.306700 -9.856800 5.860000
7.251910 -0.607603 19.360700 -10.300800 9.100000
-8.452510 6.264780 17.807400 -9.856800 9.260000
7.398740 -0.946534 19.752700 -10.300800 10.760000
-8.611480 6.519640 18.142300 -9.856800 4.960000
4.610100 -0.832702 21.029500 -10.656000 9.140000
7.532910 1.730580 20.110900 -10.300800 9.610000
-7.393100 1.032410 20.210500 -10.123200 9.140000
6.703570 -0.849356 20.911300 -10.567200 7.920000
7.286190 -0.796759 21.174100 -10.478400 9.270000
4.565150 -2.326770 22.255500 -10.744800 8.940000
7.259750 -0.812082 21.637900 -10.478400 7.530000
4.651290 -2.370670 22.675400 -10.744800 6.700000
4.737420 -2.414570 23.095300 -10.744800 8.900000
4.839280 1.510240 23.591900 -10.744800 5.320000
17.816400 1.591150 18.065900 -7.992000 9.870000
18.118400 1.618120 18.372100 -7.992000 10.200000
18.420400 1.645090 18.678300 -7.992000 11.590000
-7.314720 0.848113 27.915400 -10.567200 7.930000
19.019900 2.157490 28.668900 -9.324000 7.960000
18.584800 1.824280 30.502300 -9.501600 9.370000
18.808700 1.846260 30.869800 -9.501600 6.650000
19.035500 1.755100 31.242100 -9.501600 8.360000
18.796000 2.454140 34.325800 -9.768000 5.110000
19.002500 2.481110 34.703000 -9.768000 12.370000
19.209100 2.508080 35.080200 -9.768000 7.170000
19.419300 2.410010 35.464200 -9.768000 10.850000
19.149700 2.088030 36.119900 -9.856800 7.890000
19.351300 2.110010 36.500100 -9.856800 4.920000
19.552800 2.131990 36.880300 -9.856800 12.050000
19.754400 2.153970 37.260500 -9.856800 16.350000
-5.875670 0.766236 42.680600 -10.744800 15.980000
19.281400 1.798560 38.493400 -9.945600 11.170000
-7.590830 0.773898 42.846800 -10.744800 14.810000
19.474200 1.816550 38.878300 -9.945600 20.470000
19.197200 2.008970 40.443700 -10.034400 7.410000
19.381700 2.028290 40.832600 -10.034400 6.020000
19.566300 2.047600 41.221500 -10.034400 5.900000
19.753600 1.924460 41.615900 -10.034400 11.260000
19.588600 3.056240 42.102900 -10.123200 6.570000
9.701510 0.980429 45.944800 -10.744800 14.250000
19.769900 3.084540 42.492800 -10.123200 16.920000
9.791100 0.842860 46.369100 -10.744800 12.170000
19.951300 3.112840 42.882600 -10.123200 15.480000
9.880110 0.850522 46.790600 -10.744800 8.090000
12.499800 1.007410 46.603100 -10.744800 7.120000
7.196200 1.016410 48.146300 -10.744800 5.820000
6.975290 -1.898560 48.587800 -10.744800 8.910000
7.696910 -1.915210 48.914600 -10.833600 8.890000
9.379350 -1.313850 49.078900 -10.744800 6.780000
9.173910 -1.325170 49.555900 -10.833600 10.290000
19.964000 1.370480 48.145900 -10.300800 10.110000
20.130100 1.259900 48.546600 -10.300800 7.640000
20.295100 1.270230 48.944500 -10.300800 7.260000
20.461500 1.115350 49.345900 -10.300800 7.270000
20.105000 1.930610 50.396800 -10.300800 6.000000
20.264600 1.945930 50.796700 -10.300800 8.260000
20.424200 1.961250 51.196700 -10.300800 9.310000
20.581400 2.148370 51.590800 -10.300800 10.050000
20.647200 2.549850 52.937600 -10.300800 8.220000
18.088400 1.187310 53.912900 -9.412800 7.240000
20.494900 2.569160 53.458000 -10.300800 11.640000
18.226500 1.019090 54.324600 -9.412800 15.760000
-4.576180 1.930680 59.256400 -10.833600 14.780000
-5.412740 2.314910 59.605100 -10.833600 19.350000
20.238200 2.129800 56.332100 -10.389600 19.260000
20.747500 1.134030 60.293300 -10.478400 7.460000
20.886400 1.340220 60.697000 -10.478400 6.560000
21.025100 1.549060 61.100200 -10.478400 8.360000
21.165300 1.559390 61.507500 -10.478400 11.760000
20.957400 2.344310 62.464000 -10.478400 9.240000
-21.451800 0.000000 62.340100 -10.212000 6.730000
21.094400 2.359630 62.872300 -10.478400 7.580000
-21.592000 0.000000 62.747500 -10.212000 10.840000
-11.637800 3.200480 65.689900 -10.922400 13.930000
-11.712800 3.221120 66.113700 -10.922400 12.860000
-20.650500 -0.784583 64.417700 -10.300800 7.840000
21.041900 1.439160 65.638700 -10.567200 8.270000
21.172000 1.662660 66.044400 -10.478400 8.090000
21.303500 1.672990 66.454600 -10.478400 6.390000
21.437800 1.248960 66.873400 -10.478400 10.910000
-7.210670 1.565090 74.612600 -10.833600 9.480000
-7.251610 1.807240 75.036300 -10.833600 7.050000
21.972300 2.504280 73.892900 -10.567200 12.790000
22.090100 2.997730 74.289300 -10.567200 12.040000
21.915000 2.118010 77.512000 -10.567200 8.230000
22.036300 1.440520 77.941100 -10.567200 7.870000
22.756800 1.448190 78.182600 -10.567200 8.210000
-14.573500 -2.972530 82.260800 -10.656000 8.130000
-14.648600 -2.987850 82.684800 -10.656000 7.370000
22.323500 1.265980 83.228900 -10.656000 10.630000
22.435200 1.272310 83.645000 -10.656000 7.950000
22.545600 1.547800 84.057000 -10.656000 6.780000
22.281000 0.475755 85.031600 -10.656000 10.290000
22.390200 0.478087 85.448400 -10.656000 11.170000
22.498900 0.754940 85.863400 -10.656000 11.320000
23.153500 1.059440 88.361500 -10.656000 6.680000
31.094800 0.785929 141.843000 -10.744800 4.910000
31.187100 0.788261 142.264000 -10.744800 5.680000
31.279400 0.790593 142.685000 -10.744800 6.810000
30.267800 0.792926 143.343000 -10.744800 5.240000
21.612700 2.234450 150.548000 -10.833600 6.190000
21.674900 1.769060 150.980000 -10.833600 5.210000
-5.206110 2.481310 168.814000 -10.922400 5.590000
-5.299630 -0.398796 171.847000 -10.922400 5.600000
-5.312920 0.399796 172.278000 -10.922400 7.340000
-5.326200 0.400795 172.708000 -10.922400 8.740000
-48.938000 -11.515600 176.993000 -10.389600 6.880000
-49.032700 -12.680900 177.335000 -10.389600 4.650000
5.985460 0.566341 6.762850 -8.524800 1.960000
6.135670 0.819890 7.179690 -8.613600 7.370000
6.452260 0.739537 6.905650 -8.169600 2.230000
6.414570 0.857157 7.506040 -8.613600 9.150000
6.745540 0.773153 7.219550 -8.169600 5.170000
6.571940 0.894425 7.934630 -8.702400 7.510000
6.153320 -0.549481 8.825050 -9.235200 5.240000
5.968330 -0.571461 9.464070 -9.412800 6.020000
6.577660 -0.341777 9.590330 -9.235200 9.720000
6.742670 0.444347 10.511500 -9.501600 5.920000
6.975170 0.459669 10.874000 -9.501600 7.070000
6.631570 1.402470 12.988300 -9.945600 7.820000
6.332670 1.443720 13.611200 -10.034400 8.340000
-8.415960 0.990448 12.475700 -8.880000 5.160000
-8.557260 1.018750 12.898500 -8.968800 6.140000
-8.798370 0.948623 13.261900 -8.968800 3.990000
-9.036160 0.974261 13.620300 -8.968800 6.320000
6.984190 -1.155500 15.241300 -10.123200 10.350000
7.270230 0.199894 15.626400 -10.123200 11.480000
5.828550 -1.323750 16.625100 -10.478400 8.880000
7.452220 0.150255 16.017500 -10.123200 10.860000
-7.526180 2.017230 15.855800 -9.679200 16.890000
5.970710 -1.356040 17.030600 -10.478400 11.240000
7.633980 0.153920 16.408200 -10.123200 18.160000
-8.914600 1.244380 15.700700 -9.412800 6.700000
5.400260 -1.488300 17.661700 -10.567200 9.090000
-9.130570 1.159650 16.081100 -9.412800 14.890000
5.630220 -1.522910 18.040200 -10.567200 6.420000
7.007100 -1.362130 17.564500 -10.300800 7.620000
6.808400 -0.352469 18.612100 -10.478400 8.820000
6.699290 -0.360131 19.108800 -10.478400 4.910000
-8.667340 1.267520 18.260000 -9.856800 4.750000
6.728900 -0.367793 19.554600 -10.567200 9.190000
-8.602600 1.166790 18.773100 -9.945600 4.180000
6.714630 -0.440743 20.013100 -10.567200 8.640000
-8.635320 1.125890 19.234600 -9.945600 7.640000
5.738680 -0.699521 20.754900 -10.656000 9.230000
7.522630 2.062450 20.083400 -10.389600 10.470000
-8.811550 1.148870 19.627100 -9.945600 8.800000
5.565470 -0.917266 21.239700 -10.656000 10.770000
7.514970 2.103700 20.543600 -10.478400 9.020000
5.505990 -1.073710 21.693200 -10.656000 9.240000
7.830180 1.937920 20.904500 -10.389600 8.180000
4.566580 -2.256490 22.262400 -10.744800 8.890000
-7.237130 1.975190 21.570400 -10.300800 10.190000
4.656830 -2.084140 22.702400 -10.744800 7.250000
-7.367420 2.227450 21.958800 -10.300800 9.150000
5.687370 -1.410110 22.963700 -10.744800 9.630000
-7.331250 2.268700 22.422600 -10.389600 9.490000
5.790770 -1.435750 23.381200 -10.744800 8.500000
4.134030 -1.764580 24.146500 -10.744800 8.280000
-7.611440 1.840340 23.279500 -10.389600 8.240000
18.356200 -3.745100 19.646100 -8.347200 9.640000
-8.037320 -0.071963 29.965600 -10.567200 7.420000
18.216600 1.527970 26.126100 -9.146400 6.410000
18.460000 1.648440 26.475100 -9.146400 7.910000
18.706100 1.670420 26.828100 -9.146400 7.720000
7.718210 8.374130 31.163600 -10.744800 7.850000
8.000800 8.482890 31.522600 -10.744800 6.260000
18.338300 1.792240 28.109400 -9.412800 9.560000
18.570200 1.920330 28.465000 -9.324000 5.820000
18.805300 1.944640 28.825300 -9.324000 7.340000
19.040400 1.968950 29.185600 -9.324000 5.580000
18.811600 1.734450 30.874500 -9.590400 6.390000
7.841320 0.764555 35.769100 -10.744800 6.710000
19.032600 1.868240 31.237300 -9.590400 9.360000
7.439870 1.546760 36.269900 -10.744800 8.540000
9.004490 1.564750 36.357200 -10.744800 7.890000
9.107990 1.582730 36.775100 -10.744800 8.650000
18.957000 1.699900 32.796500 -9.768000 10.140000
19.172400 1.719210 33.169100 -9.768000 7.850000
19.387900 1.738530 33.541800 -9.768000 6.880000
18.600700 2.333100 34.440400 -9.856800 15.670000
18.805100 2.358740 34.818900 -9.856800 6.850000
19.009500 2.384380 35.197300 -9.856800 14.760000
19.214000 2.410010 35.575800 -9.856800 9.670000
18.870700 2.088030 36.266400 -9.945600 11.850000
19.069400 2.110010 36.648100 -9.945600 16.460000
19.268000 2.131990 37.029900 -9.945600 16.510000
19.466600 2.153970 37.411600 -9.945600 11.940000
19.270800 2.297740 38.472100 -10.034400 12.590000
19.463500 2.320720 38.856900 -10.034400 18.580000
19.656200 2.343690 39.241600 -10.034400 11.550000
19.619500 2.366670 39.740400 -10.034400 6.510000
19.194400 2.147420 40.437900 -10.123200 6.800000
19.379000 2.168060 40.826700 -10.123200 5.740000
19.563500 2.188710 41.215500 -10.123200 13.350000
19.748100 2.209360 41.604400 -10.123200 16.540000
8.470580 0.539713 45.756600 -10.833600 5.200000
9.702980 0.544710 45.951700 -10.833600 15.360000
19.543800 2.250660 42.649500 -10.123200 6.800000
10.148700 0.696287 46.294500 -10.833600 9.690000
19.974400 2.124870 42.932200 -10.123200 7.180000
10.241400 0.554705 46.717300 -10.833600 11.370000
9.970670 -0.111943 47.219500 -10.744800 9.370000
8.861930 -0.865847 47.870600 -10.833600 16.030000
19.236100 2.182820 44.677600 -10.212000 9.420000
9.219370 -0.873509 48.241800 -10.833600 15.650000
-24.644600 -2.665380 43.404900 -9.412800 8.810000
20.094700 1.808030 46.671900 -10.212000 9.450000
-24.138200 -2.279410 44.693300 -9.501600 7.780000
19.990300 1.981830 47.178400 -10.212000 7.450000
9.020240 0.000000 50.915100 -10.833600 14.670000
19.593400 1.249580 48.301200 -10.300800 9.290000
20.131500 1.097360 48.550000 -10.300800 9.660000
20.297700 0.942470 48.950900 -10.300800 8.210000
20.079200 1.280560 49.498700 -10.300800 7.990000
20.105000 1.930610 50.396800 -10.300800 6.030000
20.262300 2.115060 50.790900 -10.300800 13.280000
20.424200 1.961250 51.196700 -10.300800 11.460000
20.581400 2.148370 51.590800 -10.300800 6.180000
17.953300 0.829214 53.510300 -9.501600 15.710000
18.090400 0.835544 53.918800 -9.501600 7.170000
18.226500 1.019090 54.324600 -9.501600 5.660000
-21.698500 -1.383830 53.490500 -10.034400 6.670000
20.389600 2.248290 54.434700 -10.389600 9.670000
19.244400 0.674641 54.891900 -9.501600 5.370000
20.538000 2.446040 54.831100 -10.389600 8.550000
19.386900 0.679639 55.298500 -9.501600 6.690000
20.689000 2.464030 55.234200 -10.389600 6.960000
-4.571300 3.354510 59.193300 -10.922400 6.980000
-5.063820 3.378820 59.584900 -10.922400 10.060000
20.561100 2.314910 56.207700 -10.478400 6.920000
20.709000 2.331560 56.612100 -10.478400 7.810000
-4.674050 2.535970 60.523700 -10.922400 8.110000
20.856900 2.348220 57.016400 -10.478400 9.910000
-4.707780 2.364870 60.960600 -10.922400 8.400000
21.002200 2.553960 57.413700 -10.478400 15.520000
21.114000 2.028610 58.769900 -10.478400 16.330000
21.259600 2.042600 59.175200 -10.478400 5.940000
21.091700 1.676290 60.161100 -10.478400 12.660000
21.232400 1.886100 60.562300 -10.478400 6.780000
21.376700 1.698940 60.974000 -10.478400 7.380000
-20.966100 -1.376200 62.489900 -10.300800 12.290000
-21.103100 -1.385190 62.898400 -10.300800 11.250000
21.005600 2.823740 64.245500 -10.567200 7.030000
21.035400 2.238470 65.618400 -10.567200 11.290000
21.166900 2.252460 66.028500 -10.567200 9.940000
21.298400 2.266450 66.438600 -10.567200 5.690000
-18.125700 -1.714300 69.173500 -10.567200 10.490000
-17.698000 -1.724620 69.728700 -10.567200 4.720000
21.604000 2.462310 72.654400 -10.656000 7.600000
20.854300 2.727370 73.760300 -10.656000 6.960000
20.973600 2.504280 74.182500 -10.656000 10.820000
21.092800 2.278510 74.604100 -10.656000 11.790000
21.790700 1.869200 74.863600 -10.656000 9.020000
22.031500 1.889860 75.690900 -10.656000 6.420000
22.150600 2.084030 76.100000 -10.656000 11.280000
21.915000 2.118010 77.512000 -10.656000 6.480000
22.032200 2.129340 77.926500 -10.656000 6.560000
21.313900 2.163320 79.464700 -10.656000 7.040000
21.425500 2.174640 79.880800 -10.656000 8.170000
-13.049700 -3.507190 82.931800 -10.744800 9.620000
21.986300 1.771970 81.971400 -10.656000 11.860000
22.324400 0.999469 83.232300 -10.656000 5.190000
21.952200 1.004470 83.776700 -10.656000 7.360000
22.061400 1.009460 84.193500 -10.656000 8.600000
22.274900 2.106720 85.008400 -10.656000 5.430000
22.384100 2.117050 85.425100 -10.656000 5.830000
-27.091500 1.852920 84.509800 -10.389600 7.210000
-27.715100 1.586110 84.766400 -10.389600 5.570000
-27.849000 1.593770 85.175900 -10.389600 6.900000
-27.982900 1.601430 85.585400 -10.389600 5.100000
31.091900 2.133170 141.830000 -10.744800 8.810000
31.185500 1.689100 142.256000 -10.744800 8.950000
31.277700 1.694100 142.677000 -10.744800 7.080000
31.370000 1.699100 143.098000 -10.744800 5.610000
21.614300 1.293660 150.559000 -10.922400 6.970000
21.675500 1.297320 150.985000 -10.922400 10.670000
21.737200 0.827908 151.415000 -10.922400 10.200000
-60.041100 -13.493100 148.012000 -10.034400 5.440000
-59.343600 -13.529400 148.755000 -10.034400 6.170000
-59.474600 -14.434600 149.083000 -10.034400 7.260000
-5.193380 0.390801 168.401000 -11.011200 8.610000
-6.507060 2.481310 168.769000 -10.922400 9.970000
-6.523660 2.487640 169.200000 -10.922400 9.570000
-5.299650 0.000000 171.847000 -10.922400 5.800000
-5.312920 0.399796 172.278000 -10.922400 4.500000
-5.326210 0.000000 172.709000 -10.922400 6.850000
-47.563000 -12.083500 177.329000 -10.478400 5.380000
-47.654100 -13.249800 177.669000 -10.478400 8.700000
-47.754500 -13.850900 178.043000 -10.478400 10.540000
-46.628600 -22.152200 177.950000 -10.478400 8.290000
6.341860 0.505503 7.027940 -8.524800 3.800000
6.630120 0.528480 7.347390 -8.524800 3.440000
5.812640 -0.383057 9.061630 -9.412800 5.070000
-1.944820 1.106960 10.977600 2.664000 8.180000
7.090730 -0.764060 9.192100 -8.968800 6.790000
-2.018990 1.185330 11.396300 2.664000 15.160000
-2.183370 1.303450 11.794200 2.664000 16.730000
6.746910 0.028985 10.518100 -9.501600 11.830000
-2.330310 1.426820 12.193700 2.664000 14.270000
4.814860 -1.743780 11.869400 -10.300800 4.190000
7.062760 0.149920 10.826000 -9.501600 11.550000
-1.994980 1.545510 12.678300 2.664000 11.860000
-2.149190 0.753549 13.162300 2.752800 9.650000
6.612890 1.700060 12.473100 -9.945600 4.130000
-1.517000 1.142920 14.527000 2.752800 6.880000
-1.648040 1.176540 14.944900 2.752800 7.170000
-8.557260 1.018750 12.898500 -9.057600 6.790000
-2.700770 0.970870 15.244600 2.664000 4.150000
-8.794960 1.047050 13.256700 -9.057600 8.500000
7.088190 0.246865 15.235100 -10.212000 9.870000
7.269570 0.306494 15.625000 -10.212000 15.590000
4.540520 -2.220640 16.928400 -10.656000 5.610000
7.451310 0.314157 16.015600 -10.212000 16.820000
-7.782570 1.745590 15.764000 -9.768000 5.700000
4.550940 -2.274810 17.367900 -10.744800 6.520000
7.538090 0.321819 16.450000 -10.212000 13.620000
-8.065600 1.788170 16.102100 -9.768000 5.580000
-8.904030 1.523420 15.682100 -9.501600 5.070000
6.617150 -1.274010 17.259900 -10.478400 8.720000
-8.190670 0.988028 16.590600 -9.768000 7.400000
-9.116030 1.559690 16.055500 -9.501600 4.190000
6.771040 -1.303640 17.661300 -10.478400 4.800000
-8.378230 1.128090 16.970500 -9.856800 6.490000
-8.868250 1.011010 16.727200 -9.679200 5.950000
6.926370 -1.273430 18.066400 -10.478400 6.720000
-1.782780 5.701520 18.447400 -7.192800 4.950000
-7.569090 1.546310 18.253900 -10.123200 6.500000
-7.897060 0.657549 18.637600 -10.123200 5.520000
-1.860230 6.014760 19.248800 -7.192800 7.600000
7.087180 -1.485960 19.374200 -10.567200 6.490000
-8.466680 0.671540 18.858900 -10.034400 7.040000
7.387050 -1.516920 19.721500 -10.478400 4.440000
-8.640090 0.881295 19.245200 -10.034400 8.160000
7.107990 -1.614330 20.274600 -10.567200 9.260000
-7.967590 1.348430 19.972100 -10.212000 6.240000
6.542200 -0.849356 20.962300 -10.656000 9.700000
-8.128480 1.307560 20.375400 -10.212000 7.550000
5.675300 -0.866010 21.658800 -10.744800 9.410000
-8.128960 1.264020 20.842000 -10.300800 8.110000
4.247690 -3.080670 22.226700 -10.833600 8.690000
-7.235150 2.045550 21.564500 -10.389600 6.540000
6.144360 -3.138800 22.222100 -10.833600 4.890000
-7.200070 2.155800 22.021300 -10.389600 8.230000
6.125100 1.629550 22.836200 -10.744800 5.280000
-7.203630 2.195730 22.471200 -10.389600 8.500000
-7.166180 1.613020 23.437200 -10.478400 4.910000
-7.746740 1.795540 23.693300 -10.478400 9.410000
6.773270 0.609298 24.496600 -10.744800 5.570000
5.181710 -1.857450 25.261200 -10.833600 5.520000
-6.867780 2.076700 24.838500 -10.567200 9.550000
7.032650 -0.062968 26.219900 -10.833600 6.530000
7.349360 -0.063967 26.580200 -10.833600 12.310000
7.620030 -0.151589 26.951600 -10.833600 10.430000
7.578940 -0.153921 27.410500 -10.833600 12.450000
8.349690 5.078380 28.080100 -10.744800 6.700000
7.920260 5.151980 28.644900 -10.833600 4.650000
-7.752090 0.804164 29.584500 -10.656000 4.650000
7.863460 0.359809 30.009600 -10.833600 5.280000
-7.861270 0.815491 30.001200 -10.656000 5.050000
7.972680 0.364806 30.426400 -10.833600 7.530000
-7.970460 0.826817 30.417900 -10.656000 10.520000
6.828030 -0.073962 31.146900 -10.922400 7.750000
18.205300 1.897250 26.109800 -9.324000 10.350000
7.102660 -0.074962 31.527200 -10.922400 9.360000
18.451300 1.922880 26.462700 -9.324000 7.210000
7.872320 -0.379798 31.785800 -10.833600 8.710000
18.697300 1.948520 26.815500 -9.324000 9.710000
-14.676900 1.282360 29.728900 -13.941600 14.030000
7.819350 1.610560 32.648300 -10.833600 6.540000
-16.795200 1.315670 29.580200 -10.922400 13.650000
-17.007700 1.332320 29.954600 -10.922400 10.060000
-18.146500 0.846821 30.306200 -10.833600 5.040000
18.587600 1.713800 30.507000 -9.679200 6.990000
-7.271100 0.867475 35.447100 -10.833600 4.900000
18.811600 1.734450 30.874500 -9.679200 5.390000
-7.358980 0.538040 35.875600 -10.833600 7.100000
19.035500 1.755100 31.242100 -9.679200 9.830000
7.655250 0.544370 36.254000 -10.922400 9.080000
19.259500 1.775750 31.609600 -9.679200 13.400000
9.009230 0.985385 36.376300 -10.833600 7.990000
18.746500 1.448900 32.432100 -9.856800 12.580000
9.111130 1.231160 36.787700 -10.833600 7.240000
18.961900 1.465550 32.804900 -9.856800 7.340000
19.175000 1.600720 33.173600 -9.856800 9.390000
19.390500 1.618700 33.546300 -9.856800 13.540000
18.792200 2.575170 34.319000 -9.945600 5.550000
19.002500 2.481110 34.703000 -9.945600 13.250000
19.209100 2.508080 35.080200 -9.945600 5.980000
19.415600 2.535050 35.457400 -9.945600 8.420000
18.873600 1.961580 36.271900 -10.034400 11.320000
19.069400 2.110010 36.648100 -10.034400 16.720000
19.268000 2.131990 37.029900 -10.034400 17.070000
19.466600 2.153970 37.411600 -10.034400 12.790000
19.276100 2.064820 38.482700 -10.123200 7.530000
19.468800 2.085470 38.867500 -10.123200 14.180000
-12.948900 2.219910 41.490600 -13.142400 15.630000
19.661600 2.106120 39.252300 -10.123200 12.570000
-13.077100 2.241880 41.901400 -13.142400 10.570000
-13.209300 1.989650 42.324700 -13.231200 13.130000
19.191500 2.285840 40.431700 -10.212000 7.120000
-13.337500 2.008970 42.735600 -13.231200 11.310000
19.376000 2.307820 40.820500 -10.212000 12.180000
19.560500 2.329800 41.209200 -10.212000 9.390000
19.750900 2.066920 41.610300 -10.212000 7.200000
8.730000 1.654810 45.681100 -10.922400 12.000000
9.702580 0.689957 45.949800 -10.922400 6.450000
9.791990 0.549708 46.373300 -10.922400 7.140000
10.241400 0.554705 46.717300 -10.922400 6.290000
19.746100 2.163510 43.983100 -10.300800 11.940000
19.922400 2.182820 44.375800 -10.300800 16.020000
19.753100 2.202140 44.922100 -10.300800 7.680000
20.275000 2.221460 45.161200 -10.300800 14.820000
9.374420 2.086330 49.053100 -10.922400 8.490000
9.455230 2.104320 49.476000 -10.922400 16.430000
19.654300 1.948520 46.385500 -10.389600 10.840000
8.192030 1.061380 50.170700 -11.011200 13.600000
19.822300 1.965180 46.781900 -10.389600 10.940000
7.967830 1.347820 50.636300 -11.011200 7.870000
19.990300 1.981830 47.178400 -10.389600 8.980000
8.099420 1.854000 51.472600 -10.922400 6.940000
19.592300 1.370480 48.298300 -10.389600 12.240000
19.754200 1.381800 48.697500 -10.389600 6.540000
19.916100 1.393130 49.096700 -10.389600 11.060000
20.070000 2.065100 49.475900 -10.389600 7.110000
7.038140 2.453260 54.214300 -11.011200 6.900000
19.867700 2.284170 50.939200 -10.478400 10.830000
6.777580 2.472580 54.681300 -11.011200 11.070000
20.026700 2.131720 51.346700 -10.478400 7.270000
20.189400 2.356110 52.661200 -10.478400 5.850000
20.343500 2.374100 53.063200 -10.478400 10.190000
-23.056300 -1.860720 52.434200 -10.034400 7.810000
-22.819400 -2.053190 53.000300 -10.123200 8.320000
20.398900 1.394160 54.459700 -10.567200 9.020000
20.550000 1.404480 54.863100 -10.567200 7.610000
18.639900 0.498407 55.556700 -9.501600 7.600000
20.701100 1.414810 55.266500 -10.567200 7.800000
20.852200 1.425140 55.670000 -10.567200 14.970000
20.238200 2.129800 56.332100 -10.567200 14.080000
-4.287910 3.961790 60.042900 -11.011200 7.690000
20.381400 2.331560 56.730800 -10.567200 8.340000
-4.318540 3.990090 60.471700 -11.100000 8.180000
20.527000 2.348220 57.136100 -10.567200 9.640000
-4.349170 4.018390 60.900600 -11.100000 7.250000
20.672600 2.364870 57.541300 -10.567200 15.150000
20.658200 2.221730 58.924700 -10.567200 4.420000
20.739800 2.070580 60.271000 -10.656000 6.330000
20.879900 2.084570 60.678200 -10.656000 5.840000
21.020100 2.098560 61.085500 -10.656000 6.000000
-31.043200 0.000000 56.692200 -9.590400 6.780000
21.162200 1.911420 61.498600 -10.656000 10.860000
-30.919700 0.000000 57.249800 -9.679200 14.140000
-30.431300 0.152922 58.484000 -9.679200 12.750000
-18.899300 -2.564720 63.558600 -10.478400 6.030000
-20.515900 1.403180 63.997700 -10.478400 5.370000
-20.649700 0.993791 64.415100 -10.478400 7.160000
-19.771900 -0.804572 66.492900 -10.567200 7.020000
-18.012100 -2.308420 68.740300 -10.656000 7.940000
-18.121300 -2.322410 69.156900 -10.656000 5.500000
-18.232200 -2.113950 69.580200 -10.656000 8.510000
-19.689500 -1.734950 69.640500 -10.567200 9.040000
-19.401400 -1.745280 70.168400 -10.567200 7.470000
21.542700 1.082410 70.456100 -10.744800 6.930000
21.363600 1.796910 71.846100 -10.744800 10.140000
21.487900 1.574080 72.264000 -10.744800 9.490000
21.613100 1.114060 72.684900 -10.744800 7.360000
21.435600 0.177909 73.643800 -10.744800 6.020000
21.556100 0.178909 74.057500 -10.744800 11.010000
21.447500 1.889860 75.858400 -10.744800 11.050000
21.564700 1.900180 76.272900 -10.744800 6.280000
21.457900 3.114300 77.606200 -10.833600 5.580000
22.025900 2.880590 77.904100 -10.833600 6.230000
22.140500 3.147610 78.309500 -10.833600 7.640000
-11.796900 -4.948220 82.173900 -10.922400 6.750000
22.765900 2.106720 84.878300 -10.833600 5.410000
22.880500 1.570780 85.305300 -10.833600 6.310000
22.993200 1.303960 85.725800 -10.833600 7.700000
-27.224600 1.586110 84.925200 -10.478400 7.270000
22.708400 2.632950 86.662800 -10.833600 5.500000
-27.356200 1.593770 85.335400 -10.478400 6.550000
-27.487700 1.601430 85.745700 -10.478400 9.710000
19.777100 1.359280 115.516000 -11.011200 8.230000
19.849800 1.364270 115.941000 -11.011200 5.750000
19.920700 2.099490 116.355000 -11.011200 6.330000
-55.169100 -11.385600 113.952000 -9.856800 5.590000
-55.356100 -11.424200 114.338000 -9.856800 5.060000
-55.494400 -12.644900 114.624000 -9.768000 6.030000
31.093200 1.684100 141.835000 -10.922400 6.600000
31.185500 1.689100 142.256000 -10.922400 6.210000
31.277700 1.694100 142.677000 -10.922400 9.890000
22.482600 2.234450 150.420000 -11.011200 9.390000
