VERSION .7
FIELDS x y z velocity intensity
SIZE 4 4 4 4 4
TYPE F F F F F
COUNT 1 1 1 1 1
WIDTH 805
HEIGHT 1
VIEWPOINT 0 0 0 1 0 0 0
POINTS 805
DATA ascii
-7.820270 0.998057 7.341260 -8.880000 4.150000
-8.133080 1.037980 7.634910 -8.880000 7.480000
-8.506750 1.077900 7.863230 -8.880000 6.470000
-8.057950 0.918473 10.614100 -10.389600 4.740000
7.743170 1.648540 11.289700 -11.277600 7.480000
-8.317880 0.948101 10.956500 -10.389600 3.940000
7.952100 0.076960 11.788000 -11.277600 14.190000
8.286430 0.079293 12.081800 -11.277600 16.330000
8.530150 0.081625 12.437100 -11.277600 14.080000
8.790770 -1.130030 12.202300 -11.011200 6.590000
8.773870 0.083957 12.792400 -11.277600 6.210000
6.856140 0.875089 13.887500 -12.076800 8.160000
7.850810 0.970870 13.343800 -11.721600 5.800000
7.046590 0.899397 14.273200 -12.076800 8.320000
7.237040 0.923705 14.659000 -12.165600 9.290000
7.379050 5.851740 13.918300 -12.165600 9.030000
8.719420 -1.259180 14.310800 -11.544000 5.320000
7.458010 6.001780 14.333100 -12.254400 6.450000
8.282440 4.812680 14.329000 -11.899200 7.650000
8.489500 4.932990 14.687200 -11.899200 10.020000
8.478670 4.945720 15.204700 -11.988000 9.920000
-0.568517 1.773710 18.434800 1.509600 17.990000
-0.581738 1.814960 18.863600 1.509600 14.010000
-0.223140 1.856210 19.300200 1.509600 8.450000
8.557690 1.512690 17.334000 -12.165600 5.420000
-0.228099 1.897460 19.729100 1.509600 6.800000
7.567690 1.592140 18.250600 -12.254400 3.670000
7.732210 1.626750 18.647300 -12.343200 5.210000
8.061230 0.927217 19.025000 -12.432000 8.970000
0.121910 1.011760 21.089500 1.509600 6.500000
8.229170 0.946534 19.421400 -12.432000 11.650000
-0.829451 0.832702 21.512900 1.509600 5.640000
8.401130 0.699521 19.827200 -12.432000 11.630000
-1.141920 0.849356 21.929800 1.509600 5.630000
8.659650 1.849860 20.112900 -12.432000 7.770000
8.968650 1.849860 19.977000 -12.254400 7.000000
8.140150 0.467728 20.870600 -12.520800 9.260000
-15.353600 1.775760 17.966100 -11.899200 7.940000
8.172320 -4.048030 22.340600 -12.698400 7.240000
-15.636300 1.733620 18.296900 -11.899200 8.700000
-15.348900 1.808050 18.531500 -12.698400 7.170000
18.192100 1.537210 16.429900 -9.324000 6.210000
8.493270 -4.120320 22.674800 -12.698400 6.290000
-15.767900 1.840340 18.741500 -11.988000 5.830000
18.511200 1.564180 16.718200 -9.324000 8.590000
18.830400 1.591150 17.006400 -9.324000 6.080000
9.096080 0.825434 23.725800 -12.609600 6.600000
18.298000 1.538310 18.200200 -9.856800 8.710000
9.064020 0.839425 24.198500 -12.609600 4.210000
18.603000 1.563950 18.503500 -9.856800 10.480000
-5.627920 0.386123 25.672400 -12.876000 8.640000
9.215090 0.853415 24.601800 -12.609600 6.680000
18.732400 1.424600 18.994800 -9.856800 10.490000
-6.525950 0.230880 26.349600 -12.876000 8.160000
-6.616770 1.725990 26.716300 -12.876000 6.130000
16.164300 1.752960 22.806100 -11.011200 7.860000
-6.461240 -3.864000 26.977700 -12.876000 5.430000
15.350700 0.681588 23.931000 -10.478400 9.830000
15.583300 0.691915 24.293600 -10.478400 8.820000
-11.239100 1.896000 26.525100 -12.698400 10.980000
18.646300 2.014720 22.512600 -10.567200 8.790000
-10.829200 2.105110 27.145100 -12.787200 10.270000
18.928200 1.860830 22.853000 -10.567200 5.030000
-10.988400 2.136070 27.544300 -12.787200 10.010000
17.036300 1.608420 24.839200 -10.567200 4.190000
-11.142500 2.353070 27.930500 -12.787200 5.400000
-14.827600 2.178990 29.601700 -12.964800 8.930000
-15.026000 1.999800 29.997800 -12.964800 10.600000
-10.253600 1.944640 32.854200 -12.609600 10.080000
-10.381800 1.968950 33.264900 -12.609600 7.440000
-10.315100 1.993260 33.735800 -12.698400 8.980000
-10.177400 2.017570 34.226700 -12.698400 6.130000
-9.840210 1.398940 34.804200 -12.787200 10.080000
-11.500100 1.734450 34.276200 -12.520800 10.940000
8.518750 -1.953080 35.568500 -13.053600 7.080000
18.794200 1.755100 31.387900 -11.632800 6.430000
-10.074500 1.432250 35.632900 -12.787200 7.040000
19.259500 1.775750 31.609600 -11.632800 8.900000
10.466500 -1.680580 35.958300 -12.964800 7.570000
19.236400 1.796400 32.126400 -11.632800 6.260000
10.586800 -1.699900 36.371600 -12.876000 7.370000
19.457500 1.817040 32.495700 -11.632800 7.360000
10.432100 -0.681950 36.897700 -12.964800 5.780000
10.549300 -0.689612 37.312200 -12.964800 6.030000
-19.879800 -0.818524 33.789000 -11.277600 13.110000
10.666500 -0.697275 37.726800 -12.787200 9.340000
-20.882600 -0.827518 33.686500 -11.188800 13.710000
10.074900 5.833510 39.694400 -24.331200 5.890000
10.179800 5.894270 40.107900 -24.331200 6.850000
-4.427340 1.648750 42.396700 -13.231200 7.120000
-4.719540 1.665400 42.798400 -13.231200 7.400000
19.593300 0.499734 38.374500 -12.076800 5.050000
-4.766740 1.682060 43.226400 -13.231200 7.330000
19.456700 -0.101948 39.410500 -12.165600 8.350000
19.647400 -0.102947 39.796900 -12.165600 8.850000
19.838200 -0.103947 40.183300 -12.165600 7.170000
-17.330000 -0.104946 41.793800 -12.165600 7.870000
9.436530 0.105946 44.689800 -13.142400 8.860000
11.341900 -0.534716 44.686300 -12.964800 7.940000
-17.334200 -5.110630 45.213800 -12.520800 8.790000
-19.255400 -0.112942 44.722500 -12.076800 8.070000
-14.284000 -5.155860 46.716300 -12.432000 7.160000
-19.425800 -0.113942 45.118300 -12.076800 7.620000
11.251700 2.221460 48.208000 -13.142400 5.250000
-16.929700 -5.201080 46.280500 -12.254400 8.530000
11.349600 2.240770 48.627200 -13.053600 9.890000
-16.806700 -5.246310 46.780900 -12.343200 7.590000
11.447400 2.260090 49.046400 -13.053600 8.090000
-15.300200 -5.446570 47.727800 -12.520800 8.280000
-19.304000 1.325170 46.554300 -12.165600 8.620000
-17.090900 -5.493120 47.571700 -12.432000 6.100000
-19.469000 1.336500 46.952200 -12.165600 7.410000
-19.634000 1.347820 47.350100 -12.165600 8.700000
19.965100 1.249580 48.148700 -12.520800 6.180000
-18.817500 0.609676 49.082700 -12.343200 7.210000
-18.971700 0.614673 49.485000 -12.343200 12.640000
-28.830400 1.670910 49.002200 -11.366400 7.580000
-16.630700 -0.483748 54.391000 -12.609600 7.720000
-29.051300 1.506390 49.377700 -11.366400 7.870000
-16.757200 -0.132932 54.804900 -12.609600 8.860000
-29.269700 1.517720 49.748900 -11.277600 7.620000
-29.489900 1.394160 50.123100 -11.366400 8.240000
-29.710400 1.223290 50.497900 -11.366400 6.050000
-29.926800 1.414810 50.865700 -11.366400 9.170000
-19.208400 0.136930 55.820700 -12.520800 9.480000
11.948000 0.689633 58.247400 -13.231200 9.800000
11.745400 1.597000 59.589400 -13.231200 14.710000
12.294700 0.520395 59.937600 -13.231200 16.220000
22.344100 -2.800970 58.281300 -12.609600 11.270000
20.741800 -1.873440 60.276800 -12.787200 7.230000
20.881900 -1.886100 60.684100 -12.787200 6.800000
20.550600 -1.898760 61.251500 -12.787200 7.180000
19.006000 -2.916870 62.159700 -12.876000 4.940000
-14.662800 -1.583080 74.390600 -12.964800 7.070000
36.051600 -0.440773 73.024500 -12.165600 6.940000
36.242400 -0.443105 73.410900 -12.165600 4.980000
35.862500 -0.699968 74.074200 -12.165600 7.470000
-16.776700 6.715610 87.786600 -13.053600 5.000000
-16.857300 6.747900 88.208600 -12.964800 5.890000
-16.938000 6.780180 88.630700 -12.964800 10.560000
17.470800 0.503741 91.418600 -13.142400 9.680000
17.551300 0.795252 91.839900 -13.142400 7.350000
17.632200 0.798917 92.263100 -13.142400 6.760000
17.713100 0.802581 92.686300 -13.142400 9.310000
17.793900 0.806246 93.109500 -13.142400 6.930000
-16.794300 6.934490 94.796000 -13.053600 7.320000
-16.869200 6.965440 95.219200 -13.053600 7.680000
18.285500 0.000000 116.206000 -13.231200 8.620000
18.352400 0.000000 116.632000 -13.231200 9.270000
18.419400 0.000000 117.057000 -13.231200 7.640000
-11.056000 -0.302845 130.093000 -13.231200 6.500000
-11.092500 0.303845 130.523000 -13.231200 6.400000
-10.119300 0.304844 131.034000 -13.231200 5.900000
-8.733060 2.444290 137.158000 -13.320000 7.060000
-8.760430 2.451960 137.588000 -13.320000 8.150000
-8.787810 2.459620 138.018000 -13.320000 7.890000
17.531300 2.677540 181.406000 -13.320000 9.070000
17.572800 2.683870 181.835000 -13.320000 10.360000
17.614200 2.690200 182.264000 -13.320000 6.350000
6.922910 0.994990 6.399210 -8.968800 3.560000
7.185820 1.040220 6.745660 -9.057600 4.480000
7.219090 1.117240 7.320190 -9.412800 3.530000
7.314670 1.244790 8.394180 -9.945600 3.860000
7.519140 1.185330 8.798550 -10.034400 4.260000
8.240150 0.128266 12.630700 -11.011200 14.430000
8.375200 0.131931 13.056500 -11.100000 18.120000
8.607840 0.135596 13.419200 -11.100000 17.150000
9.140870 -0.974261 13.550300 -10.833600 9.860000
8.045150 -1.349860 14.692300 -11.544000 9.000000
8.169490 -1.238300 15.126300 -11.544000 7.550000
8.153530 -0.314157 15.669700 -11.632800 8.030000
6.175020 -2.108130 16.880600 -12.165600 6.650000
8.228430 -0.321819 16.115800 -11.632800 7.490000
6.322050 -2.158320 17.282500 -12.165600 7.750000
9.126850 1.274010 16.074500 -11.455200 7.010000
10.162700 -1.240560 16.972600 -11.544000 10.160000
8.526350 -1.267520 18.326200 -11.810400 7.550000
8.183580 -2.410830 19.313800 -11.988000 5.670000
8.350590 -2.460030 19.707900 -11.988000 8.280000
8.385930 1.900650 20.223800 -12.076800 6.640000
8.983000 2.006950 20.429000 -11.988000 7.140000
9.347780 1.456310 21.258500 -11.988000 10.620000
18.030100 1.332690 17.255500 -9.146400 8.480000
5.473860 1.510240 23.452800 -12.520800 6.740000
8.454490 1.156300 22.571200 -12.254400 6.300000
18.340900 1.355670 17.553000 -9.146400 8.370000
18.648600 1.458480 17.847400 -9.235200 8.590000
18.965000 1.340730 18.150200 -9.146400 9.610000
18.550800 1.362710 19.176700 -9.590400 8.210000
18.509300 1.384690 19.809900 -9.679200 5.890000
18.803100 1.406670 20.124400 -9.679200 7.230000
-6.621700 0.747533 27.647700 -12.432000 7.970000
-6.558480 0.937358 28.099900 -12.520800 8.690000
18.804500 1.701560 23.522300 -10.300800 4.900000
-6.271110 0.951348 28.606400 -12.609600 7.170000
19.073200 1.725870 23.858400 -10.300800 10.720000
19.341800 1.750180 24.194400 -10.300800 11.920000
-10.720600 1.371510 28.621200 -12.165600 7.690000
19.062500 1.527970 25.515500 -10.567200 13.930000
-10.480600 1.294960 29.172200 -12.165600 7.590000
19.120200 1.548620 26.008500 -10.656000 11.670000
-10.624700 1.410140 29.573400 -12.165600 5.280000
19.375200 1.569270 26.355200 -10.656000 6.950000
19.632900 1.487410 26.705900 -10.656000 8.580000
18.962800 1.282360 27.196200 -10.833600 5.510000
19.206600 1.402880 27.546000 -10.833600 5.430000
-4.887010 2.370250 34.041400 -12.698400 10.670000
-10.186000 1.382280 34.255600 -12.254400 8.030000
-9.590510 1.661260 35.756300 -12.343200 6.950000
-9.702020 1.680580 36.172100 -12.343200 8.770000
19.209200 1.699900 32.649400 -11.366400 10.500000
10.091000 -2.022010 36.495900 -12.520800 12.750000
19.430100 1.600720 33.024800 -11.366400 7.670000
8.704210 -2.044990 37.293200 -12.698400 8.200000
19.648400 1.618700 33.395900 -11.366400 13.450000
19.608400 1.515520 33.923300 -11.455200 15.950000
19.295000 1.409650 34.601500 -11.455200 8.250000
19.504800 1.424970 34.977600 -11.455200 11.390000
19.716600 1.315100 35.357500 -11.455200 12.660000
23.104400 -0.613998 34.825600 -11.011200 8.760000
23.342600 -0.620328 35.184600 -11.011200 6.680000
22.419000 0.499734 36.795200 -11.188800 5.390000
19.484500 1.143950 38.898800 -11.721600 8.830000
19.677400 1.155280 39.283900 -11.721600 6.710000
23.085100 -1.166600 37.888500 -11.277600 9.040000
-4.861130 1.715370 44.082300 -12.787200 8.530000
10.706800 13.213100 44.704300 -12.698400 7.620000
-19.156700 0.919483 48.019700 -11.899200 7.350000
-19.315200 1.088370 48.417000 -11.899200 9.290000
12.016700 2.284170 53.339800 -12.698400 11.720000
12.111300 2.302160 53.759800 -12.698400 5.850000
11.892600 2.320140 54.249400 -12.698400 7.660000
-28.713800 1.394160 50.571700 -11.100000 6.680000
-16.883300 0.000000 55.217100 -12.343200 6.230000
-28.924800 1.540370 50.943300 -11.100000 7.090000
-16.580000 0.134931 55.758500 -12.343200 5.450000
-29.137500 1.551700 51.317900 -11.100000 6.530000
-17.135200 0.135931 56.041100 -12.343200 7.860000
-29.351900 1.425140 51.695500 -11.100000 5.460000
21.132500 0.136930 55.121000 -12.254400 5.600000
-29.564600 1.435460 52.070100 -11.100000 10.560000
21.286500 0.321835 55.522700 -12.254400 12.330000
34.688900 0.466427 78.888900 -12.076800 6.990000
34.862400 0.468759 79.283300 -12.076800 5.010000
35.035800 0.471091 79.677800 -12.076800 7.470000
-17.454000 6.501080 88.551400 -12.520800 8.000000
17.582500 -0.210892 89.203400 -12.787200 7.370000
-18.222300 6.532040 88.835300 -12.520800 6.660000
17.665800 -0.211892 89.626100 -12.787200 6.010000
-18.308700 6.562990 89.256300 -12.520800 6.040000
17.749200 0.212891 90.048900 -12.787200 7.060000
17.832500 0.213891 90.471700 -12.787200 7.070000
17.915800 0.214890 90.894400 -12.787200 9.740000
17.713600 0.218888 92.689400 -12.787200 8.260000
17.794300 0.513070 93.111500 -12.787200 8.790000
17.875200 0.515402 93.534800 -12.787200 9.450000
-17.022900 6.725590 96.086500 -12.609600 8.480000
-17.090300 7.361340 96.466900 -12.609600 8.990000
16.797100 -0.230882 98.110100 -12.787200 4.540000
-61.944400 -12.942900 114.694000 -11.100000 6.210000
-62.148200 -12.985500 115.071000 -11.011200 6.670000
-9.576250 1.143400 134.094000 -12.876000 6.560000
-9.637850 0.732290 134.957000 -12.876000 5.630000
-8.788880 1.176390 138.034000 -12.876000 5.660000
-8.815980 1.609140 138.460000 -12.876000 11.120000
-8.843360 1.614140 138.890000 -12.876000 11.840000
-8.870740 1.619140 139.320000 -12.876000 8.620000
-51.696400 -16.363100 129.586000 -11.810400 5.650000
-51.855000 -16.413300 129.983000 -11.810400 4.910000
19.062200 3.264170 182.542000 -12.876000 14.830000
17.696200 3.271830 183.112000 -12.876000 10.730000
-7.176420 1.340540 9.605780 -10.300800 2.900000
-7.213450 4.868930 11.245400 -11.011200 7.830000
-7.571630 0.846069 12.006400 -10.833600 8.460000
7.010090 1.267100 12.802100 -11.455200 7.010000
8.262380 -3.749980 12.046700 -11.100000 6.470000
7.037870 1.304370 13.274700 -11.544000 9.260000
8.142560 0.128266 12.693900 -11.100000 14.790000
8.274320 0.131931 13.120700 -11.188800 17.280000
9.026610 -3.964260 12.529700 -10.833600 7.720000
8.504340 0.086289 13.485500 -11.188800 15.170000
5.264950 -2.509450 15.300200 -12.254400 7.160000
7.666540 -0.481019 14.460500 -11.721600 8.820000
8.734190 0.088621 13.849900 -11.188800 8.340000
7.203070 -0.493677 15.175100 -11.810400 10.230000
8.164790 4.027350 14.125400 -11.455200 9.520000
7.834460 -0.506336 15.344200 -11.721600 11.030000
8.029550 -0.573607 15.726300 -11.810400 9.950000
7.495150 -1.955180 16.356400 -11.988000 8.380000
7.770280 -2.001730 16.701200 -11.988000 7.280000
8.893420 0.658859 16.241500 -11.632800 7.890000
9.102860 0.498355 16.624000 -11.632800 10.480000
8.235970 1.424050 17.973000 -11.988000 8.970000
8.413100 1.517470 18.359500 -11.988000 6.670000
8.594060 1.485960 18.754400 -11.988000 5.850000
6.009460 1.348430 20.645900 -12.343200 5.270000
5.967160 1.375400 21.105500 -12.432000 8.080000
8.845200 1.333200 20.543800 -12.076800 11.050000
9.016920 1.288330 20.942700 -12.076800 11.420000
6.915810 1.599920 22.159400 -12.432000 5.900000
9.187050 1.312630 21.337800 -12.076800 8.950000
8.150460 1.081750 22.686500 -12.343200 6.980000
18.195500 1.332690 17.080900 -9.235200 6.840000
18.340900 1.355670 17.553000 -9.324000 11.740000
18.651800 1.378640 17.850500 -9.324000 11.930000
18.962700 1.401620 18.148000 -9.324000 7.430000
18.400200 1.424600 19.316700 -9.768000 9.320000
18.693800 1.531410 19.625000 -9.768000 12.620000
18.990600 1.555710 19.936500 -9.768000 11.400000
19.087900 1.666500 20.429200 -9.856800 5.970000
-6.611140 2.066340 26.693600 -12.520800 11.410000
-6.717590 1.294240 28.048000 -12.609600 7.030000
-6.817850 1.313560 28.466700 -12.609600 7.890000
18.993700 1.445380 23.387100 -10.389600 8.640000
18.993700 1.445380 23.387100 -10.389600 5.330000
-6.918110 1.332870 28.885300 -12.609600 7.020000
18.897100 1.466020 24.015300 -10.478400 7.020000
-10.484200 1.007310 29.182300 -12.343200 8.350000
18.865300 1.527970 25.661700 -10.744800 5.330000
-10.629800 1.021300 29.587600 -12.343200 6.720000
19.120200 1.548620 26.008500 -10.744800 5.110000
19.375200 1.569270 26.355200 -10.744800 9.700000
18.501600 1.569270 26.975600 -11.011200 11.420000
18.745100 1.589910 27.330600 -11.011200 8.370000
-10.294700 1.871720 31.486200 -12.520800 10.770000
18.988500 1.610560 27.685500 -11.011200 5.630000
9.386150 1.299010 32.246800 -12.609600 10.320000
19.231900 1.631210 28.040500 -11.011200 10.530000
9.510860 0.815840 32.675300 -12.609600 8.150000
-5.094300 0.826167 34.083500 -12.787200 10.750000
-10.422600 2.066180 35.051400 -12.343200 6.550000
-5.474480 1.317720 36.627100 -12.787200 10.980000
-5.323860 1.333040 37.084400 -12.787200 11.280000
18.993500 1.564750 32.282700 -11.455200 6.900000
19.211800 1.582730 32.653700 -11.455200 9.960000
19.430100 1.600720 33.024800 -11.455200 9.710000
8.800510 -2.187720 37.705800 -12.698400 7.900000
-10.039200 1.498860 37.429100 -12.520800 6.880000
19.648400 1.618700 33.395900 -11.455200 14.190000
8.095140 -1.515520 38.337300 -12.787200 5.210000
8.184100 -1.532170 38.758500 -12.787200 9.440000
10.781700 -1.042020 38.134200 -12.609600 15.350000
-21.213100 -2.461290 35.427700 -11.011200 7.440000
23.104400 -0.613998 34.825600 -11.011200 7.110000
19.563700 1.615440 36.900800 -11.632800 6.110000
25.242300 -1.912380 34.336100 -10.744800 8.650000
24.095000 -0.632988 35.718000 -10.922400 7.490000
24.365200 1.032710 35.524900 -11.011200 8.680000
-17.866700 -2.412630 41.497300 -11.810400 8.020000
-18.041800 -2.188710 41.904000 -11.810400 7.350000
-17.967200 -2.209360 42.403900 -11.810400 7.430000
10.637700 14.205100 44.415700 -12.787200 9.720000
10.333200 -0.708947 47.136300 -12.787200 6.250000
-13.684100 -3.945730 47.012800 -12.343200 8.830000
-14.831600 -4.477040 47.522800 -12.254400 8.380000
-28.924800 1.540370 50.943300 -11.100000 12.930000
-15.942000 0.860864 56.385800 -12.343200 6.470000
-29.137500 1.551700 51.317900 -11.100000 10.760000
20.278200 0.867194 55.434400 -12.343200 7.280000
-29.350200 1.563020 51.692500 -11.100000 7.750000
20.856000 0.873524 55.679900 -12.343200 7.540000
21.007100 0.879853 56.083400 -12.343200 5.930000
-17.533100 6.812470 88.952800 -12.609600 10.900000
-17.616200 6.844760 89.374400 -12.609600 9.870000
-17.699300 6.877040 89.796000 -12.609600 5.390000
-17.786500 6.624910 90.238100 -12.609600 9.260000
-16.387300 7.296770 95.717000 -12.698400 8.260000
-16.459800 7.329050 96.140500 -12.698400 10.940000
-16.536100 7.058320 96.586000 -12.698400 13.090000
-17.169100 7.089270 96.912000 -12.698400 7.560000
-9.575950 1.559170 134.090000 -12.876000 5.090000
-9.606650 1.564170 134.520000 -12.876000 10.130000
-9.637340 1.569170 134.950000 -12.876000 7.590000
-9.668540 0.734622 135.387000 -12.876000 6.090000
-8.788880 1.176390 138.034000 -12.876000 13.100000
-8.816260 1.180050 138.464000 -12.876000 14.530000
-8.843640 1.183720 138.894000 -12.876000 11.530000
-9.944570 1.187380 139.252000 -12.964800 6.160000
-51.657900 -17.225700 129.489000 -11.810400 5.750000
19.063200 2.696530 182.551000 -12.964800 5.280000
19.108700 2.133870 182.987000 -12.964800 8.790000
7.316410 1.442470 9.484650 -10.567200 3.320000
-7.918440 0.540876 9.087070 -9.679200 4.860000
7.671990 1.493990 9.749920 -10.478400 4.150000
-7.958270 0.704933 9.608410 -9.856800 4.710000
-8.201240 0.560193 9.411600 -9.679200 5.220000
-7.092540 1.585190 10.690700 -10.744800 4.650000
-8.226300 0.888845 9.932030 -9.856800 3.390000
-7.111400 0.836027 11.276600 -10.833600 4.980000
-7.430300 0.862996 11.583500 -10.833600 4.620000
-6.743090 1.902270 11.876200 -11.188800 4.170000
-7.751180 0.977730 11.881200 -10.833600 5.440000
-7.048000 1.961720 12.193300 -11.188800 5.970000
-8.080170 1.007360 12.179300 -10.744800 4.150000
-7.191360 1.582760 12.665700 -11.188800 5.160000
-7.603280 1.052560 12.478900 -11.011200 3.950000
-8.414200 1.036990 12.473100 -10.656000 2.770000
8.032550 -5.076270 11.711600 -11.277600 8.430000
8.411800 -5.076270 11.442200 -11.011200 6.690000
8.142560 0.128266 12.693900 -11.277600 15.860000
8.652720 1.114470 12.826600 -10.922400 8.260000
8.274500 0.083957 13.121000 -11.277600 17.140000
8.400280 0.000000 13.550800 -11.366400 13.860000
7.938110 1.567460 14.235300 -11.632800 8.440000
8.147010 1.608710 14.609900 -11.632800 9.840000
8.073410 -0.093285 15.228000 -11.721600 8.690000
9.517290 3.968150 14.345500 -11.277600 5.440000
7.014050 4.339890 15.623300 -12.076800 4.670000
8.154700 -0.095617 15.672000 -11.721600 6.300000
9.628960 4.119450 14.759500 -11.277600 5.560000
6.081110 -2.010810 16.926500 -12.343200 6.380000
8.447120 1.523420 15.932800 -11.810400 6.830000
-8.100140 0.643536 16.171100 -11.632800 4.700000
6.225900 -2.058690 17.329500 -12.343200 7.170000
-7.391370 0.732777 17.444100 -11.899200 9.250000
7.927630 -1.153730 17.658200 -12.076800 9.640000
8.940130 0.929171 17.181400 -11.810400 7.570000
8.073340 2.080430 17.982800 -12.076800 8.820000
9.127660 1.362900 17.541800 -11.721600 3.980000
9.174960 1.751580 17.969600 -12.076800 5.120000
6.817270 1.788850 19.445300 -12.165600 3.650000
6.259560 2.086190 20.056700 -12.343200 4.720000
8.762870 1.826120 19.122800 -11.988000 6.480000
6.544860 2.128770 20.416200 -12.343200 3.870000
8.565050 0.985168 20.214100 -12.165600 6.560000
8.730410 1.142920 20.604300 -12.165600 8.400000
8.481440 -0.567990 22.122600 -12.343200 9.290000
6.025370 1.840340 23.739500 -12.609600 6.350000
18.343200 1.296780 17.555100 -9.412800 6.500000
8.561730 1.872620 23.405100 -12.432000 8.270000
18.651800 1.378640 17.850500 -9.412800 8.700000
18.959400 1.482790 18.144900 -9.412800 8.360000
18.400200 1.424600 19.316700 -9.768000 4.490000
-6.642240 2.050540 25.349000 -12.609600 7.550000
18.693800 1.531410 19.625000 -9.856800 5.180000
-6.899950 2.084150 25.725100 -12.609600 10.840000
18.993800 1.470550 19.939900 -9.856800 8.580000
19.290600 1.493530 20.251400 -9.856800 9.620000
-7.349120 0.234544 26.579300 -12.609600 4.630000
-6.143590 1.752960 27.270100 -12.698400 9.170000
-6.077940 1.779930 27.725300 -12.698400 5.170000
-6.716630 1.383430 28.044000 -12.698400 6.130000
-6.809980 1.924300 28.433800 -12.698400 6.030000
-5.570090 1.860830 29.146300 -12.787200 11.450000
19.076400 1.631390 23.862400 -10.567200 8.160000
8.798740 2.073970 28.776500 -12.698400 5.940000
-11.160600 1.608420 27.976100 -12.343200 6.800000
19.345100 1.654370 24.198500 -10.567200 7.380000
9.310930 2.386690 29.044700 -12.609600 5.680000
-11.320100 1.631390 28.375700 -12.343200 5.780000
-12.297200 1.631390 27.966100 -12.165600 5.250000
-12.470400 1.654370 28.360000 -12.165600 6.530000
18.870500 1.330940 25.668800 -10.744800 4.750000
8.958780 1.215740 30.128400 -12.698400 5.170000
19.123000 1.448780 26.012200 -10.744800 5.630000
19.375200 1.569270 26.355200 -10.833600 5.760000
-5.448850 1.348920 31.826300 -12.787200 5.960000
18.742200 1.692400 27.326400 -11.100000 7.450000
-5.707070 1.468090 32.213800 -12.787200 9.650000
18.988500 1.610560 27.685500 -11.100000 8.850000
19.231900 1.631210 28.040500 -11.100000 9.690000
9.380940 1.714380 32.228900 -12.698400 8.820000
19.475400 1.651860 28.395400 -11.100000 9.520000
-10.442700 1.907120 34.153000 -12.432000 5.040000
-5.345890 1.510790 35.766800 -12.876000 8.310000
-10.566700 2.041870 34.558600 -12.432000 6.900000
-5.412690 0.877802 36.213700 -12.876000 8.780000
-9.476180 1.868240 35.330000 -12.609600 7.970000
-9.587660 1.890220 35.745700 -12.609600 9.720000
-9.977560 1.912200 36.085500 -12.520800 7.720000
-20.533700 -0.970746 34.900500 -11.011200 7.000000
-21.024800 -0.854503 35.113300 -11.011200 8.070000
-19.268000 -2.131990 37.029900 -11.366400 7.010000
-18.694900 -2.131990 37.322500 -11.544000 7.220000
-18.669400 -2.153970 37.815800 -11.544000 7.120000
25.187200 0.099949 34.962000 -10.922400 4.280000
-18.839800 -2.933190 38.161000 -11.544000 5.960000
-18.041800 -2.188710 41.904000 -11.810400 5.030000
-18.212100 -2.209360 42.299300 -11.810400 5.800000
-19.038200 -2.230010 42.406200 -11.721600 5.910000
11.031700 -1.831940 46.060900 -12.787200 7.820000
11.062400 -1.430400 47.396800 -12.787200 7.550000
11.161900 -1.177290 47.823200 -12.876000 7.130000
19.753100 2.202140 44.922100 -12.165600 8.850000
-13.810000 -3.712960 47.445200 -12.343200 8.430000
-15.215800 -3.745240 47.464600 -12.254400 10.580000
-14.977600 -3.777530 47.990700 -12.254400 6.180000
-16.701500 -6.078990 47.638700 -12.165600 8.600000
11.935700 1.823350 49.835300 -12.787200 9.760000
-17.829600 -4.991130 48.740700 -12.165600 6.250000
-17.692600 -5.032380 49.246600 -12.165600 12.130000
-17.118000 -2.248200 51.020500 -12.343200 5.620000
-29.102700 1.394160 50.348900 -11.188800 5.120000
20.662700 1.517720 53.895500 -12.432000 6.840000
-29.318300 1.404480 50.721900 -11.188800 5.670000
20.821800 -0.854534 54.310600 -12.432000 8.100000
-29.532100 1.551700 51.091800 -11.188800 5.200000
20.553700 -0.860864 54.873000 -12.432000 5.610000
-29.745100 1.746860 51.460300 -11.188800 5.340000
20.706300 -0.502072 55.280400 -12.432000 7.750000
-29.963300 1.574350 51.837700 -11.188800 5.660000
21.286000 -0.505736 55.521500 -12.432000 7.980000
-15.675200 -2.661870 61.759400 -12.520800 10.150000
21.667800 -0.759596 61.804200 -12.520800 11.400000
20.362300 -3.406790 63.518600 -12.609600 7.050000
20.862800 -3.428760 63.808800 -12.609600 5.760000
20.633900 -2.823740 64.365900 -12.520800 7.350000
21.139400 -2.841730 64.654700 -12.520800 7.350000
-17.450000 6.780180 88.531300 -12.698400 6.280000
-17.533100 6.812470 88.952800 -12.698400 5.330000
-17.616200 6.844760 89.374400 -12.698400 5.660000
-17.695100 7.160070 89.774700 -12.698400 9.630000
-10.151800 1.529190 131.455000 -12.964800 5.540000
-10.185000 1.534180 131.885000 -12.964800 10.020000
-8.460630 0.000000 132.879000 -12.964800 10.000000
-9.576250 1.143400 134.094000 -12.964800 5.870000
-8.569840 1.147070 134.594000 -12.964800 5.430000
-8.596950 1.569170 135.020000 -12.964800 7.320000
-8.624330 1.574160 135.450000 -12.964800 7.370000
-8.815980 1.609140 138.460000 -12.964800 6.160000
-8.843360 1.614140 138.890000 -12.964800 11.500000
-8.870740 1.619140 139.320000 -12.964800 11.970000
25.136900 0.361815 153.947000 -12.964800 8.020000
25.206300 0.362815 154.372000 -12.964800 6.560000
17.651500 4.824990 182.649000 -13.053600 7.350000
17.693900 4.409660 183.088000 -13.053600 5.120000
7.556480 1.377620 9.304350 -10.478400 3.910000
7.266300 1.273140 10.086300 -10.833600 3.230000
-7.021720 1.426820 10.237800 -10.656000 3.430000
7.516860 1.317040 10.434100 -10.833600 3.900000
-7.044470 1.447260 11.764900 -11.100000 3.540000
7.814800 0.079293 12.392000 -11.366400 6.460000
8.044650 0.081625 12.756500 -11.366400 5.730000
8.274500 0.083957 13.121000 -11.277600 12.510000
8.504340 0.086289 13.485500 -11.277600 16.900000
7.407210 1.668250 14.507400 -11.899200 6.900000
8.627290 0.037981 13.917000 -11.366400 5.830000
6.964330 1.712150 15.198000 -12.076800 11.550000
7.797060 1.756050 15.270900 -11.988000 14.550000
8.030320 0.518994 15.727800 -11.988000 7.460000
8.350110 0.531653 16.047500 -11.810400 7.550000
8.563470 5.843810 15.356700 -11.899200 6.480000
8.883470 5.979710 15.645900 -11.899200 8.170000
7.837240 -3.134580 17.456900 -12.165600 9.970000
7.873630 -3.204240 17.906100 -12.165600 8.830000
7.976700 1.813970 18.526700 -12.165600 5.050000
8.044750 1.613540 18.986100 -12.165600 5.500000
8.216160 1.516920 19.390700 -12.254400 5.250000
7.959540 1.765200 20.407600 -12.432000 4.850000
8.275740 1.799810 20.744600 -12.432000 5.410000
9.172850 1.499820 20.860700 -12.165600 7.820000
8.343860 -3.761500 21.393000 -12.520800 8.300000
8.891520 1.599920 21.443200 -12.343200 8.020000
8.611520 -0.128267 22.079200 -12.432000 6.910000
8.637810 -0.205226 22.530500 -12.432000 6.470000
18.334500 1.512670 17.546800 -9.412800 5.220000
18.641800 1.618120 17.840900 -9.412800 8.000000
18.952400 1.645090 18.138200 -9.412800 8.980000
18.210200 1.507100 19.489800 -9.945600 5.610000
18.503900 1.531410 19.804100 -9.945600 6.340000
-7.026540 1.133090 26.197100 -12.609600 10.640000
18.797600 1.555710 20.118500 -9.945600 10.020000
-7.141220 0.810137 26.624600 -12.609600 3.730000
18.933300 1.580020 20.579400 -9.945600 10.430000
-6.887430 0.822796 27.136000 -12.609600 9.020000
18.475000 0.329825 21.618600 -10.300800 11.380000
-6.987300 1.450630 27.529500 -12.609600 3.640000
18.754900 0.334822 21.946200 -10.300800 12.120000
-6.715600 1.472610 28.039700 -12.698400 8.240000
-7.034960 1.494590 28.404900 -12.698400 7.360000
-7.137550 1.585440 28.819100 -12.698400 7.520000
18.820500 1.165780 23.542300 -10.567200 6.530000
19.089300 1.182440 23.878600 -10.567200 9.410000
-10.710400 1.914770 28.593800 -12.787200 7.600000
-11.082200 2.037490 28.906300 -12.787200 6.120000
-5.466750 2.720540 30.857300 -12.876000 8.640000
-11.018000 1.677350 29.415100 -12.609600 6.690000
18.865300 1.527970 25.661700 -10.922400 5.210000
-5.798470 1.429460 31.322400 -12.876000 6.130000
19.115000 1.723300 26.001300 -10.922400 5.290000
-6.163730 0.936721 31.271200 -12.876000 4.570000
18.501600 1.569270 26.975600 -11.100000 5.420000
-5.451250 0.949380 31.840300 -12.876000 4.240000
18.745100 1.589910 27.330600 -11.100000 8.040000
-5.785490 0.974697 32.656500 -12.787200 5.720000
18.985600 1.714380 27.681300 -11.100000 6.850000
19.229000 1.736360 28.036200 -11.100000 4.660000
19.470000 1.838190 28.387600 -11.100000 13.150000
19.051600 1.564680 29.202800 -11.277600 15.810000
19.058400 1.584000 29.711100 -11.277600 6.230000
-10.171600 2.348780 34.207200 -12.520800 14.130000
-10.294200 2.377080 34.619400 -12.520800 7.780000
-10.205000 2.857300 35.059900 -12.520800 8.120000
-20.252300 -1.690650 35.037300 -11.188800 9.530000
-20.467700 -1.708630 35.410000 -11.188800 6.790000
-20.958300 -1.726620 35.622300 -11.188800 7.640000
-22.227000 -1.893070 35.855200 -10.922400 6.340000
10.809900 1.022380 41.254100 -12.787200 6.550000
10.771000 -0.989424 46.148400 -12.964800 7.490000
11.238300 -1.007410 46.923300 -12.876000 8.830000
11.064700 -1.016410 47.407000 -12.876000 7.100000
-16.235600 -4.908630 48.390600 -12.165600 6.880000
-19.793300 1.838680 47.734300 -11.988000 5.670000
-19.958200 1.854000 48.132100 -11.988000 7.670000
-17.724300 -3.938960 49.334800 -12.254400 6.150000
-17.869500 -3.971250 49.739100 -12.254400 6.560000
-18.353100 -0.950133 50.171700 -12.165600 9.090000
-19.278500 -0.957795 50.285100 -12.076800 6.720000
-16.158900 -2.433940 51.775900 -12.432000 8.660000
-16.688900 -2.453260 52.059700 -12.432000 7.530000
-17.129700 -1.961250 52.391100 -12.343200 8.260000
20.505500 1.352850 52.574300 -12.432000 6.190000
20.662000 1.363180 52.975700 -12.432000 6.530000
-30.030500 1.696230 49.287600 -11.100000 9.730000
-28.712100 1.529040 50.568800 -11.277600 9.920000
-29.135000 1.734200 51.313500 -11.277600 6.260000
-29.347600 1.746860 51.688100 -11.277600 8.270000
20.853700 1.241280 55.673800 -12.520800 5.600000
-29.560300 1.759520 52.062600 -11.277600 7.340000
12.825600 0.138929 58.505600 -12.964800 9.780000
-16.624100 -2.084570 61.979500 -12.609600 5.170000
-16.735600 -2.098560 62.395500 -12.609600 6.040000
-16.847200 -2.112550 62.811500 -12.609600 6.440000
23.907500 -0.774588 62.359200 -12.432000 5.810000
19.880700 -2.787770 63.701100 -12.698400 5.800000
20.742700 -4.261040 64.705300 -12.609600 6.690000
20.874000 -4.288010 65.114800 -12.609600 7.750000
23.264800 -4.314980 64.756500 -12.520800 8.150000
-14.883200 0.461763 84.008800 -12.876000 5.440000
-17.533100 6.812470 88.952800 -12.787200 4.740000
-17.616200 6.844760 89.374400 -12.787200 5.710000
-17.699300 6.877040 89.796000 -12.787200 5.860000
-62.625300 -12.539700 114.368000 -11.277600 8.160000
-10.152400 0.713633 131.462000 -13.053600 8.190000
-9.453480 1.128740 132.375000 -13.053600 6.370000
-9.484380 0.720629 132.808000 -13.053600 8.530000
-9.514870 1.136070 133.235000 -13.053600 10.470000
-9.545560 1.139740 133.665000 -13.053600 7.880000
-9.576250 1.143400 134.094000 -13.053600 5.460000
-10.383700 1.981250 134.457000 -13.053600 4.330000
-11.456600 1.569170 134.808000 -13.053600 9.770000
-8.624330 1.574160 135.450000 -13.053600 10.930000
-8.788880 1.176390 138.034000 -13.053600 7.240000
19.062200 3.264170 182.542000 -13.142400 5.600000
19.107000 3.271830 182.970000 -13.142400 6.100000
-7.910960 1.042070 8.466860 -9.412800 4.930000
-8.203960 1.080670 8.780450 -9.412800 5.480000
-6.824330 1.402030 11.397200 -11.188800 2.260000
-7.271330 1.155300 11.145700 -10.833600 4.920000
-7.044470 1.447260 11.764900 -11.188800 5.850000
-7.594340 1.192570 11.447000 -10.833600 6.280000
-7.294560 0.758254 12.182500 -11.100000 6.200000
-7.831670 1.229830 11.804800 -10.833600 6.850000
-7.612130 0.781231 12.493400 -11.100000 4.510000
6.832410 1.304370 13.381600 -11.899200 6.080000
8.044650 0.081625 12.756500 -11.544000 13.380000
7.133500 1.341640 13.709400 -11.899200 5.150000
8.274500 0.083957 13.121000 -11.544000 16.910000
8.400160 0.086289 13.550600 -11.544000 15.830000
7.132130 0.481019 14.731500 -12.076800 9.690000
8.627000 0.139261 13.916500 -11.544000 9.520000
7.319810 0.493677 15.119100 -12.076800 10.040000
7.627450 0.453050 15.449800 -11.988000 7.870000
-0.677731 1.636810 17.577900 1.598400 13.880000
9.098220 4.604180 14.427200 -11.632800 6.020000
-0.555458 1.676740 18.011400 1.598400 17.740000
7.244540 -1.899530 16.475400 -12.254400 7.820000
-0.551747 -4.787270 17.891100 1.598400 17.300000
7.066550 -1.716660 17.042000 -12.343200 6.350000
-0.564579 -4.898600 18.307100 1.598400 13.340000
7.232940 -1.698190 17.443300 -12.343200 5.580000
-0.577410 -5.009930 18.723200 1.598400 8.000000
-0.890800 2.421290 20.087300 1.509600 6.190000
-0.636645 1.102910 20.644000 1.598400 5.260000
-0.649798 1.191090 21.070500 1.598400 5.760000
7.788030 2.195060 19.967900 -12.520800 4.880000
8.005710 0.812082 21.373100 -12.520800 8.320000
8.328300 0.413767 21.723200 -12.520800 10.010000
8.483570 0.201562 22.128100 -12.520800 10.880000
8.464090 0.130599 22.596900 -12.609600 8.990000
7.000340 0.132932 23.542200 -12.698400 6.080000
8.615230 0.132932 23.000400 -12.520800 5.930000
7.577430 -2.911220 23.637200 -12.698400 4.880000
-15.228800 1.718430 19.741900 -12.432000 7.500000
18.331100 1.591150 17.543500 -9.590400 8.280000
-15.491300 1.748060 20.082200 -12.432000 6.990000
18.641800 1.618120 17.840900 -9.590400 9.640000
-6.875170 1.697910 24.865200 -12.698400 6.750000
18.952400 1.645090 18.138200 -9.590400 6.560000
18.514800 1.216970 19.815800 -10.034400 7.090000
18.806000 1.321490 20.127400 -10.034400 6.140000
-6.086670 0.923367 27.765100 -12.876000 8.490000
15.950400 1.026590 24.042200 -10.478400 6.690000
-6.341710 0.937358 28.149600 -12.876000 10.370000
15.999900 1.041920 24.525100 -10.478400 6.330000
-6.269730 1.132470 28.600100 -12.876000 10.340000
-6.361930 1.149130 29.020700 -12.876000 6.190000
17.530400 1.390830 25.559500 -10.922400 4.990000
-10.856800 2.133230 28.984800 -12.787200 9.700000
18.607500 1.604490 25.311000 -11.011200 9.640000
-10.780800 2.162860 29.471300 -12.787200 7.120000
18.862400 1.626470 25.657800 -11.011200 13.990000
19.117300 1.648440 26.004500 -11.011200 13.710000
-10.392100 2.251740 30.974000 -13.142400 6.200000
-10.533200 2.076580 31.394400 -13.142400 12.680000
-14.159500 1.714380 30.433800 -13.053600 14.790000
19.229000 1.736360 28.036200 -11.188800 5.590000
-14.571300 2.025440 30.698100 -13.053600 12.470000
19.253000 1.758340 28.540300 -11.277600 9.010000
-14.752900 2.157490 31.080800 -13.053600 5.140000
19.043600 1.861170 29.190600 -11.366400 8.370000
19.050400 1.884150 29.698700 -11.366400 8.130000
19.282700 1.907120 30.060800 -11.366400 8.750000
-10.442700 1.907120 34.153000 -12.609600 4.950000
-10.568500 1.930100 34.564500 -12.609600 7.200000
-21.638400 -2.631390 29.433900 -10.478400 8.500000
-9.950620 1.953080 35.194800 -12.698400 10.810000
-21.614300 -2.433670 30.002500 -10.567200 9.500000
-10.071900 1.661260 35.623700 -12.698400 10.850000
-21.631100 -2.461970 30.519000 -10.567200 8.690000
19.206500 1.817040 32.644700 -11.721600 8.100000
-21.443500 -0.681950 31.787400 -10.833600 11.280000
19.424700 1.837690 33.015600 -11.721600 13.440000
-21.684400 -0.689612 32.144600 -10.833600 10.390000
9.018320 -2.187720 37.654300 -13.053600 10.550000
9.927790 -1.878990 37.887700 -12.964800 15.430000
10.038300 -1.777170 38.309600 -12.964800 9.000000
9.318940 -2.260650 38.909500 -12.964800 9.260000
9.618550 -2.260650 38.836500 -12.787200 10.710000
-20.536400 -0.720262 34.905000 -11.366400 7.900000
-4.975810 2.066050 40.144700 -13.142400 6.280000
-20.482300 -0.727924 35.435300 -11.366400 5.300000
-5.028740 2.088030 40.571800 -13.142400 6.880000
10.170200 1.470940 40.069700 -12.964800 5.890000
-19.811800 -3.099510 36.181000 -11.455200 6.490000
10.041900 1.486260 40.545800 -12.964800 6.430000
-22.214000 -2.382190 35.834100 -11.100000 9.400000
-22.440600 -2.406500 36.199800 -11.188800 8.150000
20.085500 1.105000 41.486700 -12.165600 12.120000
-16.897500 1.798640 43.323800 -12.165600 6.330000
-17.054000 1.815290 43.724900 -12.165600 10.920000
11.037600 -0.989424 46.085300 -12.964800 7.240000
-17.206000 2.124870 44.114700 -12.165600 12.040000
11.137900 -0.998419 46.504300 -12.964800 9.220000
11.335100 -1.580920 47.327600 -12.964800 9.570000
11.434200 -1.746740 47.741400 -12.964800 6.490000
-14.794000 -5.707280 47.402600 -12.520800 6.430000
-16.587500 -5.291540 47.313400 -12.343200 8.640000
-16.453100 -5.336760 47.813700 -12.343200 7.500000
-19.628300 1.823350 47.336500 -12.165600 10.060000
-20.435300 1.838680 47.463000 -12.076800 8.760000
-17.249800 0.000000 49.202700 -12.343200 8.690000
-16.954400 1.854000 49.270400 -11.988000 8.250000
-17.392400 0.000000 49.609400 -12.432000 9.970000
-18.065600 0.000000 50.284900 -12.343200 7.300000
-18.211300 0.000000 50.690400 -12.343200 5.340000
-18.357000 0.000000 51.095900 -12.343200 6.800000
-28.717500 1.034420 50.578200 -11.366400 6.820000
-29.320300 1.223290 50.725400 -11.366400 8.160000
-16.377800 0.135931 56.267100 -12.609600 9.460000
-29.532100 1.551700 51.091800 -11.366400 9.060000
-16.060900 0.136930 56.806300 -12.609600 13.540000
-29.747700 1.563020 51.464800 -11.366400 8.420000
-16.178100 0.137930 57.221000 -12.609600 8.910000
-29.960700 1.759520 51.833200 -11.366400 16.580000
-17.071200 0.138929 57.410600 -12.520800 4.600000
12.208500 -0.140928 59.517500 -13.142400 12.330000
11.294700 0.335827 61.012000 -13.142400 7.770000
12.080200 1.304240 61.287700 -13.142400 7.310000
12.163500 1.313240 61.710400 -13.142400 6.170000
21.225700 -2.481450 60.543200 -12.698400 6.680000
21.015400 -2.498100 61.072000 -12.698400 7.020000
21.309300 -0.962142 61.925900 -12.698400 7.670000
21.448400 -1.172340 62.330200 -12.787200 9.150000
20.620800 -0.769591 63.068600 -12.787200 9.360000
22.455900 -5.311220 64.052400 -12.609600 5.650000
21.754400 -4.076510 64.839600 -12.609600 7.760000
22.769300 -4.102150 64.946200 -12.698400 7.340000
21.434300 -0.889527 73.639000 -12.876000 7.370000
21.554700 -0.894524 74.052700 -12.876000 5.480000
21.675100 -0.899522 74.466400 -12.876000 6.190000
-13.679500 0.000000 83.777800 -13.053600 6.640000
34.689300 0.199898 78.889800 -12.343200 7.240000
34.861600 0.736616 79.281600 -12.343200 5.810000
35.648100 0.740281 79.403600 -12.343200 5.560000
-17.450000 6.780180 88.531300 -12.964800 6.050000
-17.533100 6.812470 88.952800 -12.964800 8.330000
-17.616200 6.844760 89.374400 -12.964800 9.090000
-18.390900 6.877040 89.656900 -12.876000 5.120000
18.419200 -0.641337 117.055000 -13.231200 5.630000
18.486100 -0.643669 117.481000 -13.231200 6.210000
18.552700 -1.015140 117.904000 -13.142400 7.520000
18.619700 -1.018800 118.330000 -13.142400 5.470000
-10.151800 1.529190 131.455000 -13.231200 12.800000
-10.185300 1.125080 131.889000 -13.231200 13.590000
-8.569840 1.147070 134.594000 -13.231200 10.790000
-8.597220 1.150730 135.024000 -13.231200 5.070000
-8.624600 1.154400 135.454000 -13.231200 6.500000
-8.651980 1.158060 135.884000 -13.231200 6.450000
-8.788610 1.604150 138.030000 -13.231200 7.920000
-8.816260 1.180050 138.464000 -13.231200 10.280000
-8.843640 1.183720 138.894000 -13.231200 9.400000
-8.870740 1.619140 139.320000 -13.231200 5.770000
17.654800 3.264170 182.683000 -13.231200 7.780000
17.696200 3.271830 183.112000 -13.231200 11.860000
