VERSION .7
FIELDS x y z velocity SNR
SIZE 4 4 4 4 4
TYPE F F F F F
COUNT 1 1 1 1 1
WIDTH 257
HEIGHT 1
VIEWPOINT 0 0 0 1 0 0 0
POINTS 257
DATA ascii
-0.598884209708478 3.02975109340697 -0.559956516778663 0 5.35000386684481
1.08360410793098 2.90919814565376 -0.4625727747302 0 5.35000386684481
6.71610922452042 5.74068561965487 2.18869960253921 -4.48672651146009 5.12489509066768
5.32940121289729 7.30259543468377 1.05904819477704 3.86786768229318 5.03399411196214
7.22530280497609 6.02711240269413 0.365189032681737 -4.02258238958491 6.95471092716184
4.07414552619273 7.91553475334149 -3.06758787452659 3.24900885312627 5.34683029720203
4.45738484019263 7.95824215906178 2.33720980916312 3.24900885312627 5.34683029720203
4.77327971647052 8.00948584197058 1.31468051765425 3.24900885312627 5.34683029720203
5.49650391593575 7.53156739374342 1.31468051765425 3.86786768229318 5.70713797641344
4.7132425987259 8.41505216620368 1.2830308014885 3.09429414583454 10.3342479191875
4.71800195576743 8.42354955137813 1.20755840140094 3.24900885312627 9.99748337501042
4.6971984620642 8.38640686646749 1.50944800175118 3.403723560418 6.84067715762755
5.00143496038366 8.22212193432009 1.43397560166362 3.403723560418 6.84067715762755
5.47690385672703 7.97251645553743 1.05661360122583 3.403723560418 6.84067715762755
-1.05505495104969 9.65824403122191 -0.528306800612912 4.48672651146009 7.22548309583759
5.38656296997246 8.00079359344404 -1.2830308014885 4.48672651146009 7.22548309583759
6.26345538612736 7.44447910100057 -0.150944800175117 4.48672651146009 7.22548309583759
5.48939405112647 7.99069794693975 -0.830196400963149 4.64144121875182 6.43401381348974
6.2642092072674 7.44537506103812 -0 4.64144121875182 6.43401381348974
0.951980374991768 9.39274295133022 -3.4279077201059 -4.02258238958491 5.89799866361657
1.74593923349154 9.62952154067965 -2.25930281552435 -4.02258238958491 5.89799866361657
7.69792869436417 6.42136153475867 0.623255949110165 -4.02258238958491 5.89799866361657
4.86528268255577 8.68650546188767 1.3244188918591 3.09429414583454 8.7849712660061
5.54139542068404 8.2307700156294 -1.55813987277541 4.48672651146009 7.61112484446878
5.56593779113576 8.26722339812446 -1.24651189822033 4.64144121875182 6.17047499403118
6.77709280799788 7.4112868784609 -0.155813987277541 4.64144121875182 6.17047499403118
7.6939757038135 6.89665737912742 0.72307428470984 -4.64144121875182 5.22673088828257
8.02811422775121 6.53238044188543 0.401707935949911 -4.17729709687663 9.7354299148695
7.58115446661478 6.32395227519121 -3.1333219004093 -4.02258238958491 10.9212917025226
7.80132756881202 5.87268242137265 -3.45468824916923 -4.02258238958491 10.9212917025226
6.38414127335836 7.90521916924684 2.00853967974955 4.48672651146009 5.98317881307953
8.27363291323923 6.73215605714204 0.331104722964775 -4.17729709687663 6.22408471747365
5.90150946763628 8.76565620851826 1.48997125334149 3.71315297500145 6.13229065132386
6.27564179881758 8.59917865422664 0.744985626670744 3.71315297500145 6.13229065132386
6.64632366456279 8.2298688247044 1.40719507260029 4.48672651146009 6.11961980525647
6.34127911573883 8.51556021844924 1.07609034963552 4.64144121875182 5.57299385259484
6.61532286624478 8.19148181310298 1.73829979556507 4.64144121875182 5.57299385259484
4.77595240772547 12.1989508784243 3.24531320376504 1.54714707291727 6.50791544446283
4.82691713934054 12.329127271409 2.61718806755245 1.701861780209 6.54139706652963
5.50824850566216 11.9414596940273 3.03593815836084 1.85657648750073 5.00204245868002
5.40624390370545 11.9879851550565 3.03593815836084 2.01129119479245 6.63217842402589
5.38564845977553 11.9423161322578 3.24531320376504 2.16600590208418 6.86306854619798
4.93732729758707 12.307643395213 3.85639618511914 1.54714707291727 6.19363202234856
4.87718087276103 12.4575131435067 3.4279077201059 1.701861780209 5.93740073572234
4.93732729758707 12.307643395213 3.85639618511914 1.85657648750073 6.05536180617244
5.57980698087001 12.0965929721614 3.64215195261252 1.85657648750073 6.05536180617244
4.88811106775709 12.1849584344043 4.28488465013238 2.01129119479245 8.18455067852643
5.61487527004241 12.172618329634 3.3207856038526 2.01129119479245 8.18455067852643
-2.21952009019977 13.4439677445827 2.2495644413195 2.32072060937591 9.37862448895514
1.17830783057742 13.7596218637155 -0.107122116253309 2.32072060937591 9.37862448895514
6.57573852613932 11.7403637877108 3.10654137134598 2.32072060937591 9.37862448895514
6.9606901557643 11.2118578955348 4.07064041762576 2.32072060937591 9.37862448895514
-2.12587901744769 13.537727981187 1.71395386005295 2.47543531666763 12.3144097141595
6.75525731371174 11.8126883231011 2.35668655757281 2.47543531666763 12.3144097141595
7.12276620212184 11.4729201694425 2.89229713883936 2.47543531666763 12.3144097141595
-2.11904803328725 13.4942278550515 2.03532020881288 2.63015002395936 7.46504005964528
7.00832386415772 11.7598536227041 1.82107597630626 2.63015002395936 7.46504005964528
4.5635130506734 12.8987836192794 3.50581471374468 1.54714707291727 6.40126719490364
6.4138736265041 12.4613220779026 1.75290735687234 2.01129119479245 19.7654458673149
5.92895367611393 12.5695306792033 2.51980432550398 2.16600590208418 24.8011037346247
6.53989824770621 12.4376961796522 1.42423722745877 2.16600590208418 24.8011037346247
-1.58860252434722 13.5609895847312 3.6153714235492 2.32072060937591 27.1529714046283
5.95982259362039 12.6349735594866 2.0815774862859 2.32072060937591 27.1529714046283
6.88906346598283 12.0466705830046 2.62936103530851 2.32072060937591 27.1529714046283
6.81851389654481 12.1738164190657 2.19113419609042 2.47543531666763 23.900980784132
6.84180377234405 12.2153983057795 1.86246406667686 2.63015002395936 19.8304665452565
6.07725738983271 12.8839382764388 2.35181737047039 2.01129119479245 18.4486009923496
6.57380883121283 12.7720553747414 1.45588694362452 2.01129119479245 18.4486009923496
6.07725738983271 12.8839382764388 2.35181737047039 2.16600590208418 36.2081250613383
6.69030677205237 12.7237458180091 1.34389564026879 2.16600590208418 36.2081250613383
6.17952515629312 12.8141751002133 2.46380867382612 2.32072060937591 45.3279255840363
6.89630320289613 12.5729474772221 1.67986955033599 2.32072060937591 45.3279255840363
7.56862541006004 11.9456037967587 2.91177388724905 2.32072060937591 45.3279255840363
6.99384385617392 12.4868516014635 1.90385215704746 2.47543531666763 21.9764171974972
7.00090612791296 12.4994606246256 1.79186085369172 2.63015002395936 10.523799554458
6.34508697664162 13.1574924429213 2.059666144325 2.16600590208418 13.4905368071293
6.83574822361873 13.0003489879659 1.37311076288333 2.16600590208418 13.4905368071293
7.06853480556011 12.8869503321579 1.25868486597639 2.32072060937591 18.7694760195899
7.29146477185998 12.7503360373888 1.37311076288333 2.47543531666763 10.8541794555921
-14.6228250562725 7.72277487072798 -1.80646841499899 2.93957943854282 5.50660368920772
-11.8710781557077 11.6537159689847 -0 2.93957943854282 5.50660368920772
-1.40839484905909 16.4464497773568 -2.06453533142742 2.93957943854282 5.50660368920772
-11.9480152461761 11.4707879825692 -1.54840149857056 3.09429414583454 23.8260162899284
-1.28157107206695 16.4724922385994 -1.93550187321321 3.09429414583454 23.8260162899284
-11.9563514264261 11.4787911993598 -1.41936804035635 3.24900885312627 11.3302611455928
-1.28157107206695 16.4724922385994 -1.93550187321321 3.24900885312627 11.3302611455928
-1.43496833677719 16.7567601505145 -2.1034888282468 2.93957943854282 24.717772998377
-1.43759650503573 16.7874504340663 -1.84055272471596 3.09429414583454 108.489433000342
-1.43877761449537 16.8012427717921 -1.70908467295053 3.24900885312627 51.9059618398598
-1.59109323882351 17.0197000154929 -2.41024761569946 2.93957943854282 33.6312370520369
-1.59440926308577 17.0551710594334 -2.14244232506619 3.09429414583454 157.914508877368
-1.5973294500397 17.0864078875038 -1.87463703443292 3.24900885312627 55.9731933593161
-2.16234785891368 17.2886872533409 -2.31773306075342 2.93957943854282 16.2299686164374
-1.61818213451026 17.3094661128465 -2.59040753848912 2.93957943854282 16.2299686164374
-2.16453136321946 17.3061450933935 -2.18139582188558 3.09429414583454 78.0956608240925
-1.61818213451026 17.3094661128465 -2.59040753848912 3.09429414583454 78.0956608240925
-1.61818213451026 17.3094661128465 -2.59040753848912 3.24900885312627 14.9119171273645
-1.38567124907447 17.8105291178397 -0.97140282693342 3.09429414583454 14.3792483834503
-1.38504398856931 17.8024667137889 -1.11017465935248 3.24900885312627 6.6750872649133
-1.97206700489159 18.0528079226718 -1.27085783373245 3.09429414583454 6.989386749538
-1.40780998908996 18.0950862766474 -1.41206425970272 3.09429414583454 6.989386749538
-9.81174163941162 20.8011386646278 3.24287861021382 0.464144121875182 9.98438675339296
-9.72841929407121 20.6244932001441 -5.84302452290779 0.309429414583454 16.3856118411905
-8.13627224398383 21.8437969655977 3.28670129413563 0.309429414583454 16.3856118411905
-5.89199410101991 22.2515570392261 -4.93005194120345 0.309429414583454 16.3856118411905
-4.17483833533103 23.0258275361221 2.55632322877216 0.309429414583454 16.3856118411905
5.27928745908733 22.8680529447501 1.82594516340869 0.309429414583454 16.3856118411905
5.74928841320138 22.4379415138235 4.19967387583997 0.309429414583454 16.3856118411905
-9.76701469437145 20.706316417975 -5.47783549022606 0.464144121875182 59.7988173479624
-8.12703080948235 21.8189860924032 3.4692958104765 0.464144121875182 59.7988173479624
-4.16300229534162 22.9605472561169 3.10410677779476 0.464144121875182 59.7988173479624
-3.38648486521256 22.7276343634175 5.11264645754432 0.464144121875182 59.7988173479624
-2.48614919493092 22.7588483412916 5.47783549022606 0.464144121875182 59.7988173479624
5.60498754585553 22.6259697364175 3.28670129413563 0.464144121875182 59.7988173479624
6.92521994284656 22.4512876594883 1.46075613072695 0.464144121875182 59.7988173479624
-9.81999016836651 20.8186257531464 -4.93005194120345 0.618858829166909 18.8062438939924
-8.28716916795369 21.6972890119631 3.83448484315824 0.618858829166909 18.8062438939924
-4.15853914692507 22.9359312883948 3.28670129413563 0.618858829166909 18.8062438939924
-3.37405962169196 22.6442451256525 5.47783549022606 0.618858829166909 18.8062438939924
5.84925072183315 22.8280677822354 3.7005821978416 0.309429414583454 38.753036079875
7.00992284222723 22.7258910909002 1.8502910989208 0.309429414583454 38.753036079875
5.85627820108476 22.855494162181 3.51555308794952 0.464144121875182 178.836099841548
7.01395259867847 22.7389554010639 1.66526198902872 0.464144121875182 178.836099841548
5.67972071313361 22.927649332903 3.33052397805744 0.618858829166909 72.3805806052462
6.82937489871325 22.7950710084638 1.66526198902872 0.618858829166909 72.3805806052462
5.94645661201261 23.2074364835234 3.18688295853596 0.309429414583454 20.4718883293748
6.91086330166121 23.0670628026051 2.06210073787621 0.309429414583454 20.4718883293748
5.94645661201261 23.2074364835234 3.18688295853596 0.464144121875182 95.867188956848
6.91923509474895 23.095006153312 1.68717333098963 0.464144121875182 95.867188956848
6.925925243181 23.117336514557 1.31224592410304 0.618858829166909 54.2721665188151
-7.69804432650648 21.7585458739022 8.16562677076364 0.618858829166909 10.7994089693592
7.25386216049232 22.8555391052453 4.93735572185709 0.773573536458636 15.1551558414673
8.03463055744893 22.7099078868835 4.36766083087357 0.773573536458636 15.1551558414673
8.02288849475917 22.6767189107159 4.55755912786808 0.928288243750363 15.2896127528904
7.34686039331914 23.1485588373638 5.00065515418859 0.773573536458636 9.06359922078651
8.19809785349303 23.1719486999783 3.26965913927715 0.773573536458636 9.06359922078651
9.19935643034233 22.38769406501 5.38532093528001 0.773573536458636 9.06359922078651
6.90752542690824 23.055921652333 5.96231960691716 0.928288243750363 10.1726549630937
-18.7784890072762 18.0284391672844 -1.01035632375281 0.928288243750363 5.22773214311764
15.355568043409 21.0409193474501 -0.404142529501121 4.64144121875182 10.3616550643881
16.7673734682095 19.9289934497219 0.606213794251685 4.64144121875182 10.3616550643881
15.5195179896341 21.265571251293 -1.43154100811241 4.64144121875182 10.4488546357539
16.9658143150306 20.1648518770392 0.818023433207092 4.64144121875182 10.4488546357539
16.9693900160193 20.1691018045378 0.61351757490532 4.79615592604354 5.29472721728074
5.25317848716812 31.8192939319902 2.25686822197314 -0.154714707291727 5.28637112149055
5.24682250666662 31.780794800027 2.75839449352272 0 7.09345687465651
-6.51984153014461 31.6646249171151 -0 2.63015002395936 6.64896048412754
-5.25825773990892 31.8500597314598 1.75534195042355 2.63015002395936 6.64896048412754
1.50385445305348 32.2783071442664 1.00305254309917 2.63015002395936 6.64896048412754
16.9622064246154 27.8850631074881 -0.506395458652007 2.47543531666763 10.0591247203798
16.9637375278171 27.8875801685552 -0.253197729326004 2.63015002395936 31.671873618933
16.9642478648423 27.8884191384272 -0 2.78486473125109 8.19353709055368
17.1273656327735 28.1565770147583 -0 2.47543531666763 13.3105213993124
17.1273656327735 28.1565770147583 -0 2.63015002395936 41.7017251827721
15.2193611476369 28.9444549185613 -4.09011716603545 2.78486473125109 10.0571653792257
17.1268503886615 28.1557299778682 0.255632322877215 2.78486473125109 10.0571653792257
0.250495277198861 32.2933806130733 -8.00007440928126 2.63015002395936 7.52182413699644
14.3990468791369 29.8585899917466 -2.8387360807127 2.63015002395936 7.52182413699644
16.2503884101799 29.0135428695526 1.03226766571371 2.63015002395936 7.52182413699644
17.0303668407878 28.5766789706839 0.516133832856853 2.63015002395936 7.52182413699644
16.7301570809307 30.5014701464811 1.8916791892914 2.32072060937591 6.09673959080087
14.7092747768737 32.6168354235644 4.75963039261864 2.01129119479245 5.54719945991333
15.1323933696504 32.8058665675838 4.51860563104869 2.01129119479245 8.79974703676215
14.7173328997855 36.6869915931478 1.22703514981064 1.54714707291727 10.1890386776618
16.2577266375951 36.0504241129176 0.306758787452658 1.54714707291727 10.1890386776618
14.830116464355 36.968135582577 1.54596690501935 1.54714707291727 23.0095498112356
16.386756214084 36.3365385900043 0.30919338100387 1.54714707291727 23.0095498112356
14.830116464355 36.968135582577 1.54596690501935 1.701861780209 10.0042307938076
14.9468890349404 37.2592232643296 1.55813987277541 1.54714707291727 8.08740312943952
16.5157857905728 36.6226530670909 0.311627974555081 1.54714707291727 8.08740312943952
14.7467867656426 38.609721603034 2.89229713883936 1.39243236562554 10.7403699931414
16.0562284555024 38.1596557170828 1.60683174379964 1.39243236562554 10.7403699931414
14.8585048472004 38.9022194939661 2.91420848080026 1.39243236562554 7.38230591380541
16.1778665498623 38.4487440179698 1.6190047115557 1.39243236562554 7.38230591380541
17.1428544463194 38.0131359735575 1.94280565386684 1.39243236562554 7.38230591380541
-16.444883212656 43.0556413899153 2.14731151216861 0.928288243750363 18.4697714217644
-14.2307532821719 43.6029242576431 5.01039352839343 0.928288243750363 18.4697714217644
-4.98485577547384 45.6326502160597 4.65250827636533 0.928288243750363 18.4697714217644
14.3136873962024 43.8570337781124 0.715770504056202 0.928288243750363 18.4697714217644
-4.97636465342225 45.5549203037062 5.36827878042154 1.08300295104209 14.7596693651999
14.3085180970137 43.8411950831031 1.43154100811241 1.08300295104209 14.7596693651999
15.742687123295 43.3572191400768 1.07365575608431 1.08300295104209 14.7596693651999
14.4110594193059 44.155380946671 0.720639691158625 0.928288243750363 54.2036359312328
14.4088911208884 44.1487372961356 1.08095953673794 1.08300295104209 44.3532015680383
15.4820966501238 43.7601936151469 1.80159922789657 1.08300295104209 44.3532015680383
14.5084314424093 44.4537281152296 0.725508878261048 0.928288243750363 27.0426273508117
15.5867054112733 44.055870599033 1.81377219565263 0.928288243750363 27.0426273508117
17.0309844924918 43.5013009968537 2.17652663478315 0.928288243750363 27.0426273508117
14.5062484933269 44.4470395751635 1.08826331739158 1.08300295104209 22.5694470069843
15.5815390037691 44.0412677323937 2.17652663478315 1.08300295104209 22.5694470069843
17.0309844924918 43.5013009968537 2.17652663478315 1.08300295104209 22.5694470069843
17.1326074650464 44.8562263136976 0.744985626670741 0.928288243750363 5.58476782248185
16.8590398782775 48.9268646212524 2.00853967974955 0.618858829166909 5.65859266817751
16.5518892554476 49.3443349521422 2.42485517700673 0.618858829166909 9.51773737064426
14.0356330583762 49.7583819464729 6.46628047201796 0.773573536458636 5.67125883942209
16.5573774042651 49.3606961692418 2.02071264750561 0.773573536458636 5.67125883942209
-50.1634417444428 31.6843350363913 6.0134460714926 0.618858829166909 6.50214731105494
-25.0831892125604 54.3784276747048 2.79004420968847 0.464144121875182 5.40814826534534
-25.526117719159 54.1160105676895 3.7200589462513 0.618858829166909 28.0444377378672
-25.5130097122983 54.088221263981 4.18506631453271 0.773573536458636 15.3412993665117
-25.214514810532 54.66313148452 2.80465177099574 0.464144121875182 6.10096357150187
-25.2046307200072 54.6417035354194 3.27209373282836 0.618858829166909 37.9963343659148
-25.1802841215715 54.5889219799742 4.20697765649361 0.773573536458636 21.1367698074273
-25.3244358752094 54.9014319101491 3.75901244307068 0.618858829166909 7.56938398473349
-25.2968891487854 54.8417127230143 4.69876555383835 0.773573536458636 6.00485356988739
-0.855533018580015 2.94193345810003 -0.681686194339242 0 5.59553682479358
0.072771463337956 3.12643405907661 -0.267805290633274 0 5.59553682479358
5.93969340930849 11.059285347422 -0.194767484096926 -0.726751980304561 8.37610732630732
5.88485100513035 11.4334999449262 0.499091677998374 -0.726751980304561 14.0364733297003
5.98261057425816 11.3778364533265 0.598910013598049 -0.62293026883248 9.62096802055153
6.67494006421035 10.9732849765992 0.798546684797399 -0.62293026883248 9.62096802055153
0.101360055886578 13.0671480129707 1.73829979556507 -0.726751980304561 11.4954410126794
6.01820448044503 11.6925883995594 0.920276362357978 -0.726751980304561 11.4954410126794
6.97426813378413 10.7865049897032 2.9653349453757 -0.726751980304561 11.4954410126794
8.88879741825756 10.136612895639 0.628125136212587 -0.31146513441624 11.1055100020309
9.18474654951102 10.2576797749791 1.0712211625331 -0.41528684588832 11.4225973917819
7.92107270471452 11.3003011834062 -0.535610581266548 -0.31146513441624 6.89438167770342
7.92107270471452 11.3003011834062 -0.535610581266548 -0.20764342294416 5.5248345197816
-11.9480152461761 11.4707879825692 -1.54840149857056 1.24586053766496 8.19856279736142
-11.4670373366391 12.0176043848687 0.903234207499495 1.24586053766496 8.19856279736142
-8.03069414481945 14.3380504491218 -2.58066916428428 1.24586053766496 8.19856279736142
10.0823342220156 13.0026001809247 -2.45163570607006 1.24586053766496 8.19856279736142
12.4995447899582 10.1707299624791 -4.12907066285484 1.24586053766496 8.19856279736142
-12.7046653259132 10.5978182540881 -3.68110544943191 1.14203882619288 21.1843431267133
-1.5621642708449 16.7102509243021 -2.36642493177765 1.14203882619288 21.1843431267133
-1.17029243656546 16.7231503125358 -2.49789298354308 1.14203882619288 21.1843431267133
12.7088201947778 10.3410148541272 -4.33844570825903 1.14203882619288 21.1843431267133
-12.7479116074924 10.6338928944336 -3.41816934590106 1.24586053766496 86.4364963669486
-1.17029243656546 16.7231503125358 -2.49789298354308 1.24586053766496 86.4364963669486
12.6813795019773 10.3186866908903 -4.46991376002446 1.24586053766496 86.4364963669486
-12.7479116074924 10.6338928944336 -3.41816934590106 1.34968224913704 22.0695432030504
-1.17029243656546 16.7231503125358 -2.49789298354308 1.34968224913704 22.0695432030504
-12.5076285812836 10.6910654863101 -5.22220316734884 1.14203882619288 51.0947211355146
-1.57381624783857 16.8348904791571 -3.48146877823256 1.14203882619288 51.0947211355146
-1.19331992911763 17.0522067152251 -2.41024761569946 1.14203882619288 51.0947211355146
-9.46858587364997 13.508002784712 -5.0883005220322 1.24586053766496 216.950456027696
-1.19331992911763 17.0522067152251 -2.41024761569946 1.24586053766496 216.950456027696
-9.46858587364997 13.508002784712 -5.0883005220322 1.34968224913704 51.1865674669685
-0.799927983614957 17.1694282621504 -1.60683174379964 1.34968224913704 51.1865674669685
7.30033735849762 15.4768985235712 2.27634497038283 1.34968224913704 51.1865674669685
-0.270822566172638 17.4553926417416 -2.04505858301773 1.24586053766496 113.599307637296
-0.813854004158994 17.4683324330329 -1.77238410528203 1.34968224913704 26.9790868813629
-2.06118896847591 17.5951892970523 -2.49789298354308 1.14203882619288 7.5415204934501
-2.06548472717929 17.6318597279135 -2.22034931870496 1.24586053766496 23.5907185024236
-1.95295706666469 17.8778706394209 -2.82412851940543 1.24586053766496 16.1199080856061
-0.842920218593244 18.0922014484983 -1.83568353761353 1.24586053766496 16.1199080856061
-1.94517591313314 17.8066399612678 -3.24774779731625 1.34968224913704 5.45570974120601
-0.842228255475477 18.0773493476169 -1.9768899635838 1.34968224913704 5.45570974120601
-1.99542735046794 18.266654526591 -2.29825631234373 1.24586053766496 6.42627476659373
16.5560008350012 10.7928459454375 -5.06395458652009 2.28407765238576 9.12297292031407
-28.8786305995509 20.5741344548799 -0.825327213860728 0.830573691776641 7.09740710340116
-26.4894058410742 22.6421795866364 -6.6026177108858 0.830573691776641 7.09740710340116
17.8734805140418 30.615016138804 -1.10043628514764 0.830573691776641 7.09740710340116
19.503930581271 29.560778164818 1.92576349900836 0.830573691776641 7.09740710340116
-25.0093709201984 24.5514435541683 7.21613528579112 0.726751980304561 5.88400039230224
-26.4448901381239 22.0594665222336 -9.71402826933421 0.830573691776641 10.8733324425635
-24.9677713662613 24.5106056976855 7.49367895062924 0.830573691776641 10.8733324425635
