VERSION .7
FIELDS x y z velocity SNR
SIZE 4 4 4 4 4
TYPE F F F F F
COUNT 1 1 1 1 1
WIDTH 247
HEIGHT 1
VIEWPOINT 0 0 0 1 0 0 0
POINTS 247
DATA ascii
-0.966746396045732 2.80560876443254 -1.02252929150886 0 5.46041410367684
-2.81737068062055 7.56391517869977 -1.20268921429852 -3.09429414583454 5.06056392074424
-7.2456120330158 5.4543509477141 -0.776635342836494 3.86786768229318 5.25881515782933
-7.13632722352253 7.00565942148048 -0.934883923665247 1.85657648750073 5.2858574193178
-7.14584932393246 7.01500717002951 -0.779069936387706 2.01129119479245 5.76470432299473
-6.73782604380382 7.36834556682833 -1.09069791094279 2.01129119479245 5.76470432299473
-7.28442348012938 7.31027556750064 -0.883757459089804 1.85657648750073 5.14956605941295
-7.37718166543233 7.24210376285107 -0.642732697519858 2.01129119479245 5.45766252700117
6.94598523217687 9.51771465866052 1.8502910989208 1.85657648750073 5.43477930309204
7.29260732730245 9.21588467470262 2.03532020881288 1.85657648750073 5.43477930309204
7.31156340229144 9.23984003019386 1.8502910989208 2.01129119479245 8.71229350350421
6.64521919092527 9.67318776013076 2.12783476375892 2.16600590208418 6.43982114384295
7.16034705422153 9.42313753516682 1.48023287913664 2.16600590208418 6.43982114384295
7.86937383270765 8.78864935144157 1.75777654397476 2.16600590208418 6.43982114384295
1.57042741561773 11.8055728302932 -0.64760188462228 2.32072060937591 5.70229240585738
7.06516263420795 9.11152942591599 3.05298031321932 2.63015002395936 5.38658370248696
6.82937489871325 9.74287146789105 0.832630994514361 2.78486473125109 5.14757237599776
6.87803545731442 9.05161071037977 3.60806764289556 2.78486473125109 5.14757237599776
7.39510866611324 9.73208777739408 0.664644039480761 2.01129119479245 5.1945049471169
7.37388159441424 9.70415259288784 1.13938978196702 2.16600590208418 5.20016609040251
7.33349338257743 9.65100102466694 1.70908467295053 2.32072060937591 6.47404839096678
7.08488976834839 9.90573877935595 1.23433893046427 2.63015002395936 6.14243140463849
7.39096157086146 9.53169337003777 2.08888126693954 2.63015002395936 6.14243140463849
7.11775772683081 9.95169311620281 0.379796593989007 2.78486473125109 5.0232823251477
7.23543152696149 9.33111531614454 3.22827104890655 2.78486473125109 5.0232823251477
-9.11433096482497 8.5550580480654 1.16860490458156 2.01129119479245 15.0260141135942
-0.290423536370855 12.4772815334294 1.36337238867849 2.01129119479245 15.0260141135942
7.20552970965292 10.2794986159635 0.194767484096926 2.01129119479245 15.0260141135942
7.5950178020666 9.99517157324365 0.194767484096926 2.01129119479245 15.0260141135942
7.71943152571688 9.36527781079598 3.21366348759929 2.01129119479245 15.0260141135942
-9.09993747295344 8.54154776859996 1.36337238867849 2.16600590208418 32.241068797571
7.20618012088672 10.2804265007474 0.0973837420484629 2.16600590208418 32.241068797571
7.50397296550963 9.87535503219524 1.94767484096926 2.16600590208418 32.241068797571
7.84587783625822 9.51868351462594 2.33720980916312 2.16600590208418 32.241068797571
-0.773046915435524 12.4338362209155 1.55813987277541 2.32072060937591 12.6971511392087
7.48451804644198 9.8497520304522 2.14244232506619 2.32072060937591 12.6971511392087
-7.68601184117496 10.3213713635145 -0 -0.464144121875182 5.42310494886491
-7.68231150208713 10.3164022618938 -0.3992733423987 -0.309429414583454 6.98395660651452
-0.798330453995171 12.840501549059 0.299455006799025 2.01129119479245 109.534571353952
-0.099046636040176 12.7689062718364 1.5970933695948 2.01129119479245 109.534571353952
-0.897039808611369 12.8184469855772 0.698728349197723 2.16600590208418 227.952384333149
-0.099046636040176 12.7689062718364 1.5970933695948 2.16600590208418 227.952384333149
7.68393061970351 10.3185765382995 -0.299455006799025 2.16600590208418 227.952384333149
8.84526427942721 9.26995209565807 1.1978200271961 2.16600590208418 227.952384333149
7.68393061970351 10.3185765382995 0.299455006799025 2.32072060937591 55.6956905393097
7.65765690277998 10.7065531604669 -0.715770504056204 2.01129119479245 271.68381345507
7.97476869216993 10.4949301519058 -0.204505858301772 2.01129119479245 271.68381345507
7.86968495335755 10.5680218292571 -0.409011716603546 2.16600590208418 497.565791014754
7.86755194319619 10.5651574581824 -0.511264645754432 2.32072060937591 111.890313501553
8.57657573111358 9.98560656881055 0.715770504056204 2.32072060937591 111.890313501553
8.16562677076364 10.7461026035576 -0 2.01129119479245 107.212210017155
7.74687667995525 11.0517909603451 -0 2.16600590208418 185.710216813312
8.1634156789628 10.7431927694414 -0.314062568106295 2.16600590208418 185.710216813312
8.05220472006861 10.8131234934667 -0.628125136212587 2.32072060937591 32.2504056701135
8.78077991518771 10.2233591061632 0.732812658914685 2.32072060937591 32.2504056701135
-11.4565481633913 7.7000636451315 -0.428488465013239 4.33201180416836 16.7940155250064
-11.4606871192723 7.70284547987385 -0.214244232506618 4.48672651146009 17.6696655262991
-11.7052755513923 7.86723587629402 -0.766896968631647 4.17729709687663 7.83933293898736
-11.7137484868552 7.87293062321038 -0.547783549022606 4.33201180416836 37.7488929833835
-11.7211572810739 7.87791014987098 -0.219113419609041 4.48672651146009 37.5163190154155
-11.9773003526363 8.05006653809203 -0.447965213422931 4.33201180416836 16.1218881644429
-11.9816274428756 8.05297481986811 -0.223982606711465 4.48672651146009 15.69295527515
-11.9827089712853 8.05370172621634 -0.111991303355732 4.79615592604354 5.25269373581822
7.82710001878467 16.9685516728882 2.33720980916312 -0.773573536458636 9.38418736915283
8.60574775740988 16.7198483741756 1.02252929150886 -0.773573536458636 9.38418736915283
7.97212607337995 17.2829570203871 2.07914289273469 -0.773573536458636 5.70973806024331
8.74917688670004 16.9985125137452 1.03957144636734 -0.773573536458636 5.70973806024331
9.65790694069725 16.2058109935745 3.26722454572594 -0.773573536458636 5.70973806024331
-12.1844257237502 15.3978210066465 -5.53870032900635 1.39243236562554 6.25013403258936
-12.2116987796818 15.4322867782028 -5.38045174817759 1.54714707291727 6.28832929240419
-7.73923702384782 18.8343252159495 -1.26598864663002 1.54714707291727 6.28832929240419
-12.6189026553136 16.2738649935621 -2.2495644413195 1.39243236562554 42.179731573892
0.794643012482719 20.4739781165855 -3.05298031321932 1.39243236562554 42.179731573892
-12.6292701716815 16.2872353765739 -2.08888126693953 1.54714707291727 45.5201398948265
0.795546619411753 20.4972595501355 -2.89229713883936 1.54714707291727 45.5201398948265
0.646080284855606 20.8134653988711 -2.93611982276116 1.39243236562554 138.153008550704
0.646773689942931 20.8358034319774 -2.77300205482999 1.54714707291727 162.633592505377
0.807600356069507 20.8078240887739 -2.93611982276116 1.701861780209 15.2272684898245
0.657089878120195 21.1681392588224 -2.6488377837182 1.701861780209 10.5539023604942
0.842803195057429 21.7148252751665 -3.2380094231114 1.39243236562554 9.93636229008189
0.844667132388155 21.7628496226036 -2.89716632594178 1.54714707291727 12.4814267626601
0.172105717686854 22.1875458455669 -2.07427370563227 1.39243236562554 5.48321574912343
0.857598921811283 22.0960371917363 -2.76569827417636 1.39243236562554 5.48321574912343
0.172335360733425 22.2171509957757 -1.72856142136022 1.54714707291727 6.98344861129304
0.858410812422204 22.1169555542462 -2.59284213204033 1.54714707291727 6.98344861129304
7.64011980210621 21.5948220282174 0.533175987715337 -2.01129119479245 8.07674815916382
8.15541995372656 21.3523460380415 1.59952796314601 -2.01129119479245 8.07674815916382
7.4500787174623 21.6209817082533 1.42180263390756 -1.85657648750073 8.06851095183432
-20.8553391690854 9.17838411455945 4.50399806974142 -3.09429414583454 9.06777130119936
-8.09523729722455 21.7336286945978 -1.2611194595276 -3.09429414583454 9.06777130119936
-7.3643025981016 21.9543889208936 1.80159922789657 -3.09429414583454 9.06777130119936
-8.22328656294538 21.5300329422955 2.88255876463451 -2.93957943854282 15.4311795553762
6.04362829755696 22.105082261878 3.7833583785828 -2.47543531666763 9.097114813672
7.32945106697305 21.8504898674948 2.88255876463451 -2.47543531666763 9.097114813672
6.04362829755696 22.105082261878 3.7833583785828 -2.32072060937591 5.62097406514863
7.13581210139027 21.8640762301381 3.24287861021382 -2.32072060937591 5.62097406514863
7.08042634003791 21.6943746613375 4.32383814695176 -2.16600590208418 5.13880557853477
7.02285429047306 22.1276772724687 -0.720639691158629 -2.01129119479245 12.1055595153809
7.74314703821389 21.8860288267275 0.720639691158629 -1.85657648750073 20.9149537670428
-8.21279737711247 22.0492472529898 -0.730378065363475 -3.09429414583454 13.3736998289002
-8.21576444935088 22.0572130783229 -0.365189032681736 -2.93957943854282 28.3682413526731
-7.07282148263365 22.2851143851596 2.73891774511303 -2.93957943854282 28.3682413526731
-7.05143594478599 22.2177326255191 3.28670129413563 -2.78486473125109 8.39806601372977
6.55736565665924 22.5489057737841 -1.64335064706782 -2.16600590208418 5.08044207958519
8.39530398549275 21.9804052777048 0.730378065363475 -2.16600590208418 5.08044207958519
7.2720725783178 22.2815773375618 -2.19113419609042 -2.01129119479245 7.60224571108381
7.85132800333097 22.1918026560724 -0.182594516340868 -2.01129119479245 7.60224571108381
7.85132800333097 22.1918026560724 -0.182594516340868 -1.85657648750073 17.5067293969595
8.3990950733308 21.9903310227723 0.182594516340868 -1.85657648750073 17.5067293969595
7.66873897999769 22.2555588336625 0.182594516340868 -1.701861780209 8.03571070808699
-9.06642638471192 22.0641934792728 -0 -3.09429414583454 5.69130990005475
-8.32230134214064 22.343237216363 -0.740116439568321 -3.09429414583454 5.69130990005475
3.95889662278523 22.8592139946581 5.55087329676241 -3.09429414583454 5.69130990005475
-20.0266879726515 12.2413139408642 -4.25566952751784 -2.93957943854282 13.5463674666332
-9.05960526792288 22.0475935054582 0.925145549460401 -2.93957943854282 13.5463674666332
-8.32530797534223 22.3513092527006 -0.370058219784159 -2.93957943854282 13.5463674666332
-7.12877431723415 22.4614111179851 3.7005821978416 -2.93957943854282 13.5463674666332
3.75616241312321 22.7516419195364 6.10596062643864 -2.93957943854282 13.5463674666332
7.7674812526646 22.5421202180622 -0.740116439568321 -1.85657648750073 7.37169775189339
8.4987836609901 22.2513335501494 -1.29520376924456 -1.85657648750073 7.37169775189339
7.58619350557528 22.6158879855767 -0 -1.701861780209 5.54903594395601
8.32230134214064 22.343237216363 -0.740116439568321 -1.701861780209 5.54903594395601
7.40776818390054 22.6973476833054 3.74927406886583 -2.47543531666763 7.90889234622669
6.1846270841516 23.3567074185495 0.562391110329876 -2.32072060937591 9.13207062070728
7.59296238849805 22.6360673150199 3.74927406886583 -2.32072060937591 9.13207062070728
7.67163099760303 22.8705934248788 4.17776253387907 -2.32072060937591 5.27388466449227
-10.5779907517746 22.425606024621 -0.192332890545714 -2.01129119479245 12.4643380333095
-10.3859760894686 22.5159984572285 -0 -1.85657648750073 10.2824964772484
-11.490935868441 22.3253935408787 0.194767484096926 -2.16600590208418 6.6616764396531
-10.710922541376 22.7074247567132 -0.389534968193852 -2.16600590208418 6.6616764396531
-11.2951546799965 22.4225440466531 0.389534968193852 -2.01129119479245 20.4465745592723
-10.710922541376 22.7074247567132 -0.389534968193852 -2.01129119479245 20.4465745592723
-10.5171277439968 22.8003251710186 0.194767484096926 -1.85657648750073 13.2883316801659
-10.5060478377217 22.7763047852167 1.16860490458156 -1.701861780209 5.26907542426691
9.85634817180291 22.8832676758425 3.11627974555082 -1.701861780209 5.26907542426691
20.0493341265845 13.0701475974414 -7.59593187978013 -1.701861780209 5.26907542426691
5.04197032096701 24.4871134242285 2.33720980916312 2.63015002395936 12.7384972271712
7.63062423194459 23.3801769890032 5.06395458652009 2.63015002395936 12.7384972271712
5.04197032096701 24.4871134242285 2.33720980916312 2.78486473125109 12.7549390650571
-6.89874979677448 24.4570819081223 0.788808310592553 -3.24900885312627 7.06317124079161
-7.09735245076193 24.4057659790625 0.591606232944415 -3.09429414583454 5.57493950605242
-11.6317720720821 22.5990199632248 0.591606232944415 -2.16600590208418 11.7243653579336
-11.4346233928942 22.6994099636483 0.591606232944415 -2.01129119479245 13.273987719233
-11.4346233928942 22.6994099636483 0.591606232944415 -1.85657648750073 5.51186233405772
-10.6476307263587 23.0832456133739 0.394404155296275 -1.85657648750073 5.51186233405772
15.3775969766509 20.2371770773198 0.591606232944415 2.47543531666763 8.14405241916092
15.7286357401774 19.8767445669531 1.97202077648138 2.63015002395936 56.5039174869156
15.7076767691664 19.8502580922166 2.36642493177766 2.78486473125109 59.9384411889264
15.7076767691664 19.8502580922166 2.36642493177766 2.93957943854282 7.81391614435109
-11.7771461943584 22.8814629711431 0.399273342398698 -2.16600590208418 9.66469769932834
-11.7728929512504 22.8731994730871 0.798546684797399 -2.01129119479245 6.69280868803771
15.8895305573899 20.0800721305579 2.59527672559154 2.63015002395936 60.3042282631233
15.87648665494 20.0635881632619 2.7949133967909 2.78486473125109 70.3588167588881
15.87648665494 20.0635881632619 2.7949133967909 2.93957943854282 6.77550049363818
16.0701023458539 20.3082660676919 2.82899770650786 2.63015002395936 8.53682918468248
17.124309436258 19.5282317385193 2.02071264750561 2.63015002395936 8.53682918468248
16.055909280235 20.2903298687368 3.03106897125842 2.78486473125109 10.4012193669411
-11.7631542959018 30.0459739085575 2.00610508619834 -2.93957943854282 6.64203901828201
-11.8486302542725 30.2643004177922 3.03837275191205 -2.93957943854282 16.720634095728
-12.0816191130275 30.1167515778429 3.54476821056406 -2.78486473125109 13.3068810070486
-12.2404158924306 30.5125961340983 2.30069090589494 -2.93957943854282 10.8075538200741
-12.252251044448 30.5420984987945 1.78942626014051 -2.78486473125109 15.7587997523825
-12.6391909856955 30.7589278836599 1.03226766571371 -2.78486473125109 5.08629055215231
-14.3874488444355 33.4030248669153 1.69447711164326 -2.63015002395936 17.5666240561041
-14.6783981566644 33.3001579942838 1.12965140776217 -2.47543531666763 13.8097181075745
-14.5232860335036 33.7183950936563 0.854542336475267 -2.63015002395936 16.4856283736456
-14.5202257627348 33.7112901300388 1.13938978196702 -2.47543531666763 11.7694869874891
7.59385409438491 38.4172555773931 5.52165817414786 -3.09429414583454 12.4475950587401
9.49119617430128 38.3136475585805 2.45407029962128 -3.09429414583454 12.4475950587401
7.59385409438491 38.4172555773931 5.52165817414786 -2.93957943854282 7.72166333236453
7.66233755809255 38.7637129487596 5.2562874770658 -3.09429414583454 12.1111347827603
9.56161058898793 38.5978934026031 2.78274042903484 -3.09429414583454 12.1111347827603
7.65412277767368 38.7221544311819 5.56548085806967 -2.93957943854282 7.37530203144163
9.2579256078054 38.6928649095807 2.47354704803097 -2.93957943854282 7.37530203144163
8.26163110522447 45.566050159611 6.52957990434946 -3.09429414583454 5.26253944768011
10.4996053940491 45.4806702440121 2.90203551304421 -3.09429414583454 5.26253944768011
8.18498022588818 45.1432912917638 9.06886097826314 -2.93957943854282 6.6203195715538
10.1200848348651 45.4842421897215 3.99029883043578 -2.93957943854282 6.6203195715538
10.1880048673138 45.7895055601223 4.01707935949911 -2.93957943854282 5.78524138594508
8.59734996785624 49.6422820366368 3.91969561745065 -3.09429414583454 7.2205656630743
10.9738270037552 49.3213459503141 0.783939123490126 -3.09429414583454 7.2205656630743
8.33515549384352 50.4872932216745 5.58982679358179 -3.403723560418 6.45885079220385
10.3782959019372 50.4038089720848 1.1978200271961 -3.403723560418 6.45885079220385
8.34200354262969 50.5287728854096 5.19055345118309 -3.24900885312627 7.43482304286239
8.34833931990883 50.5671496434095 4.79128010878439 -3.09429414583454 8.05548735919932
10.7790829575484 50.3275416777596 0.798546684797396 -3.09429414583454 8.05548735919932
8.39924382795705 50.875485921723 4.82049523139893 -3.24900885312627 7.13803067099736
10.8448090731432 50.6344169318922 0.803415871899819 -3.24900885312627 7.13803067099736
8.39924382795705 50.875485921723 4.82049523139893 -3.09429414583454 13.7696911945773
10.8448090731432 50.6344169318922 0.803415871899819 -3.09429414583454 13.7696911945773
-28.977596701174 48.6239366428758 4.84727576046226 -3.403723560418 25.5881471283882
-24.9471108500278 50.6106214705606 6.60992149153944 -3.403723560418 25.5881471283882
-15.3445390367477 54.3986460038866 5.72859862600084 -3.403723560418 25.5881471283882
-11.25692106629 54.670988802045 10.5758743864631 -3.403723560418 25.5881471283882
-28.8588076618524 48.4246105641327 7.05058292430874 -3.24900885312627 5.80742108797504
-24.9235157079634 50.5627536108013 7.05058292430874 -3.24900885312627 5.80742108797504
-15.3184013991399 54.3059842372346 6.60992149153944 -3.24900885312627 5.80742108797504
-11.2397189795827 54.5874441912042 11.0165358192324 -3.24900885312627 5.80742108797504
8.36164673058023 56.1173184386177 6.64644039480762 -3.55843826770973 8.39647431346238
10.6227817025852 56.0654458327205 2.65857615792304 -3.55843826770973 8.39647431346238
8.36164673058023 56.1173184386177 6.64644039480762 -3.403723560418 131.601369849273
10.6227817025852 56.0654458327205 2.65857615792304 -3.403723560418 131.601369849273
8.35373822992512 56.0642423085282 7.08953642112812 -3.24900885312627 30.5134392345082
8.40758984448452 56.4256553531156 6.68295929807579 -3.403723560418 131.295164750032
11.1168004345695 56.239816855781 3.56424495897376 -3.403723560418 131.295164750032
8.39963789052911 56.3722875959377 7.12848991794751 -3.24900885312627 34.6310440102984
11.111091807117 56.2109369488048 4.00977557884547 -3.24900885312627 34.6310440102984
8.43701798522569 56.6231557257382 7.61540862818982 -3.403723560418 25.6515870085774
11.1653895686445 56.4856289505148 4.47965213422931 -3.403723560418 25.6515870085774
8.86147359374668 56.4304073938518 8.51133905503569 -3.24900885312627 7.35249854744657
11.1582910451532 56.4497175690481 4.92761734765224 -3.24900885312627 7.35249854744657
0.072771463337956 3.12643405907661 -0.267805290633274 0 5.55173495943938
-6.53452956834422 6.70214926246329 1.02252929150886 -0.20764342294416 10.3034614134471
-6.53452956834422 6.70214926246329 1.02252929150886 -0.10382171147208 9.07773538585179
5.66046195954333 7.29996864600685 1.82594516340869 -0.10382171147208 9.07773538585179
-6.80071822230471 6.8248536617324 1.35850320157606 -0.10382171147208 18.8460935858702
-7.14845366635746 6.70981077005123 -2.18139582188558 -0.20764342294416 9.10917977709075
-6.69331196924964 8.63197524560463 -2.89229713883936 -1.14203882619288 5.15849124225946
7.28253752873376 8.47897306155906 -3.152798648819 -0.41528684588832 5.09001380324931
-6.33859047555453 11.3169582075856 -2.35181737047039 -2.0764342294416 5.96935975174689
-12.6189026553136 16.2738649935621 -2.2495644413195 0.5191085573604 13.4348043241873
-7.75799082121582 18.8799647431502 -3.53502983635921 0.5191085573604 13.4348043241873
0.793689448275058 20.4494095336952 -3.21366348759929 0.5191085573604 13.4348043241873
-12.6292701716815 16.2872353765739 -2.08888126693953 0.62293026883248 25.2844992432252
-7.77815659309556 18.9290404730501 -3.21366348759929 0.62293026883248 25.2844992432252
0.794643012482719 20.4739781165855 -3.05298031321932 0.62293026883248 25.2844992432252
-12.6292701716815 16.2872353765739 -2.08888126693953 0.726751980304561 8.42797182458044
-7.66718136019055 19.1125538859388 -2.2495644413195 0.726751980304561 8.42797182458044
0.806683058126397 20.7841899062308 -3.09923759069234 0.5191085573604 76.4424692899886
0.807600356069507 20.8078240887739 -2.93611982276116 0.62293026883248 140.559154519326
0.807600356069507 20.8078240887739 -2.93611982276116 0.726751980304561 42.1869117988422
0.655723274181809 21.1241141361676 -2.97994250668297 0.5191085573604 145.999210572419
0.656427028598795 21.1467855727531 -2.81439014520059 0.62293026883248 363.045777925011
0.656427028598795 21.1467855727531 -2.81439014520059 0.726751980304561 56.6611130231636
0.667384180925433 21.4997700487794 -2.51980432550399 0.5191085573604 52.3965428533915
0.667384180925433 21.4997700487794 -2.51980432550399 0.62293026883248 109.200301569781
0.667974133652966 21.5187753658728 -2.35181737047039 0.726751980304561 16.8819685970098
-15.6556541123502 15.3689954645168 1.19295084009367 -2.80318620974616 5.61557865551727
0.680372485612996 21.9181880636009 -1.36337238867849 0.62293026883248 7.95776751502023
-8.05596284357631 20.5768999808776 4.73284986355531 -2.90700792121824 5.62654167417741
-7.01141849599789 21.4829351305412 -0.175290735687233 -2.90700792121824 5.62654167417741
-2.80330150472106 22.413323921106 0.701162942748936 -2.38789936385784 12.6994750946891
-9.96324019112018 20.6602774720448 -5.29524097388518 -2.38789936385784 9.00355431245111
-9.89539645563243 20.9784889757268 -4.01707935949911 -2.28407765238576 5.20306814668674
-10.1805048997302 21.1108085320875 -4.44069863740992 -2.38789936385784 21.2666998810306
-7.3690335460287 22.578665035396 2.22034931870496 -2.38789936385784 21.2666998810306
-10.1805048997302 21.1108085320875 -4.44069863740992 -2.28407765238576 7.65953937810841
