VERSION .7
FIELDS x y z velocity intensity
SIZE 4 4 4 4 4
TYPE F F F F F
COUNT 1 1 1 1 1
WIDTH 794
HEIGHT 1
VIEWPOINT 0 0 0 1 0 0 0
POINTS 794
DATA ascii
7.606800 1.476020 10.347200 -10.922400 3.910000
7.260700 1.360940 11.129400 -11.277600 3.230000
-6.992040 1.525220 11.279100 -11.011200 3.430000
7.494920 1.404840 11.488400 -11.277600 3.900000
-6.997590 1.537710 12.779200 -11.366400 3.540000
7.762840 0.083957 13.430000 -11.721600 6.460000
7.978470 0.086289 13.803100 -11.721600 5.730000
8.194110 0.088621 14.176100 -11.632800 12.510000
8.409740 0.090953 14.549200 -11.632800 16.900000
7.352490 1.756050 15.489900 -12.076800 6.900000
8.625480 0.039980 14.922400 -11.632800 5.830000
6.856700 1.799950 16.182300 -12.254400 11.550000
-0.694785 1.523420 18.020200 1.598400 7.190000
7.720120 1.843850 16.264400 -12.165600 14.550000
-0.711328 1.559690 18.449200 1.598400 9.490000
7.941840 0.544311 16.731500 -12.165600 7.460000
-1.567750 -4.086900 18.447400 1.598400 9.770000
8.258250 0.556969 17.057500 -12.076800 7.550000
-1.713280 -4.135860 18.866700 1.598400 7.160000
8.619150 6.115610 16.257300 -12.076800 6.480000
-1.029700 0.888583 19.774700 1.598400 7.990000
8.938510 6.251520 16.550200 -12.076800 8.170000
-1.052090 0.907900 20.204600 1.598400 4.920000
7.797310 -3.273900 18.402200 -12.343200 9.970000
-0.910652 2.298070 20.535000 1.598400 8.070000
7.818120 -3.343550 18.854500 -12.343200 8.830000
0.000000 2.345950 20.983400 1.598400 9.180000
7.904910 1.891160 19.486900 -12.343200 5.050000
-0.948596 2.393830 21.390600 1.598400 7.650000
7.958910 1.680770 19.950400 -12.343200 5.500000
-1.936420 2.393830 21.323900 1.598400 7.020000
8.121860 1.578830 20.358900 -12.432000 5.250000
7.984890 1.834420 21.317500 -12.520800 4.850000
8.302710 1.869030 21.656400 -12.520800 5.410000
9.058060 1.556420 21.844800 -12.343200 7.820000
8.352890 -3.900810 22.300000 -12.609600 8.300000
8.920070 1.659180 22.359700 -12.432000 8.020000
8.615230 -0.132932 23.000400 -12.520800 6.910000
8.585550 -0.212556 23.470300 -12.520800 6.470000
18.423800 1.563950 18.681900 -9.768000 5.220000
-15.327900 1.807320 21.276400 -12.609600 9.530000
18.722300 1.672050 18.984500 -9.768000 8.000000
19.024300 1.699020 19.290700 -9.768000 8.980000
18.248100 1.555710 20.618200 -10.212000 5.610000
18.533200 1.580020 20.940400 -10.212000 6.340000
-6.884400 1.169060 27.124100 -12.698400 10.640000
18.818400 1.604330 21.262500 -10.212000 10.020000
-6.993390 0.835454 27.553500 -12.698400 3.730000
18.936600 1.628640 21.731300 -10.212000 10.430000
-6.937550 0.848113 28.011500 -12.698400 9.020000
18.471000 0.339819 22.743500 -10.567200 11.380000
-7.034960 1.494590 28.404900 -12.698400 3.640000
18.742600 0.344817 23.078000 -10.567200 12.120000
-6.749020 1.516570 28.916200 -12.787200 8.240000
15.494300 0.349814 25.876800 -10.656000 10.320000
16.479800 0.349814 25.260700 -10.478400 9.690000
-7.016290 1.538550 29.295200 -12.787200 7.360000
15.715700 0.354811 26.246500 -10.656000 7.530000
-7.115670 1.631390 29.710100 -12.787200 7.520000
18.745600 1.199090 24.692100 -10.833600 6.530000
19.006000 1.215740 25.035100 -10.833600 9.410000
-10.614600 1.968710 29.545200 -12.876000 7.600000
-10.930700 2.094090 29.881300 -12.876000 6.120000
-5.433170 2.795080 31.734700 -12.964800 8.640000
-10.911200 1.723300 30.371000 -12.698400 6.690000
18.915200 1.569270 26.687300 -11.100000 5.210000
-5.707070 1.468090 32.213800 -12.964800 6.130000
19.158800 1.769260 27.031000 -11.100000 5.290000
-6.225410 0.974697 32.575500 -12.964800 4.570000
18.559500 1.610560 27.974900 -11.277600 5.420000
-5.413920 0.987355 33.156600 -12.964800 4.240000
18.797400 1.631210 28.333600 -11.277600 8.040000
-5.741990 1.000010 33.538400 -12.876000 5.720000
19.032500 1.758340 28.687800 -11.277600 6.850000
-13.842900 2.370250 31.481300 -13.053600 6.230000
19.270400 1.780320 29.046400 -11.277600 4.660000
-14.016000 2.399880 31.874800 -13.053600 7.550000
19.505900 1.884150 29.401500 -11.277600 13.150000
-14.200000 1.993260 32.293400 -13.053600 7.250000
19.058400 1.603310 30.221200 -11.455200 15.810000
19.051700 1.622630 30.733000 -11.455200 6.230000
-10.214000 2.405370 35.091100 -12.609600 14.130000
-10.334200 2.433670 35.504000 -12.609600 7.780000
-10.168200 2.924530 35.964300 -12.609600 8.120000
-20.129100 -1.726620 36.097300 -11.366400 9.530000
-20.338800 -1.744600 36.473300 -11.366400 6.790000
-20.831900 -1.762590 36.689900 -11.366400 7.640000
-22.114000 -1.931700 36.932200 -11.100000 6.340000
10.703600 1.043040 42.171300 -12.876000 6.550000
10.699000 -1.016410 47.490800 -13.053600 7.490000
11.260600 -1.034400 48.246000 -12.964800 8.830000
10.983100 -1.043390 48.751700 -12.964800 7.100000
-16.128800 -4.991130 49.329700 -12.254400 6.880000
-19.748500 1.869320 48.683500 -12.076800 5.670000
-19.910400 1.884640 49.082600 -12.076800 7.670000
-17.627800 -4.003540 50.280900 -12.343200 6.150000
-17.770000 -4.035820 50.686400 -12.343200 6.560000
-18.354100 -0.965457 51.087900 -12.254400 9.090000
-19.192600 -0.973120 51.239100 -12.165600 6.720000
-16.111100 -2.472580 52.691700 -12.520800 8.660000
-16.543600 -2.491890 53.008600 -12.520800 7.530000
-17.089500 -1.991900 53.309300 -12.432000 8.260000
20.509700 1.373500 53.496400 -12.520800 6.190000
20.663900 1.383830 53.898700 -12.520800 6.530000
-30.092300 1.721540 50.256700 -11.188800 9.730000
-28.741100 1.551700 51.541000 -11.366400 9.920000
-29.158200 1.759520 52.288900 -11.366400 6.260000
-29.367900 1.772180 52.665100 -11.366400 8.270000
20.720000 1.259270 56.642100 -12.609600 5.600000
-29.577700 1.784830 53.041300 -11.366400 7.340000
13.102400 0.141928 59.768300 -13.053600 9.780000
-16.483800 -2.112550 62.907800 -12.698400 5.170000
-16.593000 -2.126540 63.324400 -12.698400 6.040000
-16.702200 -2.140530 63.741000 -12.698400 6.440000
23.728400 -0.784583 63.348600 -12.520800 5.810000
19.763900 -2.823740 64.638300 -12.787200 5.800000
20.499600 -4.314980 65.684300 -12.698400 6.690000
20.627700 -4.341950 66.094800 -12.698400 7.750000
23.049500 -4.368920 65.745600 -12.609600 8.150000
-15.108700 0.468759 85.281600 -12.964800 5.440000
-17.699300 6.877040 89.796000 -12.876000 4.740000
-17.782400 6.909330 90.217600 -12.876000 5.710000
-17.865500 6.941620 90.639200 -12.876000 5.860000
-62.370800 -12.622200 115.483000 -11.366400 8.160000
-10.251900 0.720629 132.751000 -13.142400 8.190000
-9.545560 1.139740 133.665000 -13.142400 6.370000
-9.576460 0.727626 134.097000 -13.142400 8.530000
-9.606950 1.147070 134.524000 -13.142400 10.470000
-9.637640 1.150730 134.954000 -13.142400 7.880000
-9.668330 1.154400 135.384000 -13.142400 5.460000
-10.483200 2.000240 135.746000 -13.142400 4.330000
-11.566100 1.584160 136.096000 -13.142400 9.770000
-8.706470 1.589150 136.740000 -13.142400 10.930000
-8.871020 1.187380 139.324000 -13.142400 7.240000
19.196500 3.287150 183.827000 -13.231200 5.600000
19.241200 3.294810 184.256000 -13.231200 6.100000
7.414070 -0.377698 5.174120 -7.548000 7.680000
7.639720 -0.395683 5.598640 -7.725600 5.670000
7.045280 1.133370 6.240680 -8.702400 3.210000
7.365520 1.184890 6.524350 -8.791200 3.830000
7.141370 1.204640 7.382300 -9.412800 5.150000
-8.383890 1.361220 11.404300 -10.212000 6.290000
8.296920 0.194896 14.612800 -11.366400 10.310000
8.509660 0.199894 14.987500 -11.366400 16.410000
8.603740 0.204891 15.429000 -11.366400 18.140000
8.813230 0.265855 15.804600 -11.366400 15.630000
8.280330 1.216840 16.530800 -11.632800 8.570000
8.243980 1.245140 17.028000 -11.721600 8.110000
5.912540 -0.929171 18.443700 -12.076800 6.520000
18.034200 1.471520 13.216100 -7.903200 9.220000
18.381100 1.499820 13.470300 -7.903200 11.020000
8.413030 0.713511 20.289200 -11.899200 4.020000
18.568000 1.528120 13.940000 -7.992000 9.030000
8.404630 -2.660260 21.067600 -12.076800 7.050000
6.488920 1.528120 22.293200 -12.343200 6.990000
5.921010 1.733620 23.328400 -12.343200 5.500000
6.026740 1.764580 23.744900 -12.432000 4.840000
6.975570 1.274800 23.965100 -12.343200 6.480000
9.224810 1.355670 23.651600 -12.076800 8.620000
6.766390 1.296780 24.471800 -12.343200 8.220000
18.210200 1.507100 19.489800 -9.590400 8.570000
6.881080 1.318760 24.886600 -12.343200 8.400000
18.657100 1.516510 21.410600 -9.945600 6.390000
18.729500 1.539480 21.916400 -10.034400 10.580000
7.608010 1.580020 26.909100 -12.343200 7.510000
19.009100 1.562460 22.243500 -10.034400 8.640000
-5.583000 -0.156253 28.324900 -12.520800 6.820000
-6.659780 -0.158585 28.533900 -12.432000 8.530000
-6.224530 1.445380 29.478300 -12.520800 9.010000
-6.313450 1.466020 29.899500 -12.520800 8.700000
19.327900 1.249050 25.870700 -10.478400 8.580000
-10.911200 1.723300 30.371000 -12.076800 8.340000
18.747700 1.487410 27.334500 -10.744800 6.510000
-9.747950 1.366910 31.234100 -12.165600 8.140000
18.988500 1.610560 27.685500 -10.744800 6.250000
-10.544700 1.384890 31.428600 -12.254400 6.040000
19.231900 1.631210 28.040500 -10.744800 7.910000
-5.409200 1.714380 33.127700 -12.609600 7.320000
-10.681600 1.402880 31.836800 -12.254400 8.040000
19.475400 1.651860 28.395400 -10.744800 9.470000
-5.480910 1.420860 33.566900 -12.609600 6.350000
-5.352220 1.651860 34.013900 -12.609600 13.470000
19.060700 1.133220 29.216700 -11.011200 7.780000
-5.419900 1.564680 34.444000 -12.609600 12.770000
19.296000 1.147210 29.577400 -11.011200 5.450000
19.067500 1.161200 30.235600 -11.011200 7.050000
-10.206900 1.956150 36.915100 -12.254400 6.750000
-10.537200 1.978130 37.269600 -12.254400 6.360000
-20.886900 -0.214556 33.693400 -10.833600 5.230000
-5.043750 -1.636690 38.851700 -12.609600 5.820000
-9.634010 2.000110 37.957300 -12.432000 6.630000
19.287800 1.777170 34.588600 -11.366400 10.810000
10.039700 -1.654680 38.314700 -12.520800 9.740000
19.497500 1.796480 34.964600 -11.366400 6.270000
10.131400 -2.879050 38.664800 -12.520800 6.710000
19.709800 1.690650 35.345300 -11.366400 7.480000
19.919500 1.708630 35.721300 -11.366400 9.120000
10.707100 -1.726620 39.919400 -12.520800 15.660000
19.845000 1.744600 36.744300 -11.544000 9.410000
10.579500 -2.228810 40.374800 -12.520800 10.170000
20.049600 1.762590 37.123100 -11.544000 16.010000
10.137400 -2.251780 40.931400 -12.520800 11.740000
11.035600 -2.274760 41.144100 -12.432000 7.110000
10.698600 1.682060 42.151900 -12.609600 10.700000
10.560600 1.427020 42.640300 -12.609600 5.190000
10.081400 1.578200 43.193700 -12.609600 6.470000
19.807000 1.125650 42.572500 -11.810400 7.090000
12.488200 -2.312600 46.559700 -12.520800 7.630000
9.874450 6.380640 48.138700 -12.609600 14.410000
10.326100 -0.579692 48.902700 -12.609600 10.150000
10.415100 -0.584689 49.324300 -12.609600 7.000000
-13.994700 -5.268160 49.498600 -12.254400 6.290000
-14.111400 -5.312060 49.911100 -12.254400 6.560000
-19.435700 -0.125936 50.695300 -11.810400 5.030000
-19.195600 -0.126935 51.247100 -11.810400 8.670000
20.354300 1.495070 53.091100 -12.076800 12.650000
20.506700 1.683570 53.488700 -12.076800 5.380000
20.098100 1.196300 53.656600 -12.165600 12.730000
20.249200 1.205300 54.060100 -12.165600 6.140000
20.400400 1.214290 54.463500 -12.165600 10.740000
21.594500 -0.513066 56.326200 -12.165600 6.730000
21.310900 -0.516731 56.894500 -12.165600 7.020000
21.462800 -0.141928 57.299900 -12.165600 10.890000
21.613700 -0.333495 57.702700 -12.165600 9.340000
-16.876700 -1.487100 59.691900 -12.254400 5.550000
15.930200 2.401170 89.919000 -12.698400 6.970000
16.005400 2.412490 90.343200 -12.698400 6.180000
16.080500 2.423820 90.767300 -12.698400 5.360000
-17.869600 6.655870 90.659800 -12.520800 6.420000
-17.952700 6.686830 91.081500 -12.520800 6.960000
18.082500 0.000000 91.740200 -12.698400 6.160000
-18.035800 6.717780 91.503100 -12.520800 6.300000
18.165200 0.798917 92.159600 -12.698400 8.740000
18.248500 0.802581 92.582400 -12.698400 6.680000
18.331900 0.806246 93.005100 -12.698400 5.780000
-16.760800 6.536960 97.898600 -12.520800 8.220000
-16.829900 6.873730 98.301900 -12.520800 7.700000
-16.902400 6.903360 98.725600 -12.520800 5.370000
-16.210300 6.932990 99.277200 -12.609600 6.770000
28.195800 1.329290 111.089000 -12.520800 5.830000
28.302600 0.978490 111.510000 -12.520800 4.780000
28.407800 1.339290 111.925000 -12.520800 5.700000
18.811400 3.931310 119.548000 -12.698400 7.940000
18.878300 3.945300 119.974000 -12.698400 6.140000
18.016800 3.959290 120.541000 -12.698400 6.290000
-61.898800 -12.296100 116.753000 -11.100000 8.130000
-62.099800 -12.336000 117.132000 -11.100000 9.390000
-63.370800 -13.240900 117.335000 -10.922400 7.200000
-10.583100 1.594150 137.040000 -12.698400 8.540000
-8.788880 1.176390 138.034000 -12.787200 7.430000
-8.925780 1.194710 140.184000 -12.787200 5.510000
-8.952880 1.634130 140.610000 -12.787200 8.750000
-8.980260 1.639130 141.040000 -12.787200 11.990000
-9.007640 1.644130 141.470000 -12.787200 10.670000
25.483800 0.855893 156.071000 -12.698400 4.560000
25.552700 1.348630 156.493000 -12.698400 6.260000
19.284800 3.876740 184.673000 -12.787200 5.460000
19.329600 3.885740 185.102000 -12.787200 9.110000
19.374300 3.894730 185.530000 -12.787200 11.820000
7.724580 1.266350 9.181300 -10.123200 2.210000
-7.941410 1.235050 11.204400 -10.389600 4.320000
-8.042710 3.588910 11.164000 -10.478400 6.340000
-6.635070 0.714730 14.479400 -11.632800 6.290000
-7.349650 0.813233 14.124800 -11.366400 7.520000
-7.548290 0.835212 14.506600 -11.366400 5.800000
8.183720 0.246865 14.675700 -11.455200 11.660000
8.277290 0.253195 15.116300 -11.544000 16.750000
8.484230 0.259525 15.494200 -11.544000 17.360000
9.284360 -1.269260 14.976900 -11.011200 7.470000
8.690200 0.377780 15.870300 -11.544000 13.700000
7.093340 -0.601588 17.106600 -12.076800 9.080000
6.963440 0.386775 17.166100 -11.810400 7.420000
7.258300 -0.615578 17.504400 -12.076800 6.890000
7.561020 -0.629569 17.844500 -11.988000 5.300000
9.312940 -0.044977 17.007600 -11.455200 7.460000
7.732280 -0.291175 18.248700 -11.988000 5.460000
9.653600 -0.045976 17.311700 -11.455200 8.130000
8.008020 -0.297504 18.599400 -11.988000 7.220000
8.846220 1.485960 18.636800 -11.810400 5.090000
9.174800 1.582040 18.950600 -11.899200 8.270000
8.401540 -2.730390 21.059900 -12.076800 10.440000
8.103380 -2.781910 21.633900 -12.165600 7.910000
6.095600 -2.833430 22.726200 -12.343200 4.950000
8.438420 1.882460 22.528300 -12.165600 5.780000
8.765580 1.916070 22.863700 -12.165600 6.860000
9.232340 1.949690 23.142400 -12.076800 8.490000
8.386820 2.016920 24.372600 -12.343200 8.500000
18.400200 1.424600 19.316700 -9.679200 6.780000
8.528630 1.969480 24.784700 -12.343200 9.630000
18.697000 1.447580 19.628300 -9.679200 6.960000
18.993800 1.470550 19.939900 -9.679200 9.940000
19.094600 1.493530 20.436300 -9.768000 12.640000
19.009100 1.562460 22.243500 -10.034400 13.470000
19.288600 1.585440 22.570600 -10.034400 12.580000
9.089780 1.743410 27.801000 -12.343200 9.320000
18.622700 1.701560 23.666600 -10.389600 6.410000
18.888700 1.725870 24.004700 -10.389600 6.790000
19.158000 1.654370 24.346900 -10.389600 5.580000
-5.519320 8.451610 28.880700 -12.609600 8.420000
-8.019990 2.037490 29.900900 -12.432000 6.090000
18.868000 1.429460 25.665400 -10.656000 10.710000
-6.487250 1.871610 30.722500 -12.520800 11.600000
19.123000 1.448780 26.012200 -10.656000 8.970000
-6.395980 1.897250 31.180900 -12.520800 14.500000
19.377900 1.468090 26.359000 -10.656000 6.740000
-10.402000 1.746280 31.003300 -12.254400 7.690000
-11.470800 1.746280 30.624000 -12.076800 5.160000
18.991200 1.506730 27.689500 -10.922400 6.890000
-10.546000 1.282360 31.432500 -12.254400 7.050000
19.234700 1.526040 28.044500 -10.922400 10.880000
-10.681600 1.402880 31.836800 -12.254400 10.610000
19.478200 1.545360 28.399500 -10.922400 13.730000
-5.733200 2.130520 33.487100 -12.609600 9.920000
19.718800 1.672510 28.750400 -10.922400 12.170000
-5.540780 2.476600 33.933500 -12.609600 6.280000
-5.610040 2.507560 34.357700 -12.609600 5.940000
19.051600 1.564680 29.202800 -11.100000 8.630000
-5.479340 2.429510 34.821700 -12.698400 8.670000
19.286800 1.584000 29.563300 -11.100000 7.210000
-5.070270 2.459140 35.318000 -12.698400 6.800000
-21.882500 -2.179270 29.290100 -10.123200 6.050000
-10.089300 2.139110 36.489700 -12.343200 6.160000
-9.923630 1.837690 36.998300 -12.343200 8.850000
-10.035100 1.858340 37.414000 -12.343200 10.020000
-10.145100 2.000110 37.823900 -12.343200 12.140000
-9.221420 2.022090 38.502300 -12.432000 7.980000
19.290400 1.654680 34.593300 -11.455200 12.460000
19.500100 1.672660 34.969300 -11.455200 9.690000
9.423320 -1.940930 39.345300 -12.609600 6.070000
19.707100 1.815800 35.340500 -11.455200 7.270000
10.059000 -1.961580 39.631800 -12.520800 9.960000
19.916800 1.835120 35.716500 -11.455200 8.700000
7.753860 -2.205830 40.573300 -12.609600 6.900000
19.357000 1.854430 36.510900 -11.632800 5.710000
-19.485300 -1.109970 37.447500 -11.277600 14.380000
11.050600 -0.494737 41.200000 -12.520800 9.510000
-20.958800 -2.197930 37.585200 -11.100000 9.030000
-21.983400 -1.427020 38.032300 -11.011200 11.100000
-22.199000 -1.441010 38.405100 -11.011200 7.960000
-18.705800 -1.852520 40.205500 -11.544000 6.740000
22.704900 -1.870500 38.590800 -11.277600 8.100000
22.641600 0.244874 39.170900 -11.366400 6.210000
-19.267100 0.247206 41.412100 -11.544000 8.130000
19.808400 0.980429 42.575400 -11.899200 4.890000
19.990100 0.989424 42.966000 -11.899200 8.390000
19.919500 1.146310 43.469500 -11.899200 5.890000
20.097800 1.268540 43.858600 -11.899200 6.190000
-14.007400 -4.790680 49.543500 -12.254400 7.310000
-14.715400 -6.051680 50.556000 -12.254400 14.020000
-18.966500 1.393130 49.471300 -11.899200 13.210000
11.726400 2.849200 52.051000 -12.698400 7.780000
-19.121800 1.280560 49.876400 -11.899200 5.630000
11.821000 2.872170 52.470800 -12.698400 7.370000
-19.567700 1.124350 50.169800 -11.899200 8.650000
-16.870900 0.797565 51.599500 -12.165600 9.070000
-19.726400 0.797565 50.576700 -11.810400 7.410000
-17.003900 0.973120 52.006400 -12.165600 10.070000
11.922900 1.874720 56.465100 -12.698400 6.310000
-16.738900 -0.324167 57.507600 -12.343200 14.370000
-28.961200 1.772180 52.889900 -11.100000 10.250000
-16.412000 0.513066 58.048300 -12.343200 9.950000
-28.863800 1.456120 53.443100 -11.188800 6.340000
20.871800 0.516731 57.057000 -12.254400 9.740000
-29.068500 1.466450 53.822100 -11.188800 6.000000
21.020500 0.141928 57.463600 -12.254400 7.220000
-29.275200 1.286250 54.204900 -11.188800 7.070000
21.168500 0.142927 57.868300 -12.254400 4.960000
21.313300 1.103380 58.263900 -12.254400 7.440000
-14.470600 -3.362830 64.232000 -12.520800 12.340000
-15.067500 -2.974820 64.556800 -12.432000 12.860000
20.272300 -2.466890 66.301000 -12.432000 5.570000
-17.417800 7.260910 91.141300 -12.520800 5.880000
-17.502600 7.006190 91.585000 -12.520800 6.210000
-17.587200 6.748740 92.028000 -12.520800 10.660000
17.875400 0.220887 93.535900 -12.698400 5.550000
17.643200 2.323590 95.305300 -12.698400 6.830000
-16.833400 6.565260 98.322400 -12.609600 6.680000
-16.902400 6.903360 98.725600 -12.609600 5.420000
-16.967400 7.555060 99.105200 -12.609600 8.860000
28.302600 0.978490 111.510000 -12.609600 7.460000
28.407800 1.339290 111.925000 -12.609600 8.760000
-62.778500 -12.704700 116.238000 -11.100000 5.380000
-63.655300 -12.745900 116.250000 -11.011200 9.500000
-63.880000 -12.375900 116.660000 -11.011200 10.490000
-9.822130 0.319837 137.537000 -12.787200 7.340000
-9.852820 0.320836 137.967000 -12.787200 6.350000
-8.140190 1.198380 140.664000 -12.787200 4.370000
-8.164830 1.639130 141.090000 -12.787200 7.280000
-8.189720 1.644130 141.520000 -12.787200 7.580000
-8.214610 1.649120 141.950000 -12.787200 7.800000
19.284800 3.876740 184.673000 -12.876000 8.030000
19.329600 3.885740 185.102000 -12.876000 7.810000
7.023910 1.175900 8.648590 -10.212000 3.560000
7.224620 1.221120 9.037180 -10.300800 4.480000
7.326130 1.303450 9.497260 -10.389600 3.530000
-8.149540 0.829589 8.858090 -9.324000 6.370000
7.347830 1.436300 10.538200 -10.833600 3.860000
7.431390 1.360940 11.016200 -10.833600 4.260000
-7.703490 0.618144 11.419500 -10.567200 7.490000
-7.902240 0.656779 12.319200 -10.656000 4.190000
-7.197400 4.007950 13.144100 -11.277600 6.070000
8.184300 0.142925 14.676800 -11.455200 14.430000
8.277890 0.146590 15.117400 -11.544000 18.120000
8.484840 0.150255 15.495300 -11.544000 17.150000
9.255990 -1.102450 16.013200 -11.366400 9.860000
7.919600 -1.488300 16.684700 -11.899200 9.000000
8.109040 -1.362130 17.083700 -11.899200 7.550000
8.076520 -0.344806 17.625000 -11.899200 8.030000
6.117950 -2.308900 18.711700 -12.254400 6.650000
8.256000 -0.352469 18.016700 -11.899200 7.490000
6.250950 -2.359090 19.118500 -12.254400 7.750000
9.048710 1.392520 18.064800 -11.810400 7.010000
10.072100 -1.348430 18.997900 -11.899200 10.160000
8.556870 -1.375400 20.194800 -12.076800 7.550000
8.121900 -2.607640 21.184800 -12.165600 5.670000
8.275140 -2.656840 21.584500 -12.165600 8.280000
8.281920 2.049720 22.110500 -12.254400 6.640000
8.905290 2.161330 22.322600 -12.165600 7.140000
9.242400 1.564180 23.167700 -12.165600 10.620000
18.213300 1.424600 19.493100 -9.679200 8.480000
5.419820 1.645090 25.667400 -12.609600 6.740000
8.542840 1.259540 24.826000 -12.432000 6.300000
18.507000 1.447580 19.807500 -9.679200 8.370000
18.797600 1.555710 20.118500 -9.768000 8.590000
19.096900 1.428650 20.438800 -9.679200 9.610000
18.659400 1.450630 21.413200 -10.123200 8.210000
18.562300 1.472610 22.062800 -10.212000 5.890000
18.839300 1.494590 22.392100 -10.212000 7.230000
-6.548970 0.804164 29.873900 -12.520800 7.970000
-6.406360 1.007310 30.339400 -12.609600 8.690000
18.856900 1.798790 25.650300 -10.656000 4.900000
-6.317410 1.021300 30.797900 -12.609600 7.170000
19.111700 1.823100 25.996900 -10.656000 10.720000
19.366500 1.847410 26.343500 -10.656000 11.920000
-10.645100 1.468090 30.935200 -12.254400 7.690000
18.988500 1.610560 27.685500 -10.922400 13.930000
-10.544700 1.384890 31.428600 -12.254400 7.590000
19.015200 1.631210 28.187900 -10.922400 11.670000
-10.680200 1.506730 31.832500 -12.254400 5.280000
19.255900 1.651860 28.544700 -10.922400 6.950000
19.499400 1.564680 28.905600 -10.922400 8.580000
19.291800 1.365630 29.570900 -11.100000 5.510000
19.524600 1.492810 29.927800 -11.100000 5.430000
-4.704140 2.518390 36.235700 -12.698400 10.670000
-10.097900 1.465550 36.520600 -12.343200 8.030000
-9.636870 1.757850 37.968600 -12.432000 6.950000
-9.742770 1.777170 38.385800 -12.432000 8.770000
19.227400 1.796480 35.113800 -11.544000 10.500000
10.143200 -2.136900 38.709800 -12.609600 12.750000
19.436800 1.690650 35.496100 -11.544000 7.670000
8.661120 -2.159870 39.508800 -12.698400 8.200000
19.643600 1.708630 35.873800 -11.544000 13.450000
19.438300 1.582130 35.991200 -11.632800 15.950000
19.364200 1.470940 36.524500 -11.632800 8.250000
19.565900 1.486260 36.905000 -11.632800 11.390000
19.769700 1.371060 37.289400 -11.632800 12.660000
-19.371100 -2.274760 37.939200 -11.366400 11.870000
-19.267500 -2.430800 38.465600 -11.366400 11.650000
-21.442000 -2.858150 37.764300 -11.100000 12.520000
23.155000 -0.645648 37.352200 -11.277600 8.760000
23.382000 -0.651978 37.718400 -11.277600 6.680000
22.640400 0.524721 39.168900 -11.366400 5.390000
19.708900 1.189260 40.708800 -11.810400 8.830000
-21.081800 0.529718 40.515700 -11.277600 8.370000
19.896600 1.200580 41.096500 -11.810400 6.710000
-19.260800 -1.200580 41.398400 -11.544000 5.360000
-21.595200 0.534716 40.732700 -11.277600 8.170000
23.065200 -1.211910 39.903800 -11.455200 9.040000
-4.829830 1.798640 46.250900 -12.787200 8.530000
-16.901500 -2.722500 45.122400 -11.988000 5.920000
-17.385500 -3.498200 45.347400 -11.899200 9.370000
-17.539300 -3.529160 45.748700 -11.899200 7.630000
10.824700 13.689200 46.378700 -12.698400 7.620000
-13.908200 -4.000230 49.192500 -12.254400 6.570000
-13.738100 -4.033840 49.686100 -12.254400 10.440000
-15.865000 -4.188010 49.489700 -12.165600 6.460000
-16.006500 -3.776820 49.931100 -12.076800 7.700000
-19.124300 0.950133 49.882800 -11.988000 7.350000
-19.277300 1.124350 50.282100 -11.988000 9.290000
-17.662300 1.133340 51.327700 -12.076800 9.410000
12.169100 2.374100 55.511000 -12.698400 11.720000
12.261300 2.392090 55.931600 -12.698400 5.850000
11.918800 2.410070 56.445600 -12.698400 7.660000
-28.659100 1.445790 53.064000 -11.188800 6.680000
-17.071300 0.000000 57.410800 -12.343200 6.230000
-28.862100 1.597000 53.440000 -11.188800 7.090000
-16.859500 0.139929 57.922100 -12.343200 5.450000
-29.066800 1.608330 53.819000 -11.188800 6.530000
-17.316800 0.140928 58.236700 -12.343200 7.860000
-29.273200 1.476770 54.201100 -11.188800 5.460000
21.462800 0.141928 57.299900 -12.343200 5.600000
-29.477900 1.487100 54.580200 -11.188800 10.560000
21.613700 0.333495 57.702700 -12.343200 12.330000
34.761500 0.475755 80.737000 -12.076800 6.990000
34.931900 0.478087 81.132700 -12.076800 5.010000
35.102300 0.480420 81.528500 -12.076800 7.470000
-17.345200 6.655870 90.761600 -12.520800 8.000000
17.471000 -0.215890 91.419700 -12.787200 7.370000
-17.952700 6.686830 91.081500 -12.520800 6.660000
17.551900 -0.216889 91.842900 -12.787200 6.010000
-18.035800 6.717780 91.503100 -12.520800 6.040000
17.632800 0.217889 92.266200 -12.787200 7.060000
17.713600 0.218888 92.689400 -12.787200 7.070000
17.794500 0.219888 93.112700 -12.787200 9.740000
17.569700 0.223886 94.908800 -12.787200 8.260000
17.648000 0.524730 95.331300 -12.787200 8.790000
17.726400 0.527062 95.755000 -12.787200 9.450000
-17.397900 6.873730 98.203000 -12.609600 8.480000
-17.465100 7.522770 98.582400 -12.609600 8.990000
16.387600 -0.235880 100.363000 -12.787200 4.540000
-62.062900 -13.155800 117.062000 -11.188800 6.210000
-62.263700 -13.198400 117.441000 -11.100000 6.670000
-8.679360 1.161730 136.314000 -12.876000 6.560000
-8.734310 0.743951 137.177000 -12.876000 5.630000
-8.115290 1.194710 140.234000 -12.876000 5.660000
-8.139930 1.634130 140.660000 -12.876000 11.120000
-8.164830 1.639130 141.090000 -12.876000 11.840000
-8.189720 1.644130 141.520000 -12.876000 8.620000
-51.318100 -16.563900 131.575000 -11.810400 5.650000
-51.473600 -16.614000 131.974000 -11.810400 4.910000
19.286000 3.302480 184.684000 -12.876000 14.830000
17.903400 3.310140 185.256000 -12.876000 10.730000
-7.870940 1.360940 10.706500 -10.300800 5.760000
-7.039740 1.532050 11.757000 -11.011200 2.900000
-7.091110 1.627800 12.716400 -11.100000 4.260000
-8.099220 0.079293 12.208000 -10.567200 4.130000
-6.830150 5.021330 12.473500 -11.366400 5.990000
-7.025290 5.164800 12.829800 -11.366400 6.080000
-7.194450 5.459100 13.138800 -11.455200 7.830000
-7.656270 0.974261 14.441200 -11.366400 8.460000
7.179180 1.453440 15.124800 -11.810400 7.010000
8.145740 -4.178550 14.092500 -11.544000 6.470000
-7.971750 0.999899 14.760200 -11.277600 5.800000
7.153360 1.490710 15.610500 -11.899200 9.260000
8.277890 0.146590 15.117400 -11.544000 14.790000
8.484840 0.150255 15.495300 -11.544000 17.280000
9.127910 -4.392830 14.474200 -11.277600 7.720000
8.691970 0.097950 15.873600 -11.544000 15.170000
5.353760 -2.839650 17.509600 -12.432000 7.160000
7.715460 -0.544311 16.837100 -12.076800 8.820000
8.898920 0.100282 16.251500 -11.544000 8.340000
7.258990 -0.556969 17.506100 -12.076800 10.230000
8.370390 4.543670 16.393800 -11.810400 9.520000
7.938270 -0.569628 17.681900 -11.988000 11.030000
8.113900 -0.643559 18.073100 -12.076800 9.950000
7.568300 -2.187940 18.657200 -12.165600 8.380000
7.875950 -2.234490 18.994000 -12.165600 7.280000
9.007190 0.735470 18.604400 -11.899200 7.890000
9.197480 0.554987 18.997500 -11.899200 10.480000
8.239410 1.578830 20.311600 -12.254400 8.970000
8.399060 1.678900 20.705100 -12.254400 6.670000
8.562530 1.640750 21.108100 -12.254400 5.850000
6.127600 1.483270 22.845500 -12.432000 5.270000
6.104450 1.510240 23.296600 -12.520800 8.080000
8.908990 1.461390 22.841900 -12.254400 11.050000
9.066910 1.409870 23.246800 -12.254400 11.420000
7.088270 1.748060 24.352300 -12.520800 5.900000
9.223240 1.434170 23.647600 -12.254400 8.950000
8.160330 1.178340 24.958300 -12.520800 6.980000
18.213300 1.424600 19.493100 -9.856800 6.840000
18.507000 1.447580 19.807500 -9.856800 11.740000
18.800800 1.470550 20.121900 -9.856800 11.930000
19.094600 1.493530 20.436300 -9.856800 7.430000
18.450000 1.516510 21.589300 -10.212000 9.320000
18.726300 1.628640 21.912700 -10.212000 12.620000
19.005800 1.652950 22.239800 -10.212000 11.400000
19.281900 1.769050 22.562800 -10.212000 5.970000
-6.516100 2.227770 28.923600 -12.520800 11.410000
-6.636820 1.390830 30.274700 -12.609600 7.030000
-6.729000 1.410140 30.695200 -12.609600 7.890000
18.865300 1.527970 25.661700 -10.833600 8.640000
18.865300 1.527970 25.661700 -10.744800 5.330000
-6.821180 1.429460 31.115600 -12.609600 7.020000
18.868800 1.548620 26.191500 -10.833600 7.020000
-10.548300 1.077260 31.439400 -12.432000 8.350000
18.774500 1.610560 27.831100 -11.011200 5.330000
-10.685300 1.091250 31.847800 -12.432000 6.720000
19.015200 1.631210 28.187900 -11.011200 5.110000
19.255900 1.651860 28.544700 -11.011200 9.700000
18.823200 1.672510 29.344500 -11.188800 11.420000
19.055600 1.693160 29.706800 -11.188800 8.370000
-10.315100 1.993260 33.735800 -12.609600 10.770000
19.288000 1.713800 30.069100 -11.188800 5.630000
9.524110 1.382280 34.445500 -12.609600 10.320000
19.520400 1.734450 30.431400 -11.188800 10.530000
9.643290 0.867475 34.876600 -12.609600 8.150000
-5.203270 0.877802 36.244400 -12.787200 10.750000
-10.318600 2.187720 37.319000 -12.432000 6.550000
-5.568630 1.394330 38.789400 -12.787200 10.980000
-5.403050 1.409650 39.247600 -12.787200 11.280000
19.290400 1.654680 34.593300 -11.544000 6.900000
19.500100 1.672660 34.969300 -11.544000 9.960000
19.709800 1.690650 35.345300 -11.544000 9.710000
8.982400 -2.309260 39.871000 -12.698400 7.900000
-10.063100 1.582130 39.647800 -12.520800 6.880000
19.919500 1.708630 35.721300 -11.544000 14.190000
8.219480 -1.582130 40.070600 -12.787200 5.210000
8.392520 -1.615440 40.914200 -12.787200 9.440000
10.824300 -1.098650 40.356400 -12.609600 15.350000
-20.236000 -2.538210 37.468100 -11.188800 8.090000
-19.093200 -1.516910 38.117600 -11.366400 7.070000
-21.237900 -2.563840 37.404900 -11.100000 7.440000
-19.286000 -1.532230 38.502600 -11.366400 6.410000
-19.478900 -1.547550 38.887600 -11.366400 4.660000
23.442200 -0.645648 37.172600 -11.188800 7.110000
-21.679300 -1.970340 38.182300 -11.011200 7.020000
19.669500 1.698710 39.268100 -11.810400 6.110000
25.359200 -1.989650 36.370000 -10.922400 8.650000
-22.777400 -1.989650 38.040200 -10.922400 7.640000
24.193300 -0.658308 37.716200 -11.100000 7.490000
24.714200 1.084340 37.882700 -11.188800 8.680000
-17.792000 -2.527510 43.860300 -11.899200 8.020000
-17.958600 -2.291950 44.271100 -11.899200 7.350000
-17.861900 -2.312600 44.774000 -11.899200 7.430000
-17.675200 -2.182820 45.317800 -11.899200 6.200000
10.848400 14.844900 46.479900 -12.787200 9.720000
10.414700 -0.740596 49.322300 -12.787200 6.250000
-13.621100 -4.118790 49.263000 -12.343200 8.830000
-14.399700 -4.352620 49.471400 -12.254400 5.920000
-14.800900 -4.670020 49.775400 -12.254400 8.380000
-28.862100 1.597000 53.440000 -11.277600 12.930000
-16.189900 0.892513 58.553300 -12.343200 6.470000
-29.066800 1.608330 53.819000 -11.277600 10.760000
20.685800 0.898843 57.578100 -12.343200 7.280000
-29.271500 1.619660 54.198000 -11.277600 7.750000
21.166300 0.905173 57.862200 -12.343200 7.540000
21.314300 0.911503 58.266800 -12.343200 5.930000
-17.421900 6.973900 91.163000 -12.609600 10.900000
-17.502600 7.006190 91.585000 -12.609600 9.870000
-17.583200 7.038480 92.007100 -12.609600 5.390000
-17.667900 6.779700 92.450100 -12.609600 9.260000
-15.995400 7.458200 97.960800 -12.698400 8.260000
-16.064600 7.490490 98.384900 -12.698400 10.940000
-16.137500 7.213100 98.831400 -12.698400 13.090000
-16.971300 7.244060 99.127700 -12.698400 7.560000
-8.679090 1.584160 136.310000 -12.876000 5.090000
-8.706470 1.589150 136.740000 -12.876000 10.130000
-8.733850 1.594150 137.170000 -12.876000 7.590000
-8.761690 0.746283 137.607000 -12.876000 6.090000
-8.115290 1.194710 140.234000 -12.876000 13.100000
-8.140190 1.198380 140.664000 -12.876000 14.530000
-8.165080 1.202040 141.094000 -12.876000 11.530000
-9.007920 1.205700 141.474000 -12.964800 6.160000
-51.435300 -17.489900 131.876000 -11.810400 5.750000
19.286900 2.728180 184.694000 -12.964800 5.280000
19.332500 2.158850 185.130000 -12.964800 8.790000
7.302460 1.648540 11.579600 -11.366400 3.320000
-7.965450 0.618144 11.238400 -10.478400 4.860000
7.622480 1.700060 11.883100 -11.277600 4.150000
-7.939550 0.802165 11.769400 -10.656000 4.710000
-8.214370 0.637461 11.589600 -10.478400 5.220000
-6.983350 1.796550 12.753200 -11.366400 4.650000
-8.173800 1.007360 12.116700 -10.656000 3.390000
-7.050490 0.943902 13.298500 -11.366400 4.980000
-7.357140 0.970870 13.622200 -11.366400 4.620000
-6.695030 2.140060 13.828600 -11.632800 4.170000
-7.639200 1.096240 13.951000 -11.366400 5.440000
-6.990340 2.199510 14.159300 -11.632800 5.970000
-7.955860 1.125870 14.267100 -11.277600 4.150000
-7.093440 1.768970 14.651600 -11.632800 5.160000
-7.538600 1.176390 14.487900 -11.455200 3.950000
-8.389960 1.155500 14.515000 -11.188800 2.770000
8.024520 -5.656410 13.639000 -11.721600 8.430000
8.441130 -5.656410 13.385200 -11.544000 6.690000
8.277890 0.146590 15.117400 -11.810400 15.860000
8.603210 1.238300 14.883900 -11.455200 8.260000
8.395300 0.095617 15.544400 -11.810400 17.140000
8.600190 0.000000 15.923800 -11.810400 13.860000
8.036970 1.773710 16.600400 -12.076800 8.440000
8.223870 1.814960 16.986500 -12.076800 9.840000
8.179440 -0.104946 17.580600 -12.076800 8.690000
9.455750 4.355290 16.358800 -11.721600 5.440000
7.119530 4.869140 17.846300 -12.343200 4.670000
8.257190 -0.107278 18.019300 -12.076800 6.300000
9.658940 4.511780 16.710400 -11.721600 5.560000
6.144140 -2.250200 19.166200 -12.520800 6.380000
8.512780 1.704780 18.297000 -12.165600 6.830000
-8.146860 0.720148 18.527400 -11.988000 4.700000
6.274860 -2.298070 19.574000 -12.520800 7.170000
-7.400650 0.816048 19.757800 -12.165600 9.250000
7.969100 -1.281920 19.975900 -12.343200 9.640000
9.077960 1.032410 19.511800 -12.076800 7.570000
8.097930 2.306570 20.298900 -12.343200 8.820000
9.248230 1.511040 19.877800 -11.988000 3.980000
9.299370 1.937920 20.293600 -12.343200 5.120000
6.945540 1.975190 21.666100 -12.343200 3.650000
6.299600 2.299070 22.281300 -12.520800 4.720000
8.879220 2.012460 21.413500 -12.254400 6.480000
6.590980 2.341650 22.643800 -12.520800 3.870000
8.629440 1.081750 22.508600 -12.432000 6.560000
8.780930 1.252820 22.903800 -12.432000 8.400000
8.551180 -0.619625 24.391000 -12.520800 9.290000
6.055180 2.001770 25.943400 -12.698400 6.350000
18.509300 1.384690 19.809900 -9.945600 6.500000
8.610710 2.034050 25.664400 -12.609600 8.270000
18.800800 1.470550 20.121900 -9.945600 8.700000
-15.025900 2.066340 23.032100 -12.964800 10.060000
19.091300 1.580020 20.432800 -9.945600 8.360000
-15.083400 2.012240 23.514200 -12.964800 6.400000
18.450000 1.516510 21.589300 -10.300800 4.490000
-6.603800 2.218610 27.572900 -12.698400 7.550000
18.726300 1.628640 21.912700 -10.389600 5.180000
-6.919390 2.252230 27.938200 -12.698400 10.840000
19.009100 1.562460 22.243500 -10.389600 8.580000
19.288600 1.585440 22.570600 -10.389600 9.620000
-7.314160 0.252868 28.817300 -12.698400 4.630000
-6.049110 1.887800 29.489800 -12.787200 9.170000
16.111000 0.993319 25.989200 -10.478400 7.240000
-6.135520 1.914770 29.911100 -12.787200 5.170000
-6.635870 1.486670 30.270300 -12.787200 6.130000
-6.721230 2.065790 30.659700 -12.787200 6.030000
-5.551570 1.995680 31.336100 -12.876000 11.450000
19.115000 1.723300 26.001300 -10.922400 8.160000
8.771660 2.222110 31.024800 -12.787200 5.940000
-11.086600 1.723300 30.307400 -12.520800 6.800000
19.369800 1.746280 26.348000 -10.922400 7.380000
9.305480 2.554770 31.294400 -12.698400 5.680000
-11.234400 1.746280 30.711500 -12.520800 5.780000
-12.292600 1.746280 30.303500 -12.343200 5.250000
-12.454400 1.769260 30.702200 -12.343200 6.530000
18.779800 1.402880 27.838800 -11.100000 4.750000
8.950370 1.299010 32.370500 -12.787200 5.170000
19.018000 1.526040 28.191900 -11.100000 5.630000
19.255900 1.651860 28.544700 -11.188800 5.760000
-5.353710 1.438850 34.023300 -12.876000 5.960000
18.820300 1.780320 29.340000 -11.366400 7.450000
-5.618920 1.564680 34.412100 -12.876000 9.650000
19.055600 1.693160 29.706800 -11.366400 8.850000
19.288000 1.713800 30.069100 -11.366400 9.690000
9.518820 1.824280 34.426400 -12.787200 8.820000
19.520400 1.734450 30.431400 -11.366400 9.520000
-10.301800 2.022010 36.436900 -12.520800 5.040000
-5.444940 1.600720 37.927800 -12.964800 8.310000
-10.417100 2.163410 36.844700 -12.520800 6.900000
-5.509340 0.929438 38.376400 -12.964800 8.780000
-9.528140 1.978130 37.540200 -12.698400 7.970000
-9.634010 2.000110 37.957300 -12.698400 9.720000
-10.035400 2.022090 38.298200 -12.609600 7.720000
-20.275700 -1.012050 37.028200 -11.277600 7.000000
-20.771800 -0.890482 37.249700 -11.277600 8.070000
-19.240900 -2.219910 38.973400 -11.544000 7.010000
-18.822400 -2.241880 39.654200 -11.721600 7.220000
-18.697700 -2.263860 40.188200 -11.721600 7.120000
25.061500 0.103947 37.150700 -11.188800 4.280000
-18.859100 -3.081330 40.535100 -11.721600 5.960000
-17.958600 -2.291950 44.271100 -11.988000 5.030000
-18.120400 -2.312600 44.670000 -11.988000 5.800000
-18.974700 -2.333250 44.781700 -11.899200 5.910000
11.254600 -1.915210 48.220500 -12.876000 7.820000
11.170100 -1.493690 49.581600 -12.876000 7.550000
11.266300 -1.228920 50.009000 -12.964800 7.130000
19.985100 2.298720 47.166200 -12.254400 8.850000
-13.741400 -3.874390 49.697900 -12.432000 8.430000
-15.202500 -3.906680 49.720100 -12.343200 10.580000
-14.941300 -3.938960 50.247700 -12.343200 6.180000
-16.737800 -6.336570 49.887500 -12.254400 8.600000
12.136800 1.899960 52.000200 -12.876000 9.760000
-17.880100 -5.197380 51.000600 -12.254400 6.250000
-17.724600 -5.238630 51.508700 -12.254400 12.130000
-17.085400 -2.338130 53.296600 -12.432000 5.620000
-28.758400 1.435460 52.519700 -11.366400 5.120000
20.569400 1.574350 56.230300 -12.520800 6.840000
-28.965300 1.445790 52.897500 -11.366400 5.670000
20.722300 -0.886183 56.648300 -12.520800 8.100000
-29.170500 1.597000 53.272200 -11.366400 5.200000
20.540100 -0.892513 57.172600 -12.520800 5.610000
-29.374900 1.797490 53.645400 -11.366400 5.340000
20.687300 -0.520395 57.582200 -12.520800 7.750000
-29.584300 1.619660 54.027900 -11.366400 5.660000
21.167800 -0.524060 57.866300 -12.520800 7.980000
-15.835500 -2.751800 63.938500 -12.609600 10.150000
22.011100 -0.784583 63.965600 -12.609600 11.400000
20.513200 -3.516680 65.727600 -12.698400 7.050000
21.150500 -3.538660 65.977400 -12.698400 5.760000
20.778500 -2.913670 66.577900 -12.609600 7.350000
21.422500 -2.931650 66.825700 -12.609600 7.350000
-17.341300 6.941620 90.740900 -12.787200 6.280000
-17.421900 6.973900 91.163000 -12.787200 5.330000
-17.502600 7.006190 91.585000 -12.787200 5.660000
-17.579100 7.328140 91.985200 -12.787200 9.630000
-10.317700 1.554170 133.603000 -13.053600 5.540000
-10.350900 1.559170 134.033000 -13.053600 10.020000
-8.597530 0.000000 135.029000 -13.053600 10.000000
-9.729720 1.161730 136.243000 -13.053600 5.870000
-8.706740 1.165390 136.744000 -13.053600 5.430000
-8.733850 1.594150 137.170000 -13.053600 7.320000
-8.761230 1.599150 137.600000 -13.053600 7.370000
-8.952880 1.634130 140.610000 -13.053600 6.160000
-8.980260 1.639130 141.040000 -13.053600 11.500000
-9.007640 1.644130 141.470000 -13.053600 11.970000
25.484100 0.366813 156.073000 -13.053600 8.020000
25.553500 0.367812 156.498000 -13.053600 6.560000
17.858600 4.881620 184.793000 -13.142400 7.350000
17.901100 4.461300 185.232000 -13.142400 5.120000
