VERSION .7
FIELDS x y z velocity SNR
SIZE 4 4 4 4 4
TYPE F F F F F
COUNT 1 1 1 1 1
WIDTH 275
HEIGHT 1
VIEWPOINT 0 0 0 1 0 0 0
POINTS 275
DATA ascii
0.072859618407325 3.13022140920966 -0.219113419609042 0 5.55775955634387
5.78302792284306 4.82401364478305 -0.175290735687234 -3.403723560418 10.0380726212506
5.81324288684996 4.7301661462066 -0.759593187978012 -1.54714707291727 17.027160813313
4.52067695209376 6.07071477395846 -2.06940451852984 -3.09429414583454 5.08235987889478
5.99720997311056 4.87985796201127 -1.33902645316637 -3.09429414583454 5.08235987889478
4.9349786906027 6.49451522147238 -0.253197729326005 -4.48672651146009 5.35001091457177
6.24379155439661 5.20836766750085 0.696293755646512 -2.93957943854282 5.35597708571837
6.58234876179105 4.82218925742125 0.126598864663002 -2.93957943854282 5.35597708571837
6.23943827219667 5.2047363011972 0.759593187978013 -2.78486473125109 9.04123194990211
6.23470299614658 5.20078628805837 0.822892620309514 -2.63015002395936 5.19962693102332
6.18492834236312 4.78102280938506 2.34207899626554 -1.39243236562554 7.99875048081829
6.32518090671307 5.14672398451579 0.316497161657506 -1.08300295104209 5.75435732944427
5.11034987292059 6.1999184928093 2.69509506119122 -4.48672651146009 5.55156639097057
6.40910028275208 5.47826555497213 0.854542336475264 -2.93957943854282 9.47590475122786
6.40383897697734 5.47376838236937 0.920276362357978 -2.78486473125109 22.7630752639826
6.66422643032331 5.69633809631986 0.613517574905319 -2.93957943854282 6.48412338532224
6.63515287122966 5.67148707662653 1.02252929150886 -2.78486473125109 11.8267531193859
6.8316546037663 5.2809498636758 -1.63604686641418 -2.63015002395936 5.38488591699759
-2.5573726060971 11.9403734924205 0.854542336475265 3.71315297500145 7.71060830304404
0 12.1211363316493 1.70908467295053 3.71315297500145 7.71060830304404
-1.70579101750115 12.0977771339669 0.759593187978014 3.86786768229318 6.56555638397553
6.39682350496884 9.89342069031684 3.32322019740381 3.86786768229318 6.56555638397553
4.61198979781771 11.496650384438 2.04505858301773 3.24900885312627 6.21032460164196
5.47149885145338 10.861730314787 3.11627974555082 3.24900885312627 6.21032460164196
4.66598320727233 11.3552078721881 2.62936103530851 3.403723560418 6.45087065926943
5.18848852254492 11.2482446100977 2.04505858301773 3.71315297500145 31.2234547393802
-2.2006730516334 12.1375521829121 2.33720980916312 3.86786768229318 41.6099959040147
-1.72949617418164 12.2658983747895 -2.04505858301773 3.86786768229318 41.6099959040147
0 12.3872280982136 2.04505858301773 3.86786768229318 41.6099959040147
5.18848852254492 11.2482446100977 2.04505858301773 3.86786768229318 41.6099959040147
-1.70147735455831 12.0671838594227 3.01889600350236 4.02258238958491 5.97960107217624
5.41668593441611 11.4835102029129 2.09618504759317 3.71315297500145 122.05074173067
5.41668593441611 11.4835102029129 2.09618504759317 3.86786768229318 183.397068079384
5.95857395902121 11.3321231859053 1.29763836279577 3.86786768229318 183.397068079384
5.40948339574573 11.468240640064 2.19600338319285 4.02258238958491 29.1010712188888
-10.3894057283743 7.40177168806602 -1.69691170519447 4.33201180416836 15.9381502858966
-7.05870519931033 10.275083300425 -3.19418673918959 4.33201180416836 15.9381502858966
-1.97681281187163 12.5884652405917 -1.79673004079415 4.33201180416836 15.9381502858966
5.66363747078592 11.7444043707584 1.94280565386684 3.71315297500145 108.104991946398
6.10390503119246 11.6085164343421 1.32928807896152 3.71315297500145 108.104991946398
5.66363747078592 11.7444043707584 1.94280565386684 3.86786768229318 202.111235709661
6.10390503119246 11.6085164343421 1.32928807896152 3.86786768229318 202.111235709661
5.66363747078592 11.7444043707584 1.94280565386684 4.02258238958491 35.7857568593624
6.11280292038829 11.6254386001413 1.12478222065975 4.02258238958491 35.7857568593624
-2.02720111773157 12.9093410630474 -1.73829979556507 4.33201180416836 61.6977096723025
-2.02502775850264 12.8955009781672 -1.84055272471595 4.48672651146009 16.0610949761838
5.73249365464886 11.8871880271779 -2.82656311295664 3.71315297500145 16.5527873353358
6.24410603197337 11.8751532206877 1.46562531782937 3.71315297500145 16.5527873353358
5.71225770957557 11.845225750639 -3.03593815836084 3.86786768229318 26.9636335421949
6.2539824173533 11.893936308139 1.25625027242518 3.86786768229318 26.9636335421949
-2.82747794821864 12.7079657810584 3.55937577187133 4.17729709687663 13.5537665692182
-1.56102650799334 13.3255889323766 -1.46562531782937 4.17729709687663 13.5537665692182
-0.104674924836174 13.4944946913944 -0.209375045404195 4.17729709687663 13.5537665692182
-2.0754678110109 13.2167063264533 -1.77968788593566 4.33201180416836 49.030589698781
-2.0754678110109 13.2167063264533 -1.77968788593566 4.48672651146009 13.8825825311877
-3.18218647764701 13.2997300597102 -1.92819809255957 4.17729709687663 12.6845399180615
-2.61794603122736 12.7144622685677 4.71337311514562 4.33201180416836 12.4934734716873
-1.69898760343217 13.5839685561964 -1.82107597630626 4.33201180416836 12.4934734716873
-3.15258195201049 13.6558979881166 -1.75290735687234 4.17729709687663 9.12022416579274
-3.15835595803304 13.6809089912965 -1.5337939372633 4.33201180416836 7.32905308298066
5.02731367010541 13.4970433386563 1.00792173020159 3.09429414583454 10.9733055662136
4.46615582745779 13.6842688792475 1.11991303355733 3.24900885312627 6.54273335811821
4.90622496617174 13.5123228545942 1.34389564026879 3.24900885312627 6.54273335811821
-4.3779015914949 13.7939347080916 2.86064742267361 2.78486473125109 8.43241477530656
-3.95141834240111 14.0083587461811 2.40294383504583 2.78486473125109 8.43241477530656
4.23261176676098 14.1276013113227 -0.343277690720834 2.78486473125109 8.43241477530656
4.66371795488864 13.9034316467895 1.60196255669722 2.78486473125109 8.43241477530656
4.23171989297736 14.1246244171663 0.457703587627778 2.93957943854282 10.7977015381365
4.68920312465059 13.9794077926927 0.457703587627778 2.93957943854282 10.7977015381365
5.80121013900781 13.4685425211034 1.60196255669722 2.93957943854282 10.7977015381365
5.01957078868625 13.8244906329973 1.14425896906944 3.09429414583454 16.6240088170752
5.01637953942975 13.8157015557412 1.25868486597639 3.24900885312627 9.17453992453306
4.32175648644496 14.4251483409358 0.467441961832624 2.93957943854282 12.0895373057159
4.79113597226522 14.2832890293115 0.116860490458155 2.93957943854282 12.0895373057159
5.80334070369941 13.7923724662881 1.75290735687234 2.93957943854282 12.0895373057159
4.32370807253203 14.431662340254 -0.116860490458155 3.09429414583454 6.45777410214203
4.79113597226522 14.2832890293115 -0.116860490458155 3.09429414583454 6.45777410214203
5.8366932431787 13.871638990637 0.701162942748935 3.09429414583454 6.45777410214203
-1.6059083474923 15.8447429250011 -1.61413552445328 4.48672651146009 8.19262196518727
4.43082696622089 15.7079327741742 -0.126598864663002 2.93957943854282 5.21132836637902
4.93601878262867 15.5524557559194 0.379796593989008 2.93957943854282 5.21132836637902
5.41600462291522 15.3083536600583 1.64578524061903 2.93957943854282 5.21132836637902
5.90414581663881 15.0806328554962 2.02558183460803 2.93957943854282 5.21132836637902
2.94627245651697 16.2498175998969 3.81257350119733 2.16600590208418 5.61236861355459
3.6365407448239 16.3442602181077 2.62936103530851 2.16600590208418 5.61236861355459
-9.57525643691514 19.4254830519471 -0 2.78486473125109 6.62854926060553
-9.7140282693342 19.7070117918304 -0 2.78486473125109 16.1254505904897
-8.84484231296894 20.0658575488133 -1.36337238867849 2.78486473125109 16.1254505904897
-9.71373604133041 19.7064189439863 0.17042154858481 2.93957943854282 7.09437788679082
-8.67867782315064 20.1490962208194 -1.19295084009367 2.93957943854282 7.09437788679082
-10.2579883748866 20.8105527654805 1.08095953673794 2.78486473125109 5.45915896990975
-4.42022436362038 29.6653453770354 9.251455494604 4.33201180416836 6.38973264626662
17.0956744896478 26.4404199333349 -3.68840923008555 4.33201180416836 28.4816420936566
-0.699383925697806 30.0471864296269 10.0816518955672 4.48672651146009 14.5813009125249
14.6998355942671 27.9564118717684 2.70483343539607 4.48672651146009 14.5813009125249
0.24055727708976 31.0121923062726 -7.9465133511546 4.17729709687663 6.81870527381387
15.6371662060221 27.9186921952298 0.993314168894326 4.17729709687663 6.81870527381387
16.3877114883052 27.4983137265072 -0.496657084447161 4.17729709687663 6.81870527381387
-0.704343802833321 30.2602744739513 10.4297987733904 4.33201180416836 41.5018289455685
0.241964404641489 31.1935965471321 -7.20152772448385 4.33201180416836 41.5018289455685
16.1292113121183 27.6273031566933 -1.24164271111791 4.33201180416836 41.5018289455685
-0.702326047677695 30.1735869435367 10.678127315614 4.48672651146009 19.2888683446616
0.242401021931003 31.2498844279664 -6.95319918226027 4.48672651146009 19.2888683446616
14.5767065387763 28.3206445266004 3.22827104890655 4.48672651146009 19.2888683446616
16.0469094074433 28.0606837868937 -0.501526271549584 4.33201180416836 11.4342751357462
16.0469094074433 28.0606837868937 -0.501526271549584 4.48672651146009 5.64459006768002
-4.03549107309049 32.2650875938902 5.36827878042154 4.02258238958491 10.7401998316009
4.03549107309049 32.2650875938902 5.36827878042154 4.02258238958491 10.7401998316009
14.7120491093823 29.2055822622653 4.09011716603545 4.02258238958491 10.7401998316009
16.5913769051614 27.275436960203 -8.18023433207091 4.02258238958491 10.7401998316009
-29.0859237599555 15.3611932195647 2.04505858301773 4.17729709687663 6.53310851165585
-4.05005551700529 32.3815351464075 4.60138181178989 4.17729709687663 6.53310851165585
0.51051046018533 32.9040546959836 1.78942626014051 4.17729709687663 6.53310851165585
2.73476411442401 31.9350505228274 -7.66896968631648 4.17729709687663 6.53310851165585
14.8195366004785 29.4189607481605 1.02252929150887 4.17729709687663 6.53310851165585
17.1931851791716 27.6937408054073 4.8570141346671 4.17729709687663 6.53310851165585
-5.41532796090127 32.8014577359111 1.29033458214214 3.86786768229318 8.82124010261806
2.58066916428428 33.1702655479763 -0 3.86786768229318 8.82124010261806
14.4500082285472 29.9642660167115 0.516133832856853 3.86786768229318 8.82124010261806
15.2820311158534 27.2846318329164 11.3549443228508 3.86786768229318 8.82124010261806
-7.74200749285283 32.3571891523254 -0 4.02258238958491 65.2795358184187
-5.41793777619893 32.8172657805582 0.774200749285285 4.02258238958491 65.2795358184187
0.516071722448113 33.2624960834665 0.516133832856853 4.02258238958491 65.2795358184187
2.83326542223126 33.085293874639 2.06453533142742 4.02258238958491 65.2795358184187
14.4447896979377 29.9534446083823 1.03226766571371 4.02258238958491 65.2795358184187
16.2342326338936 28.9846982477477 -1.80646841499899 4.02258238958491 65.2795358184187
0.515745520085834 33.2414712833742 1.29033458214214 4.17729709687663 35.8082023040317
2.82838420840188 33.0282937811276 2.8387360807127 4.17729709687663 35.8082023040317
16.2459838827038 29.0056789992547 -1.29033458214214 4.17729709687663 35.8082023040317
14.5876457041734 30.2496780295146 0.260501509979638 3.86786768229318 24.8661390139469
16.3938121467782 29.2696124861839 -1.56300905987783 3.86786768229318 24.8661390139469
14.5876457041734 30.2496780295146 0.260501509979638 4.02258238958491 207.553054985604
16.3938121467782 29.2696124861839 -1.56300905987783 4.02258238958491 207.553054985604
14.586329060892 30.2469477715861 0.521003019959276 4.17729709687663 107.63602902406
16.3992478815972 29.2793174803798 -1.3025075498982 4.17729709687663 107.63602902406
14.9760821775868 30.3822286579934 1.31468051765425 3.86786768229318 16.3040631934121
16.2425906170317 29.6125667207033 -2.89229713883936 3.86786768229318 16.3040631934121
16.2529235981833 29.6314052238085 -2.62936103530851 4.02258238958491 130.670809483431
16.2622668285149 29.648439269553 -2.36642493177766 4.17729709687663 67.3059294281627
16.4034136314999 29.9057700869919 -2.65370697082062 4.02258238958491 7.45055059523019
-9.95885784617365 35.3056146737043 1.70908467295053 3.55843826770973 23.6668709966989
-2.56239278165909 36.6158733565778 1.13938978196702 3.55843826770973 23.6668709966989
-0.851967769259613 36.6025489782818 2.84847445491755 3.55843826770973 23.6668709966989
14.4742440579194 33.6045354130643 3.1333219004093 3.55843826770973 23.6668709966989
-9.6801505084899 35.405970182519 1.13938978196702 3.71315297500145 8.57802130418629
-2.55984530750074 36.5794706661592 1.99393211844228 3.71315297500145 8.57802130418629
-0.850832491663184 36.5537747695305 3.41816934590106 3.71315297500145 8.57802130418629
14.6297711875968 33.965619343667 2.01097427330076 3.403723560418 18.9211973462493
14.6231486372107 33.9502439134834 2.29825631234373 3.55843826770973 114.034100049974
14.6231486372107 33.9502439134834 2.29825631234373 3.71315297500145 38.5630346001279
14.7595380386881 34.2668961996804 1.73829979556507 3.403723560418 16.216119160853
14.7537522993561 34.253463575393 2.02801642815924 3.55843826770973 97.0020959111864
14.7537522993561 34.253463575393 2.02801642815924 3.71315297500145 32.461708961171
14.6290875935261 35.6015706070331 2.99455006799024 3.403723560418 6.81905129978297
16.1705703671473 35.0565545599887 -0 3.403723560418 6.81905129978297
14.7854687002475 35.9821420525832 1.20755840140095 3.24900885312627 5.43450871909246
16.603928019263 35.2007443529566 -0 3.24900885312627 5.43450871909246
14.781461226611 35.9723894036423 1.50944800175118 3.403723560418 14.9878721459009
16.6034285217728 35.1996854057342 0.301889600350235 3.403723560418 14.9878721459009
14.9100910377109 36.2854248730633 0.608648387802893 3.403723560418 5.53742688311779
16.7358164709 35.4803511823643 -0.608648387802893 3.403723560418 5.53742688311779
-9.00836215059955 39.0211187024483 5.96718879401959 3.24900885312627 5.82245247128709
-7.38262894440638 38.9644063837779 8.16562677076364 3.24900885312627 5.82245247128709
13.9191706658025 38.3350395062043 -1.26598864663002 3.09429414583454 5.45310281323505
14.8592482149258 37.9541552321542 1.89898296994503 3.09429414583454 5.45310281323505
15.8243820222175 37.6086433733119 0.316497161657504 3.09429414583454 5.45310281323505
14.8641751307757 37.9667397805971 1.58248580828753 3.24900885312627 9.09085300169703
15.1721872264313 35.2249347809838 -13.9258751129302 3.24900885312627 9.09085300169703
-12.9354737988586 39.6341973685232 5.54600410965998 1.701861780209 5.01706424135667
5.21411263057297 41.688557279104 1.95741321517411 1.701861780209 5.01706424135667
-20.2391507041517 36.8988675961954 4.93005194120345 1.54714707291727 8.27169300009733
4.89656871874638 41.7992017374676 4.93005194120345 1.54714707291727 8.27169300009733
6.88877141683158 41.726326847238 2.62936103530851 1.54714707291727 8.27169300009733
-12.9876455172282 39.7940511330678 6.57340258827127 1.701861780209 24.7058866470268
4.87621848568941 41.6254834572164 6.24473245885771 1.701861780209 24.7058866470268
6.8852339394922 41.7048998137735 2.95803116472207 1.701861780209 24.7058866470268
-13.0032492951718 39.8418609948731 6.24473245885771 1.85657648750073 6.32728860292511
4.86420798988587 41.5229567357722 6.90207271768483 1.85657648750073 6.32728860292511
6.93979935325255 42.0354107498101 2.6488377837182 1.54714707291727 14.8532089655441
4.91792455636356 41.9815042877037 5.95988501336595 1.701861780209 46.9926608196702
6.60933271738338 42.088636150386 2.6488377837182 1.701861780209 46.9926608196702
4.91792455636356 41.9815042877037 5.95988501336595 1.85657648750073 12.9290170182781
6.60933271738338 42.088636150386 2.6488377837182 1.85657648750073 12.9290170182781
6.65451181453567 42.3763394122667 3.00185384864388 1.701861780209 13.0331333909695
14.3136873962024 43.8570337781124 0.715770504056202 2.78486473125109 7.92236374329224
12.8948050148659 44.3415478830665 -5.0444778381104 2.78486473125109 5.05122328039213
14.4088911208884 44.1487372961356 1.08095953673794 2.78486473125109 5.05122328039213
15.4895579549551 43.781283016112 1.08095953673794 2.78486473125109 5.05122328039213
16.9304470670439 43.2445038159398 1.08095953673794 2.78486473125109 5.05122328039213
-4.36945919403305 46.7394888607336 8.51133905503568 2.63015002395936 10.8863778237485
14.0605201361335 45.5836471366432 0.740116439568318 2.63015002395936 10.8863778237485
16.6446026842813 44.686474432726 1.48023287913664 2.63015002395936 10.8863778237485
-4.36945919403305 46.7394888607336 8.51133905503568 2.78486473125109 14.4144090917165
16.6400913084298 44.6743625496448 1.8502910989208 2.78486473125109 14.4144090917165
14.1440776121653 45.8545371511081 -1.86246406667686 2.63015002395936 44.0115821761017
15.2496767463933 45.4621913953578 2.6074496933476 2.63015002395936 44.0115821761017
16.7374500875048 44.9357458145062 2.6074496933476 2.63015002395936 44.0115821761017
15.2427735794654 45.4416117397148 2.97994250668298 2.78486473125109 35.1162089756892
16.7374500875048 44.9357458145062 2.6074496933476 2.78486473125109 35.1162089756892
15.342399550573 45.7386157380135 2.99941925509267 2.63015002395936 16.5057467831174
16.830571852092 45.1857537859364 3.37434666197925 2.63015002395936 16.5057467831174
-8.45964399185758 46.6581668384673 -9.37318517216458 2.78486473125109 12.9107803143108
15.334521020795 45.7151283399105 3.37434666197925 2.78486473125109 12.9107803143108
16.8209021110231 45.1597930198403 3.74927406886583 2.78486473125109 12.9107803143108
-17.1209449053095 45.9653307013293 7.30864984073717 2.63015002395936 9.04901785867783
-6.90709182501439 48.9863392910103 -3.46199202982287 2.63015002395936 9.04901785867783
16.6321955900004 43.5460586487395 -16.9252943680229 2.63015002395936 9.04901785867783
-19.349777772139 45.9871918261008 1.16130112392793 2.47543531666763 30.3112019833
13.9318399959401 47.9076146996412 1.16130112392793 2.47543531666763 30.3112019833
17.0278044394823 46.8965839678382 1.16130112392793 2.47543531666763 30.3112019833
13.9251290423175 47.8845376487628 1.93550187321321 2.63015002395936 62.1248639339427
16.6408088840396 47.0352972943366 1.16130112392793 2.63015002395936 62.1248639339427
13.8532026848897 47.6372034689701 5.41940524499698 2.78486473125109 10.7770556273739
16.6327930227682 47.0126404378943 1.93550187321321 2.78486473125109 10.7770556273739
14.0232588549787 48.2219780196606 -0 2.47543531666763 61.9297278662321
16.7419395420841 47.3211434091404 1.55813987277541 2.47543531666763 61.9297278662321
14.0228369919958 48.2205273534709 0.389534968193852 2.63015002395936 104.381433505071
16.7419395420841 47.3211434091404 1.55813987277541 2.63015002395936 104.381433505071
15.1754024322646 47.8148048659527 2.33720980916312 2.78486473125109 15.8295680251525
16.7374017839177 47.3083174217804 1.94767484096926 2.78486473125109 15.8295680251525
16.8465766642221 47.6169005554476 1.56787824698026 2.47543531666763 6.73115223313754
15.2753118897121 48.1296005514995 1.95984780872532 2.63015002395936 21.9014900854215
16.8465766642221 47.6169005554476 1.56787824698026 2.63015002395936 21.9014900854215
13.9766326878474 49.5492169619262 5.62391110329875 2.47543531666763 13.9952492422589
16.4695299046617 49.0988060382581 0.401707935949909 2.47543531666763 13.9952492422589
13.9881156964827 49.5899259151452 5.22220316734884 2.63015002395936 6.25935093584026
16.4695299046617 49.0988060382581 0.401707935949909 2.63015002395936 6.25935093584026
14.0356330583762 49.7583819464729 6.46628047201796 2.47543531666763 20.4717297148356
16.5653569203998 49.3844846269115 1.21242758850337 2.47543531666763 20.4717297148356
16.5618663551489 49.3740785869572 1.61657011800449 2.63015002395936 8.72759992996223
16.652118927995 51.0219709350353 -0.416315497257179 2.32072060937591 14.1768385206822
13.7235249880239 51.827920024122 2.49789298354308 2.47543531666763 19.4614874729322
16.6506159506845 51.0173658235185 -0.832630994514358 2.47543531666763 19.4614874729322
16.3307622469284 51.4551237526967 -0.41875009080839 2.32072060937591 21.4634786253675
16.3292882744432 51.4504795459237 -0.837500181616781 2.47543531666763 31.1632880258316
13.7538065708737 57.4830909410894 5.06151999296888 2.32072060937591 5.75645981684943
16.5629811298914 56.9553568286384 0.920276362357974 2.32072060937591 5.75645981684943
13.8265780342116 57.787234279402 5.0883005220322 2.32072060937591 6.29755954674459
16.6506159506845 57.2567079229698 0.925145549460397 2.32072060937591 6.29755954674459
1.72981163762253 6.13243647809025 -1.68717333098962 2.0764342294416 6.76964666278809
5.36400271019426 4.36462479235408 2.07183911208105 2.28407765238576 5.47655195831624
5.92410042830172 4.10114048068465 -0.447965213422931 2.49172107532992 8.07659847650824
5.98269639293382 4.02103167010583 -0.391969561745064 2.595542786802 5.44348640427687
5.36765283852006 5.26936987354862 -0.409011716603545 1.34968224913704 11.3238442610397
5.77344652077313 4.816021151069 0.467441961832624 1.34968224913704 11.3238442610397
5.37153824693172 5.27318413923359 -0.29215122614539 1.45350396060912 12.1251241628104
6.24733252632276 4.19889633237887 -0.29215122614539 2.595542786802 7.55802540148606
5.99490672706402 5.00075604620997 0.791242904143763 1.34968224913704 5.31550502982878
0.880951393658259 8.06445534531765 0.886192052641016 0.934395403248721 7.62206531730909
-0.973558621755212 11.3686747638325 -2.16191907347588 0 15.0704043397046
5.80055692034887 9.93562186117126 -3.14549486816536 -0.31146513441624 9.9736082618975
4.07804072189807 11.2314056588126 2.65857615792304 -0.31146513441624 11.0048375149438
0.189875445051664 12.2380881816528 -0.189898296994503 0.10382171147208 323.221745927035
-10.6428058680907 7.58230270484812 -1.73829979556507 1.66114738355328 7.07072830293137
-7.78750152233065 10.4576595595801 -1.94280565386684 1.66114738355328 7.07072830293137
-2.12386405154472 12.8645646997842 -1.94280565386684 1.66114738355328 7.07072830293137
-2.02924815301825 12.9223767093149 -1.63604686641418 1.76496909502536 21.6994105624415
-2.02924815301825 12.9223767093149 -1.63604686641418 1.86879080649744 19.4577588130901
-2.2723658066331 13.120952931432 -2.19843797674406 1.66114738355328 18.9663333496897
-2.18144176449462 13.2133215860693 -1.67500036323357 1.76496909502536 112.066296415658
-2.1872326361773 13.2483977687354 -1.36093779512727 1.86879080649744 71.4405938291568
-2.93779032929866 13.2037595554626 -2.78517502258605 1.66114738355328 20.0175915039351
-2.43690523828034 13.4404628949701 -2.03532020881288 1.66114738355328 20.0175915039351
-2.17916592187195 13.1995364642558 -3.4279077201059 1.76496909502536 84.3437859006592
-2.76870438006881 13.4466436486084 -1.49970962754633 1.86879080649744 51.5615006141027
-2.16507872475869 13.1142081879142 -3.74927406886583 1.86879080649744 51.5615006141027
-1.46645186514273 13.4242770573208 -2.89229713883936 1.86879080649744 51.5615006141027
-3.03754163775397 13.6520870889327 -1.97202077648138 1.76496909502536 40.1119098040674
-2.14611306523442 13.6665796386176 -2.84847445491755 1.86879080649744 15.8792749725688
-1.84806528221305 13.8926951142918 -1.75290735687234 1.86879080649744 15.8792749725688
-1.51704575110337 13.8874264853288 -2.0815774862859 1.86879080649744 15.8792749725688
-1.08600059878477 13.9587548630794 -1.86246406667686 1.86879080649744 15.8792749725688
-6.55640415153753 12.7382403463005 1.79186085369172 1.76496909502536 8.65438812072472
-2.78241491520525 13.513230995939 4.25566952751784 1.76496909502536 8.65438812072472
-1.55575691731399 14.2417984444608 -1.79186085369172 1.86879080649744 6.14196854543409
