VERSION .7
FIELDS x y z velocity SNR
SIZE 4 4 4 4 4
TYPE F F F F F
COUNT 1 1 1 1 1
WIDTH 233
HEIGHT 1
VIEWPOINT 0 0 0 1 0 0 0
POINTS 233
DATA ascii
4.92087457930536 4.72432515568571 -1.0712211625331 -1.701861780209 5.86502714411267
5.18105272290503 4.97411127174255 -0.727943471812262 -1.701861780209 6.48336433985646
0.908892532288779 9.72229525487452 3.45468824916923 4.64144121875182 12.4107313540698
5.11953909513573 8.95236360071982 0.964099046279786 4.64144121875182 12.4107313540698
5.4209914944916 8.73180459538341 1.28546539503971 4.64144121875182 12.4107313540698
5.21449970046446 8.93177981535773 0.562391110329875 4.79615592604354 13.6706715036603
5.45463738202482 8.60908467395545 1.84785650536959 4.79615592604354 13.6706715036603
4.30203954400102 9.32649130916873 2.89716632594178 3.403723560418 5.51545422107658
-1.22172378780529 10.4291560084571 1.90385215704746 4.64144121875182 82.1264951053507
-0.820533785748493 10.5466147854377 1.40719507260029 4.64144121875182 82.1264951053507
0.986567919628899 10.5531779202384 1.24164271111791 4.64144121875182 82.1264951053507
5.4498994568679 9.14484277745683 0.744985626670744 4.64144121875182 82.1264951053507
-1.21993832210113 10.4139145106959 1.98662833778865 4.79615592604354 50.8941142215733
-0.820533785748493 10.5466147854377 1.40719507260029 4.79615592604354 50.8941142215733
0.984640542898191 10.5325610431295 1.40719507260029 4.79615592604354 50.8941142215733
2.88904572975448 10.2420917021737 2.72674477735697 2.93957943854282 5.40831226524749
4.16293253812902 9.66498929684783 3.152798648819 3.403723560418 5.2577556918005
4.44808706817223 9.64311112425335 2.81195555164937 3.403723560418 5.2577556918005
5.61307300630721 9.41864534333383 0.681686194339243 4.48672651146009 12.0339458170132
5.6034026770226 9.40241868784891 0.937318517216458 4.64144121875182 335.53160409838
5.59524627859309 9.38873238375129 1.10774006580127 4.79615592604354 209.195194700251
5.7634998963661 9.67105922178746 0.964099046279786 4.48672651146009 9.8184445754101
5.7594814820277 9.66431638779019 1.0517444141234 4.64144121875182 266.73092617357
5.7594814820277 9.66431638779019 1.0517444141234 4.79615592604354 170.661551544741
5.91497463736984 9.92523137710851 1.17103949813277 4.64144121875182 23.5143161888773
6.28260300151019 9.71676559090718 0.990879575343113 4.64144121875182 23.5143161888773
5.90190569439485 10.5372985281455 1.99393211844228 4.02258238958491 5.49828245679228
6.03675283386145 10.7780554357958 2.23982606711465 4.02258238958491 5.89660225730213
2.86312285406652 12.4020609829487 1.89654837639382 2.63015002395936 5.51899927511905
3.25412673792774 12.2894533633928 1.9963667119935 2.63015002395936 5.51899927511905
3.56208196401405 12.2489814920539 1.69691170519447 2.63015002395936 5.51899927511905
4.13098895210992 11.6762529295357 3.49364174598862 2.63015002395936 5.51899927511905
2.93629024982883 12.7189969128613 1.84055272471595 2.47543531666763 6.28405783803839
4.59136053304608 12.0210019156904 2.86308201622482 2.47543531666763 6.28405783803839
2.92943559999703 12.6893049333118 2.04505858301773 2.63015002395936 7.52142830074072
3.67833597344237 12.6487457940128 0.511264645754432 2.63015002395936 7.52142830074072
4.59136053304608 12.0210019156904 2.86308201622482 2.63015002395936 7.52142830074072
-7.22246285470845 10.7277005502331 -2.55632322877216 4.17729709687663 18.4983091009092
-7.25422518347454 10.7748779132234 -2.2495644413195 4.33201180416836 33.787418432064
-7.28181960529619 10.8158645821914 -1.94280565386684 4.48672651146009 9.01977919055616
3.97073542847537 12.5110316206977 3.14062568106294 2.47543531666763 6.05436885257555
3.99227236663046 12.5788904138923 2.82656311295664 2.63015002395936 6.28750914416313
-1.96734345817691 13.203384797026 -1.98906293133986 4.17729709687663 125.18515962216
-1.96958056987698 13.2183986709315 -1.88437540863776 4.33201180416836 228.080213654491
-1.97169442046035 13.2325853054714 -1.77968788593566 4.48672651146009 56.7169728386479
-2.01309563162289 13.5104402574219 -2.03532020881288 4.17729709687663 359.200535571527
-2.01538476917644 13.5258032911857 -1.92819809255957 4.33201180416836 633.990794620123
-2.01754777907571 13.5403198474591 -1.82107597630626 4.48672651146009 150.194578523121
4.89656871874637 13.1460267937176 1.64335064706782 2.47543531666763 6.94316870888435
4.88700269453147 13.1203444806813 1.86246406667686 2.63015002395936 11.6604874793746
-2.05884780506886 13.8174957178179 -2.0815774862859 4.17729709687663 92.3642811461714
-2.05884780506886 13.8174957178179 -2.0815774862859 4.33201180416836 248.180947057861
-2.06118896847591 13.8332079114399 -1.97202077648138 4.48672651146009 55.0041945633821
5.00064723422354 13.4254508213791 1.79186085369172 2.47543531666763 5.5396250096788
5.00538135694074 13.4381607224669 1.67986955033599 2.63015002395936 5.97650556256264
-3.31906496551388 13.8718043087833 -2.23982606711465 4.17729709687663 10.1339156475275
-1.78408180588063 14.2643248860716 -1.34389564026879 4.33201180416836 11.3269923581077
-1.93814664023422 14.5698751114026 -1.25868486597639 4.33201180416836 6.64936861706957
3.36783735161611 15.7244336410531 4.25810412106905 2.01129119479245 7.40785327626325
3.33056886388875 16.1754259437223 3.81257350119733 1.85657648750073 8.42054511298234
3.59323867803606 16.1496411289171 3.68110544943191 2.01129119479245 7.62303649504447
3.7079139421541 16.0614046878243 3.94404155296276 2.16600590208418 5.3857248466568
-9.65824971548427 17.2438981205831 0.613517574905319 2.93957943854282 7.37977728402737
-8.73841640924767 17.7277716766178 -0.613517574905319 2.93957943854282 7.37977728402737
16.4614406689816 22.1056961443669 -4.55025534721444 -4.79615592604354 16.7052466517973
16.4395519782907 22.0763023169892 -4.76693417327227 -4.64144121875182 5.86125309699161
16.6464006764983 22.3540747527306 -4.60138181178989 -4.79615592604354 36.7018164558314
16.6242660454625 22.3243506576295 -4.82049523139893 -4.64144121875182 12.8664093264821
16.8313606840149 22.6024533610943 -4.65250827636533 -4.79615592604354 9.96364840304078
15.1900356041332 26.0186137112018 0.467441961832622 4.64144121875182 7.351734337209
-6.01673042361284 30.4385977859551 -1.68717333098962 4.17729709687663 14.4649047466952
-4.57947046982898 30.7340899365891 -0 4.17729709687663 14.4649047466952
1.44597454308576 31.0359891076855 -0.482049523139891 4.17729709687663 14.4649047466952
3.84477762537671 30.7402704193831 2.41024761569947 4.17729709687663 14.4649047466952
15.1827327024004 27.1073438381389 -0.482049523139891 4.17729709687663 14.4649047466952
1.68671647749589 31.0191551322359 -0.723074284709841 4.33201180416836 12.0294408376908
-6.07988879497781 30.758115551825 -1.46075613072695 4.02258238958491 7.07020409005135
-4.62517109741235 31.0407994584781 0.486918710242314 4.02258238958491 7.07020409005135
-3.649142830796 31.1506416256989 1.21729677560579 4.02258238958491 7.07020409005135
1.70236886259378 31.3070065690476 1.46075613072695 4.02258238958491 7.07020409005135
2.90662144342498 31.0917197173632 3.16497161657505 4.02258238958491 7.07020409005135
3.87549525789997 30.9858680644006 3.16497161657505 4.02258238958491 7.07020409005135
5.31469754361922 30.6877951213091 3.89534968193853 4.02258238958491 7.07020409005135
8.79297824651682 29.3491815104473 6.81686194339242 4.02258238958491 7.07020409005135
10.0612547231024 29.1989135390469 5.59956516778663 4.02258238958491 7.07020409005135
11.2253886961408 28.6723890032767 6.08648387802895 4.02258238958491 7.07020409005135
14.8147890761561 27.5840802655427 -2.19113419609042 4.02258238958491 7.07020409005135
17.5285462399947 26.0355780190674 -0.243459355121157 4.02258238958491 7.07020409005135
-4.62071548418314 31.0108966086592 1.46075613072695 4.17729709687663 96.3644414292267
-3.64650328703809 31.1281093529239 1.7042154858481 4.17729709687663 96.3644414292267
1.70093121403249 31.2805678377353 1.94767484096927 4.17729709687663 96.3644414292267
3.85719573048123 30.8395572822929 4.38226839218084 4.17729709687663 96.3644414292267
14.8349286597459 27.6215787332833 -1.46075613072695 4.17729709687663 96.3644414292267
-4.61681329523104 30.9847079418704 1.94767484096927 4.33201180416836 77.1385129115355
1.69800081121897 31.2266769671087 2.67805290633274 4.33201180416836 77.1385129115355
14.8469992968614 27.6440533983858 -0.730378065363476 4.33201180416836 77.1385129115355
14.954340246178 27.8439145875332 -2.4589394867237 4.02258238958491 12.3918282155291
14.9774045009611 27.8868585843686 -1.72125764070659 4.17729709687663 204.640074358392
14.9832779463433 27.8977945206162 -1.47536369203422 4.33201180416836 162.465745718608
14.9882459870228 27.9070446579054 -1.22946974336185 4.48672651146009 6.85507137354175
14.1031095948958 28.6112145633212 -2.73161396445939 4.02258238958491 5.09501605449397
15.1110848576792 28.1357618708536 -2.23495688001223 4.02258238958491 5.09501605449397
16.8843088061327 27.1962214611606 -0.496657084447161 4.02258238958491 5.09501605449397
15.125695634634 28.1629660951049 -1.73829979556507 4.17729709687663 72.9536260215014
15.1316272329408 28.174010307949 -1.48997125334149 4.33201180416836 56.5833829929699
2.02924815301825 32.6388200799033 4.09011716603545 3.86786768229318 33.1416197639884
3.04387222952737 32.5598720225546 4.09011716603545 3.86786768229318 33.1416197639884
-6.11669167673567 32.2829796826209 2.55632322877216 4.02258238958491 24.2837737026262
0.765765690278 32.899103928129 1.78942626014051 4.02258238958491 24.2837737026262
2.01774553654525 32.453809770074 5.36827878042154 4.02258238958491 24.2837737026262
3.02661830481787 32.3753092229146 5.36827878042154 4.02258238958491 24.2837737026262
16.6156011233283 28.4604275114179 0.255632322877215 4.02258238958491 24.2837737026262
16.7015266882032 28.6076071585669 -3.09680299714113 3.71315297500145 9.78864525050939
16.4919188661776 28.838856666584 -1.80646841499899 3.86786768229318 118.864511111737
16.5038566427467 28.8597318497685 -1.29033458214214 4.02258238958491 89.1975261460937
16.3992478815972 29.2793174803798 -1.3025075498982 3.71315297500145 8.09112028317254
16.6595534035274 29.1319934709928 -1.3025075498982 3.86786768229318 101.416371600929
16.6640700558418 29.1398915870196 -1.04200603991856 4.02258238958491 78.2203827364113
16.8198090283263 29.4122270224123 -1.0517444141234 3.86786768229318 10.3361217629978
16.5525118804907 29.5529559615048 -1.31468051765425 4.02258238958491 8.04944143668237
16.4879024242168 30.6992979476181 4.63546612150685 3.71315297500145 7.71565613875199
-9.80043210321487 34.743972131789 -12.771877769656 3.24900885312627 5.12673337407074
-7.71881282376319 37.4876155716101 1.18808165299125 3.24900885312627 5.12673337407074
-2.91828382933995 37.5097478217119 -7.1284899179475 3.24900885312627 5.12673337407074
1.44152942538968 37.1410072777607 9.2076328106822 3.24900885312627 5.12673337407074
16.7568638790152 34.7478782665799 1.49727503399512 3.09429414583454 6.93654240171804
14.8842062390063 35.3741968281407 4.19237009518634 3.24900885312627 14.9499023201221
16.7568638790152 34.7478782665799 1.49727503399512 3.24900885312627 14.9499023201221
15.0175441243624 35.6910911606631 3.92456480455306 3.24900885312627 10.1365224997479
16.8976785145686 35.039878598485 1.20755840140095 3.24900885312627 10.1365224997479
-18.303834510089 34.8105618675289 6.49306100108128 1.54714707291727 5.50627334691018
-16.5388115491357 35.0626958011043 9.27580143011613 1.54714707291727 5.50627334691018
-11.634266622064 37.7178297288528 -5.56548085806967 1.54714707291727 5.50627334691018
4.64677658193367 39.6668693800979 4.36279164377115 1.39243236562554 15.5929410685874
6.84570217086616 39.5280265634799 2.18139582188557 1.39243236562554 15.5929410685874
4.64267256295953 39.6318357214508 4.67441961832624 1.54714707291727 25.8910714728769
6.84260328387927 39.5101331634929 2.49302379644066 1.54714707291727 25.8910714728769
6.89918421907606 39.8368392710071 2.19843797674405 1.39243236562554 20.0105157986052
6.89918421907606 39.8368392710071 2.19843797674405 1.54714707291727 33.9155087741635
14.9981666480729 37.38704678879 4.08281338538182 3.09429414583454 6.88764389993044
16.3268313579256 37.0398771011741 0.942187704318884 3.09429414583454 6.88764389993044
-6.91564767190846 39.9319015136585 -4.74745742486258 1.54714707291727 7.48021187709166
6.95539278145461 40.1613952466162 1.89898296994503 1.54714707291727 7.48021187709166
10.4289994009289 39.3858973809316 2.21548013160254 1.54714707291727 7.48021187709166
14.3504766974254 39.5229072433353 -0.978706607587058 2.78486473125109 5.20181856469182
14.3543635779435 39.5336121712219 -0 2.93957943854282 7.95522653965893
14.4575698071076 39.8178543123155 -0.986010388240693 2.78486473125109 8.71783387609584
14.4614856941968 39.8286391277235 -0 2.93957943854282 13.2070048434302
14.31153374845 41.5337100622861 1.02252929150887 2.78486473125109 7.5342076432073
14.4172292823957 41.8404506072856 0.343277690720832 2.78486473125109 8.35867378521641
14.216315373099 43.5586866095538 0.710901316953779 2.47543531666763 7.66343901694249
16.6880787644551 42.6254358761117 2.13270395086134 2.47543531666763 7.66343901694249
14.2175986168846 43.5626184591529 0.35545065847689 2.63015002395936 14.889374432013
15.2470894787062 43.0959451251271 3.19905592629202 2.63015002395936 14.889374432013
16.6815370371036 42.6087267040328 2.48815460933823 2.63015002395936 14.889374432013
15.3594088627134 43.4134162081441 2.86308201622482 2.63015002395936 11.8328253618356
-15.7143335137996 44.4166118218467 5.14673076726128 2.47543531666763 7.04510831284095
-2.45279469581017 45.107533003896 -14.337321423085 2.47543531666763 7.04510831284095
-0.724462964751754 46.6939874429847 8.08771977712487 2.47543531666763 7.04510831284095
14.5443751375625 44.5638593350062 6.98484889842603 2.47543531666763 7.04510831284095
14.0584045801101 45.5767885881444 1.11017465935248 2.32072060937591 12.8080400131911
14.0516326604518 45.5548342939113 1.8502910989208 2.47543531666763 44.0744943930553
14.0469750719167 45.5397345770988 2.22034931870496 2.63015002395936 13.4081797292786
14.1530235580818 45.8835395520159 0.744985626670741 2.32072060937591 20.4243893369012
14.1508940839266 45.8766358814874 1.11747844000612 2.47543531666763 98.6354311859103
14.1508940839266 45.8766358814874 1.11747844000612 2.63015002395936 25.0124658626672
14.2468128606179 46.1876007411188 0.374927406886582 2.32072060937591 5.29222903651611
14.24552698003 46.1834319673885 0.749854813773164 2.47543531666763 33.5533233746178
13.8572825415134 46.2528041296517 2.2495644413195 2.63015002395936 6.92601580202775
16.2343505519173 51.1513488508892 0.832630994514358 2.16600590208418 8.74127202228764
16.2358159547951 51.1559660564601 0.416315497257179 2.32072060937591 8.61084132471555
13.7192532129659 53.5425915490738 5.60199976133784 2.16600590208418 7.9291017749203
16.8059992840135 52.9525052089529 -0 2.16600590208418 7.9291017749203
13.6858865384249 55.2465910229208 4.87405628952558 2.01129119479245 9.42526368204488
16.3901136500106 54.7068816736326 1.32928807896153 2.01129119479245 9.42526368204488
13.6659651531698 55.1661732421136 5.76024834216659 2.16600590208418 10.3181112592948
16.3866600111038 54.6953541260481 1.77238410528203 2.16600590208418 10.3181112592948
13.7610837172075 55.5501437208489 4.90083681858891 2.01129119479245 8.75651250067342
16.4766966045714 54.9958780498176 1.78212247948688 2.01129119479245 8.75651250067342
16.4766966045714 54.9958780498176 1.78212247948688 2.16600590208418 9.55231524836781
13.4734226670888 60.5556603244148 7.26726175036657 1.85657648750073 6.41360666393067
16.4600669287772 60.2040886008358 2.42242058345552 1.85657648750073 6.41360666393067
13.4734226670888 60.5556603244148 7.26726175036657 2.01129119479245 7.16828319299704
16.4546110347279 60.1841332063555 2.90690470014663 2.01129119479245 7.16828319299704
4.52616388783087 8.60793993482982 0.301889600350236 0 5.39256301622069
5.73572985297605 7.85936598985226 0.0754724000875587 0.5191085573604 11.1685743772725
-0.0719362682782545 9.27388858333487 -2.9434236034148 0.62293026883248 11.91419326069
4.67315387704489 8.8874881415524 0.233720980916312 0 10.24185203869
5.68293176849298 8.27242329338279 -0.389534968193853 0.20764342294416 6.22907813562688
6.69011803061921 7.47163659279844 0.545348955471394 0.62293026883248 72.6779197367616
6.60933271738338 7.53715537683277 0.623255949110165 0.726751980304561 5.4667474467356
6.89606112203457 7.70163730890101 0.642732697519858 0.5191085573604 221.340546212689
6.4329973590753 8.46593306426289 -0.910537988153131 0.5191085573604 122.098748385269
6.4329973590753 8.46593306426289 -0.910537988153131 0.62293026883248 118.026610449626
6.30388986538869 8.99320796077471 -0.255632322877217 0.5191085573604 5.28078098570503
6.68593210238703 8.62245786043469 -1.27816161438608 0.5191085573604 5.28078098570503
7.22895765963807 8.24376369341084 0.681686194339243 0.5191085573604 5.28078098570503
6.94596291153627 8.42689932714719 -1.19295084009368 1.14203882619288 5.26436349271816
-10.6237013757183 8.21224689856279 -1.36093779512727 1.66114738355328 6.12847888974571
-7.3335441941341 11.1149530696576 -2.19843797674406 1.66114738355328 6.12847888974571
-10.6317701095006 8.21848412527274 -1.25625027242518 1.76496909502536 52.0995862901438
-7.3335441941341 11.1149530696576 -2.19843797674406 1.76496909502536 52.0995862901438
-10.6237013757183 8.21224689856279 -1.36093779512727 1.86879080649744 41.506912777502
-7.3335441941341 11.1149530696576 -2.19843797674406 1.86879080649744 41.506912777502
-1.90714322995852 13.5258032911857 -2.03532020881288 1.66114738355328 33.8761864285027
-1.90931188658821 13.5411837946101 -1.92819809255957 1.76496909502536 306.293002740432
-1.91136105386119 13.5557168579951 -1.82107597630626 1.86879080649744 239.940949865769
-1.95048739427576 13.8332079114399 -2.0815774862859 1.66114738355328 79.6623059039172
-1.95270533855612 13.8489379717603 -1.97202077648138 1.76496909502536 626.885895013358
-1.95270533855612 13.8489379717603 -1.97202077648138 1.86879080649744 456.153987821602
-2.96636867246954 13.849976253385 -2.79978258389332 1.66114738355328 52.9880044575229
-2.95670976705726 13.8048788210141 -3.02376519060478 1.76496909502536 231.645779343653
-1.993831558593 14.1406125316942 -2.12783476375892 1.76496909502536 231.645779343653
-1.993831558593 14.1406125316942 -2.12783476375892 1.86879080649744 126.299529403926
-3.16894001341593 14.2426508677416 -2.17409204123194 1.66114738355328 7.27816444573168
-2.72224150095382 14.367581645603 -1.94524024741805 1.66114738355328 7.27816444573168
-3.17254348832081 14.2588465151075 -2.059666144325 1.76496909502536 33.5543116945757
-2.72224150095382 14.367581645603 -1.94524024741805 1.76496909502536 33.5543116945757
-3.05209669654863 14.2502404244452 -2.28851793813889 1.86879080649744 11.9131275841491
-2.59319359237301 14.3024528448054 -2.51736973195277 1.86879080649744 11.9131275841491
-2.77402651630331 14.6408951763062 -2.22034931870496 1.76496909502536 10.8688102585198
-1.86954284358562 14.9476141853103 -0.233720980916311 1.76496909502536 10.8688102585198
-1.86836112936755 14.9381659887795 -0.584302452290779 1.86879080649744 7.75015525996471
-2.94627143677862 14.9051669126473 -2.38590168018735 1.76496909502536 5.92936457001308
5.63754977502494 22.0018553674962 3.02133059705357 1.5573256720812 19.1701996548389
16.3977161894503 31.1854717427874 7.83939123490129 -0.20764342294416 7.80690311269309
16.4261653725403 31.2395769111603 7.55941297651195 -0.10382171147208 9.96669232803234
18.2045490132405 32.5025131636639 5.55087329676241 -0.20764342294416 9.78148168794962
18.3342262551538 32.7340397045989 5.89171639393203 -0.31146513441624 5.72772440185045
18.3562535883508 32.7733674400278 5.59713057423543 -0.20764342294416 12.8919609028916
20.6079701016485 35.2988516564696 -4.46504457292204 -0.41528684588832 10.14313630902
20.7981275739889 35.6245674050078 -3.85639618511914 -0.41528684588832 25.0813725898058
20.9703100185543 35.9194941997664 -3.56181036542254 -0.41528684588832 9.74573647904343
