VERSION .7
FIELDS x y z velocity SNR
SIZE 4 4 4 4 4
TYPE F F F F F
COUNT 1 1 1 1 1
WIDTH 184
HEIGHT 1
VIEWPOINT 0 0 0 1 0 0 0
POINTS 184
DATA ascii
-0.0242218453618748 3.12263480640816 0.316497161657505 0 6.29913472595037
0.455787957956403 3.05891875144453 -0.535610581266548 0 6.29913472595037
5.73169621442868 5.25834002830173 2.46867786092854 -3.403723560418 5.59343038600634
4.35863710290183 7.62180020967897 2.40050924149462 4.17729709687663 5.55099216320819
4.96063393011197 8.6744915523011 1.01279091730402 3.24900885312627 6.0916975956186
5.04627063330693 9.00964245624416 0.803415871899822 3.24900885312627 6.6488737781125
3.94489213138816 9.37553460901419 3.22827104890655 2.47543531666763 5.2588299622811
5.54450236036889 9.1148989906252 0.248328542223582 4.17729709687663 6.59040296602735
3.44444342575246 9.99616931949338 2.98237710023419 1.85657648750073 10.3929786360754
5.70757595920327 9.38298425505535 0.255632322877217 4.02258238958491 5.26091947085439
6.30483849594631 8.99456128896806 -0.17042154858481 4.02258238958491 5.26091947085439
5.78019639364777 9.31039007966671 0.766896968631648 4.17729709687663 10.1047218444688
-3.72792059046815 10.2671334767595 2.89229713883936 1.85657648750073 7.70154580419401
3.55078626055364 10.304788405712 2.97994250668297 1.85657648750073 7.70154580419401
3.05413405716902 10.8273540851551 -2.88255876463451 2.16600590208418 5.38495621822642
3.51719129860673 10.7766484845829 -2.5222389190552 2.16600590208418 5.38495621822642
4.77198438614665 10.3452956323813 2.25199903487071 2.47543531666763 8.68756007580233
4.34454668123296 10.325364145266 3.06271868742417 2.63015002395936 5.55963309195818
4.84452848306081 10.2705220382189 2.43215895766037 2.63015002395936 5.55963309195818
3.64121599502754 11.1566592497817 2.12783476375892 2.16600590208418 10.8182236105664
3.98700116119105 10.9806719592176 2.40537842859704 2.16600590208418 10.8182236105664
4.6193933428182 10.4797898593415 3.33052397805744 2.16600590208418 10.8182236105664
4.87653820590608 10.5719602832645 2.59040753848912 2.32072060937591 9.77621092616535
4.5306831377171 10.7677409534634 2.40537842859704 2.47543531666763 12.7225341467578
4.91564159328718 10.656733423734 2.12783476375892 2.47543531666763 12.7225341467578
4.51531315361675 10.731212244167 2.59040753848912 2.63015002395936 5.63885925220167
4.11074121543899 11.3214666791034 2.18383041543679 2.16600590208418 15.6156625556423
4.23086156687159 11.3587744221108 1.70908467295053 2.32072060937591 14.6855564608705
4.78284468566701 10.8506038598305 3.03837275191205 2.47543531666763 7.7780595116406
4.8011098513605 11.1466315875599 3.21366348759929 2.16600590208418 10.8055014497696
4.34400239513908 11.6625284272723 1.65552361482387 2.32072060937591 14.0825537123981
5.07255180079092 10.9969027019649 3.31104722964775 2.32072060937591 14.0825537123981
4.83898246122652 10.9779608626606 -3.7005821978416 2.47543531666763 5.97472105097669
-11.2684332111891 9.86543204272772 -1.63604686641418 3.55843826770973 7.14471166502171
-7.48650036005655 12.5622260168149 -3.62267520420283 3.55843826770973 7.14471166502171
-11.2862566415492 9.88103632751959 -1.40232588549787 3.71315297500145 23.1568128342676
-7.70907913798291 12.9357095912999 -0.467441961832624 3.71315297500145 23.1568128342676
-1.54166493890195 15.2108834053532 -1.67013117613114 3.55843826770973 28.5109104249752
-1.54030334510688 15.1974491992948 -1.78942626014051 3.71315297500145 88.5361299186062
-1.54030334510688 15.1974491992948 -1.78942626014051 3.86786768229318 15.1981915396495
-2.28486356321608 15.3343498352858 -2.43459355121158 3.55843826770973 39.5515325258526
-1.69681693494082 15.5330980795489 -1.46075613072695 3.55843826770973 39.5515325258526
-1.69552917533124 15.5213095972992 -1.58248580828753 3.71315297500145 65.6770177309723
-1.57173810725192 15.5076012237702 -1.82594516340869 3.86786768229318 14.3806229312352
3.78709644613264 14.7800288415547 4.84240657335983 1.39243236562554 5.0179002717588
4.50687414247184 15.0430336052003 3.10410677779477 1.39243236562554 5.0179002717588
4.60561941668908 14.9312349972395 3.47659959113014 1.54714707291727 8.51350340615407
-2.45616931131022 15.6410368319915 -2.35912115112402 3.55843826770973 14.0710576106576
-2.45616931131022 15.6410368319915 -2.35912115112402 3.71315297500145 14.6729820223373
-1.23924988450938 15.9285228491796 -0.993314168894326 3.71315297500145 14.6729820223373
3.87118596898122 15.1082078543295 4.81075685719408 1.39243236562554 9.32755961712411
4.46391517568758 15.3501280771988 3.29157048123806 1.39243236562554 9.32755961712411
4.17461939843063 15.7657628416768 -0.632994323315011 1.54714707291727 13.5333608890232
4.57234868818875 15.2615743854326 3.54476821056406 1.54714707291727 13.5333608890232
4.09818472900751 15.4771015875611 4.51617103749748 1.39243236562554 14.1114229516507
5.24947171012935 15.6496751753679 2.06453533142742 1.39243236562554 14.1114229516507
5.25444139547451 15.6644907540909 1.93550187321321 1.54714707291727 20.2439781353049
-3.4754037980294 16.2266614127766 -1.16130112392792 1.701861780209 6.4306348548612
4.90091079037171 15.8885578878666 -0.516133832856856 1.701861780209 6.4306348548612
5.3373945920534 15.9117900354097 2.36642493177765 1.39243236562554 11.9987756895677
5.22300663332947 16.0032542279783 1.97202077648138 1.54714707291727 15.864681278588
5.11180661555766 16.1063297613585 -1.31468051765425 1.701861780209 6.1066116091885
4.88822877008283 16.3159181582853 2.81195555164937 1.54714707291727 5.89913532068267
5.43006058529858 16.1880450138471 2.5441502610161 1.54714707291727 5.89913532068267
6.13213711762992 15.6629784159335 3.88317671418247 1.54714707291727 5.89913532068267
-3.36716735631843 17.0344764715969 -2.72674477735697 1.54714707291727 5.10012913184009
5.01021747419382 16.7230917596298 2.04505858301773 1.54714707291727 5.10012913184009
5.55677032922901 16.5657908983023 1.90872134414988 1.54714707291727 5.10012913184009
6.28621766983884 16.056537841835 3.40843097169621 1.54714707291727 5.10012913184009
5.06598254354039 16.9092242731321 2.91420848080026 1.701861780209 6.16128771925942
-3.41255357081996 17.2640850182617 -4.65981205701896 1.701861780209 6.11838984328966
4.73689785484194 17.3256050160666 2.9653349453757 1.701861780209 6.11838984328966
5.25559243975183 17.0384216905318 3.67136707522706 1.701861780209 6.11838984328966
4.15381574706876 21.0141252640786 3.19175214563838 1.08300295104209 5.37510728525367
5.00538135694074 20.9196479718692 2.51980432550399 1.08300295104209 5.37510728525367
4.53018345651149 21.1514279659403 5.35854040621669 1.08300295104209 8.17325474427517
18.0719622588846 15.075042639947 -0.547783549022607 -3.403723560418 5.95694682973719
18.1279427480367 15.4951053904297 -0.555087329676242 -3.403723560418 10.5973130905553
15.090209660448 23.338738728672 2.8168247387518 4.48672651146009 8.71851416382503
17.1926658378588 22.6258383231287 -2.8801241710833 4.33201180416836 5.94872855553735
15.0052160458275 27.3566558311026 -3.40843097169621 3.55843826770973 18.0757784852726
16.7981901466616 26.5126774180048 -0.243459355121157 3.55843826770973 18.0757784852726
15.0576544708471 27.4522585829195 -2.19113419609042 3.71315297500145 8.78745296168547
15.1418831194024 27.6058194608573 -3.68840923008555 3.55843826770973 15.8959457545719
14.4930641601775 26.4229296637361 9.83575794689479 3.71315297500145 7.39380123266511
6.4534336723266 31.3421048221658 0.993314168894326 0.773573536458636 26.2422584907623
6.95131639210428 31.242362438167 0.744985626670746 0.928288243750363 20.6311263287848
5.25016035586478 31.8010126557493 2.50763135774793 0.618858829166909 5.96705855988874
6.51964539315359 31.6636723472981 0.250763135774792 0.618858829166909 5.96705855988874
6.51670262989843 31.649380359638 1.00305254309917 0.773573536458636 50.6227624116208
6.25983064274871 31.6684401207412 1.75534195042355 0.928288243750363 40.649059878729
6.58135837683823 31.9633910554684 0.759593187978015 0.773573536458636 14.5048614123761
14.8195366004785 29.4189607481605 -1.02252929150887 3.24900885312627 9.42725344422682
16.7723309795637 28.7288859727853 0.516133832856853 3.24900885312627 13.364913625257
-5.88302530308811 33.9693978279905 1.87463703443291 2.93957943854282 7.21459609635391
0.26715193416019 34.4407255411239 2.41024761569947 2.93957943854282 7.21459609635391
2.40763596281121 34.4044418693521 -1.60683174379964 2.93957943854282 7.21459609635391
16.4826492108311 30.6895168390962 -0.540479768368969 2.93957943854282 21.6470648341159
14.841268378245 31.463861650697 1.8916791892914 3.09429414583454 10.71867041481
16.4826492108311 30.6895168390962 -0.540479768368969 3.09429414583454 10.71867041481
16.6311415460638 30.9659989727817 -0.545348955471392 2.93957943854282 17.1195473407486
15.2582825565017 31.6403444378614 1.36337238867849 3.09429414583454 7.86936311227923
16.6311415460638 30.9659989727817 -0.545348955471392 3.09429414583454 7.86936311227923
-8.89223274575147 38.5180861627186 7.16744341476689 2.32072060937591 5.1218721876513
-6.94314337012015 38.2940868502588 9.97209518576263 2.32072060937591 5.1218721876513
-5.44472753458658 38.6149883501525 9.66046721120755 2.32072060937591 5.1218721876513
14.6107821446155 37.3195121017565 2.80465177099574 2.32072060937591 5.1218721876513
15.0200300329541 37.4415472762625 3.45468824916923 2.16600590208418 10.9770437042507
15.993563416949 37.1319058926529 2.19843797674405 2.16600590208418 10.9770437042507
14.7249288801204 37.6110707900515 2.82656311295665 2.32072060937591 12.8820353327141
15.993563416949 37.1319058926529 2.19843797674405 2.32072060937591 12.8820353327141
14.6735313137743 39.3946550920085 1.30494214344941 2.01129119479245 17.1434464250219
14.6695541797999 39.3839775108711 1.63117767931176 2.16600590208418 17.9837424492593
14.4575698071076 39.8178543123155 0.986010388240693 2.01129119479245 24.6801128958173
15.7718943350265 39.3157754069397 0.986010388240693 2.01129119479245 24.6801128958173
14.4575698071076 39.8178543123155 0.986010388240693 2.16600590208418 25.7455184277084
14.561593927301 40.1043490218752 1.3244188918591 2.01129119479245 5.13196501074219
15.8853751934193 39.598657592604 1.3244188918591 2.01129119479245 5.13196501074219
14.5668546562713 40.1188376906148 0.662209445929548 2.16600590208418 5.33657849380681
15.8887231819526 39.6070033729171 0.993314168894327 2.16600590208418 5.33657849380681
-31.6852818491016 29.0685304353242 -0.333539316515985 4.17729709687663 6.19924364906799
-28.3474302259825 32.3268619213564 0.667078633031971 4.17729709687663 6.19924364906799
-27.3098786177239 33.1325693326037 2.3347752156119 4.17729709687663 6.19924364906799
-28.3431650511395 32.3219979983439 1.00061794954796 4.33201180416836 5.12241525925724
-27.3205882891123 33.1455623940073 2.00123589909592 4.33201180416836 5.12241525925724
15.4088701619918 42.4378478135336 2.1034888282468 3.403723560418 6.1711066048706
-7.66896968631648 46.4521053683011 -0 1.701861780209 5.38119248142785
-5.44991520642184 46.5228036713107 4.74745742486258 1.701861780209 5.38119248142785
14.5211768185427 44.4927798547379 5.11264645754432 1.701861780209 5.38119248142785
-15.3838873496439 44.6458030314312 4.04385988856243 1.54714707291727 10.3556457903796
14.3217860454497 45.1252220922429 2.20574175739769 1.54714707291727 10.3556457903796
-15.3488838971997 44.5442190034332 5.14673076726128 1.701861780209 33.2242703171687
-5.48624797446465 46.8329556957861 4.77910714102833 1.701861780209 33.2242703171687
-3.98985159071626 46.5912622796513 7.72009615089192 1.701861780209 33.2242703171687
14.3217860454497 45.1252220922429 2.20574175739769 1.701861780209 33.2242703171687
16.9086518119085 44.2698704141722 0.735247252465895 1.701861780209 33.2242703171687
-14.9560420420666 44.5868104052935 5.88197801972718 1.85657648750073 5.72022007410518
-5.46034270596249 46.6118172606122 6.61722527219307 1.85657648750073 5.72022007410518
-3.97317167256857 46.3964834956407 8.82296702959076 1.85657648750073 5.72022007410518
16.9086518119085 44.2698704141722 0.735247252465895 1.85657648750073 5.72022007410518
17.8742941478357 43.4991547549869 5.88197801972718 1.85657648750073 5.72022007410518
14.0605201361335 45.5836471366432 0.740116439568318 1.54714707291727 30.9835514234003
17.0098711152838 44.5348806286873 1.8502910989208 1.54714707291727 30.9835514234003
14.0605201361335 45.5836471366432 0.740116439568318 1.701861780209 105.269774601852
17.0098711152838 44.5348806286873 1.8502910989208 1.701861780209 105.269774601852
14.0584045801101 45.5767885881444 1.11017465935248 1.85657648750073 18.4829723510246
17.0098711152838 44.5348806286873 1.8502910989208 1.85657648750073 18.4829723510246
14.1543010887957 45.8876812557869 0.372492813335371 1.54714707291727 16.4595535474931
16.7440137413689 44.9533675358621 2.23495688001223 1.54714707291727 16.4595535474931
14.1547269067441 45.8890617406421 -0 1.701861780209 55.4198285433867
16.7374500875048 44.9357458145062 2.6074496933476 1.701861780209 55.4198285433867
14.1543010887957 45.8876812557869 -0.372492813335371 1.85657648750073 11.3885650494383
16.721282424481 44.8923398003134 3.35243532001835 1.85657648750073 11.3885650494383
-25.8297022487154 62.8595571998099 7.96112091246187 1.08300295104209 5.04855042748994
-25.8934264271969 63.0146373321202 6.36889672996949 1.23771765833382 6.49303481187134
4.94207623155407 9.81074851327075 -0.085210774292405 -0.41528684588832 6.06279707126154
6.26949900582331 8.76570016749817 2.13026935731013 -0.41528684588832 6.06279707126154
5.58075576923069 10.1745162742084 -0.450399806974142 -0.41528684588832 21.045053481036
5.48677194589664 10.2159778972439 -0.630559729763799 -0.31146513441624 7.915015100768
4.80530934015367 13.9455580653718 0.228851793813888 -0.934395403248721 5.61265373094696
-11.1816731816882 10.2582267927331 -2.50519676419672 1.45350396060912 26.2584255575951
-7.68553828357713 12.8962084199312 -3.34026235226229 1.45350396060912 26.2584255575951
-13.4787222980906 7.40298337450886 0.238590168018734 1.5573256720812 21.7467974782535
-11.1958314597588 10.2712157993945 -2.38590168018735 1.5573256720812 21.7467974782535
-7.54131922462377 12.9173279702488 -3.57885252028102 1.5573256720812 21.7467974782535
5.69645685301561 14.5501444316309 -1.46075613072695 -0.830573691776641 9.5618755601504
-1.69104012751521 15.4802157005008 -1.94767484096926 1.34968224913704 14.960013016859
-1.5702515469784 15.4929340322003 -1.94767484096926 1.45350396060912 137.10463278035
-1.5702515469784 15.4929340322003 -1.94767484096926 1.5573256720812 98.291675840335
-1.72649385935057 15.8047682686328 -1.86246406667686 1.34968224913704 29.0039976848707
-1.60165657791797 15.8027927128443 -1.98662833778865 1.45350396060912 273.933714751559
-1.60165657791797 15.8027927128443 -1.98662833778865 1.5573256720812 188.176345039164
-2.62954596857918 15.927556294971 -2.40537842859704 1.34968224913704 14.2471700706911
-1.63864035431428 16.1676942530289 -1.51918637595603 1.34968224913704 14.2471700706911
-1.63605258822248 16.1421619811912 -1.77238410528203 1.45350396060912 103.75629603177
-1.634607631542 16.1279052727211 -1.89898296994503 1.5573256720812 48.7485644222243
-1.54611739370415 16.5385997422991 -0.903234207499495 1.45350396060912 25.6389610681595
-1.54541750303523 16.5311131105054 -1.03226766571371 1.5573256720812 12.7922694581801
-1.57590717565825 16.8572568392023 -0.788808310592552 1.5573256720812 8.05122745992797
-1.54047113614338 28.3296652320038 -5.37558256107517 0.10382171147208 18.3976914808348
16.6451809108409 22.8080073676627 -6.04753038120956 0.10382171147208 18.3976914808348
16.6451809108409 22.8080073676627 -6.04753038120956 0.20764342294416 7.0432108537335
18.2448100595841 32.5743954820788 4.96657084447162 -0.62293026883248 7.0349803462592
-21.7182294482538 63.0287892845639 -10.4687522702098 -1.14203882619288 9.43187781742266
