VERSION .7
FIELDS x y z velocity SNR
SIZE 4 4 4 4 4
TYPE F F F F F
COUNT 1 1 1 1 1
WIDTH 249
HEIGHT 1
VIEWPOINT 0 0 0 1 0 0 0
POINTS 249
DATA ascii
5.49288621605271 7.99578135593655 0.75472400087559 4.48672651146009 5.38187465462475
4.38382568409288 9.09052208769972 2.32990602850948 3.24900885312627 5.02637036341774
4.27157567657809 9.05584770068205 2.65127237726941 3.403723560418 8.36655312257228
4.87142713070704 8.69747579720193 2.81195555164938 3.71315297500145 5.63317578296965
4.33003098761569 9.38717460901597 2.6488377837182 3.24900885312627 9.93567282479519
4.70237218293585 9.33490070590768 2.15218069927104 3.24900885312627 9.93567282479519
4.91594659337621 9.55104471729646 2.30069090589494 3.09429414583454 6.76873669246334
4.80655511019977 9.54171914635113 2.55632322877216 3.24900885312627 9.42090106840592
5.34870255533975 9.5496062597877 0.937318517216458 3.55843826770973 5.1583536190956
3.75774597701658 10.3492761129175 3.69327841718797 2.63015002395936 5.52607482136224
4.0927107997627 10.4537846577243 2.97263872602934 2.78486473125109 6.2982772393001
4.51377179177416 10.4795251079226 2.16191907347588 2.78486473125109 6.2982772393001
4.80542884137444 10.4178006425821 1.80159922789657 2.78486473125109 6.2982772393001
-1.75214324214179 11.1577556396736 2.70239884184486 3.71315297500145 5.90430466744306
0.936823293310984 10.9397000805494 3.7833583785828 3.71315297500145 5.90430466744306
5.93853582346926 9.76267132106157 2.07183911208105 3.71315297500145 5.90430466744306
5.94683340933643 9.7763121588013 1.98175915068623 3.86786768229318 5.92005308113997
5.84925072183315 10.2283854621555 1.8502910989208 3.71315297500145 10.7541754240792
6.1075586366158 10.0405368117419 2.03532020881288 3.71315297500145 10.7541754240792
6.09903679167113 10.0265273027119 2.12783476375892 3.86786768229318 10.6480281831623
5.58811231453468 10.4046664332927 1.66526198902872 4.02258238958491 7.21988252688746
5.90190569439485 10.5372985281455 1.99393211844228 3.55843826770973 9.48581849837062
5.98824079576782 10.0481708009934 3.60806764289556 3.55843826770973 9.48581849837062
5.98761443715359 10.4703373772941 2.08888126693954 3.71315297500145 9.80813511108801
6.28457735861432 10.3315471974528 1.89898296994503 3.71315297500145 9.80813511108801
5.86825106945062 10.4772113549081 2.37372871243129 3.86786768229318 6.28411445169526
6.25953775987301 10.2903832843622 2.18383041543679 3.86786768229318 6.28411445169526
5.76237701159002 10.7291348659052 1.23433893046427 4.02258238958491 8.59058445616863
5.86911129934399 10.7002296641531 0.949491484972517 4.17729709687663 6.82110764353805
5.27180689561153 10.9318847235507 3.21366348759929 3.55843826770973 6.31104528818309
5.64520478462482 10.9678985139702 2.33720980916312 3.55843826770973 6.31104528818309
6.05323660963574 10.8074856698928 2.04505858301773 3.55843826770973 6.31104528818309
4.48820248609509 12.3610395868639 3.03593815836084 2.16600590208418 8.29855721298917
4.35159417410077 12.2997942653763 3.45468824916923 2.32072060937591 7.21716779186425
4.79421629196521 12.2456013070026 3.03593815836084 2.63015002395936 5.99524442246495
5.19250017569857 12.0553139313092 3.14062568106294 2.63015002395936 5.99524442246495
-10.9289427610987 8.89274989340612 -0.986010388240691 4.02258238958491 22.8190492250103
-7.52659511855892 11.879267152714 -1.31468051765425 4.02258238958491 22.8190492250103
-10.9345578044946 8.89731878699915 -0.87645367843617 4.17729709687663 13.8202409309477
-7.54484488510125 11.9080708612723 -0.87645367843617 4.17729709687663 13.8202409309477
4.35668049397417 13.3488372559654 3.35973910067198 2.01129119479245 8.15700108692884
-1.77431003602136 14.1861963498547 -2.01584346040319 3.86786768229318 8.78222569771146
-1.7780079055017 14.2157620410018 -1.79186085369172 4.02258238958491 109.214911853912
-1.77969114913449 14.2292201312986 -1.67986955033599 4.17729709687663 53.8375194568836
4.11486873644098 14.1498571633367 0.686555381441665 2.01129119479245 5.80793448199664
-1.81482766730255 14.5101482304825 -1.94524024741805 3.86786768229318 11.8283400054029
-1.81666025127348 14.524800346241 -1.83081435051111 4.02258238958491 45.0541648713506
-1.81838008715915 14.5385510037182 -1.71638845360416 4.17729709687663 26.6415615403985
2.93080770712364 14.2339236806883 3.9732566755773 1.54714707291727 6.93539186539126
-2.18472959701653 14.6623231581492 -2.68779128053758 4.02258238958491 6.96361577838246
-1.85706902518381 14.8478818761377 -1.75290735687234 4.02258238958491 6.96361577838246
2.51408474851713 14.5166713715872 4.4139181083466 1.54714707291727 7.94577982951192
3.13842066020286 14.6532870375668 3.45955743627165 1.54714707291727 7.94577982951192
2.70650800444342 14.9274250952538 4.01707935949911 1.54714707291727 6.47672905993753
3.84051596242433 20.2696662408678 4.0779441982794 1.39243236562554 7.79598307767141
4.86459423421181 20.3312378515539 2.28364875103646 1.39243236562554 7.79598307767141
4.75909595734126 20.6147627241425 2.81439014520059 1.39243236562554 7.40068594107433
4.06646107367042 20.5721985728211 3.9732566755773 1.54714707291727 5.43310814538882
5.07608324337446 20.4909118717044 3.14549486816536 1.54714707291727 5.43310814538882
16.5768089650212 17.0020269733148 -4.499128882639 -3.403723560418 6.83978154677387
-10.698172323643 23.7224833519194 1.21242758850337 1.85657648750073 5.58457657698195
15.0285106234842 24.2070142071334 1.99393211844229 4.64144121875182 7.21345626684782
16.611601672308 23.2255112292248 0.664644039480763 4.64144121875182 7.21345626684782
15.2083497091402 24.4966881083296 1.56787824698026 4.48672651146009 10.1237928179408
15.4082376047294 24.3189075506058 2.23982606711465 4.64144121875182 18.5684338830406
16.7941467456301 23.4807366273482 0.671947820134398 4.64144121875182 18.5684338830406
15.5658160079888 24.567614425405 2.49058920288945 4.64144121875182 7.5450324384539
2.31175037281684 29.7137559545471 0.925145549460402 4.17729709687663 8.8827999478364
-4.90754996441226 29.7257698715167 0.467441961832622 4.02258238958491 15.8049353607913
2.33270566495884 29.9831018337498 1.8697678473305 4.02258238958491 15.8049353607913
14.9468890349404 26.1371156375262 1.16860490458156 4.02258238958491 15.8049353607913
-4.90444796458983 29.7069805910138 1.16860490458156 4.17729709687663 68.5066633006928
2.32868682681459 29.9314462669363 2.57093079007943 4.17729709687663 68.5066633006928
14.9468890349404 26.1371156375262 1.16860490458156 4.17729709687663 68.5066633006928
2.32338829096684 29.8633422869617 3.27209373282837 4.33201180416836 21.5374742168366
14.9419347025375 26.1284521652397 1.40232588549787 4.33201180416836 21.5374742168366
15.1098642024452 26.4221047606246 0.708466723402572 4.02258238958491 42.2291087734786
15.1066803309968 26.4165372330925 0.944622297870094 4.17729709687663 194.091906003556
15.1066803309968 26.4165372330925 0.944622297870094 4.33201180416836 60.9410107719397
15.2656359983467 26.6944975932083 0.715770504056206 4.02258238958491 19.436378605814
15.2624193034813 26.6888726684852 0.954360672074941 4.17729709687663 89.0496006592474
15.2624193034813 26.6888726684852 0.954360672074941 4.33201180416836 30.368537901667
-24.1345355681975 18.1679927588183 8.52107742924053 3.86786768229318 5.12849776892584
-18.7599324137741 24.6883875804881 4.86918710242316 3.86786768229318 5.12849776892584
-16.2522934788101 26.7179998847534 2.67805290633274 3.86786768229318 5.12849776892584
1.4571923681465 31.2767653357746 -2.19113419609042 3.86786768229318 5.12849776892584
2.53901755203823 29.6492313084795 9.98183355996748 3.86786768229318 5.12849776892584
8.98085682695316 29.9762821815238 2.43459355121158 3.86786768229318 5.12849776892584
27.5871658763086 13.9793039157442 5.35610581266548 3.86786768229318 5.12849776892584
-18.9332644595054 25.4250523741468 0.245893948672369 1.85657648750073 5.18335609950373
-6.14438914880266 31.0844223977195 -0.98357579468948 3.71315297500145 42.0048704838906
-4.91551131904213 31.3022775894046 0.98357579468948 3.71315297500145 42.0048704838906
1.47376504390262 31.6324765664541 1.47536369203422 3.71315297500145 42.0048704838906
2.68646313408752 31.3710186053351 3.68840923008555 3.71315297500145 42.0048704838906
-4.9084015033509 31.2570018469779 1.96715158937896 3.86786768229318 53.7192532533664
1.47176429182796 31.5895329891324 2.21304553805133 3.86786768229318 53.7192532533664
2.6812148116664 31.3097316223757 4.18019712743028 3.86786768229318 53.7192532533664
14.8548226435009 28.2511690311519 -2.48328542223581 3.71315297500145 157.482406551557
16.8817683808247 27.1921294980205 -0.744985626670746 3.71315297500145 157.482406551557
14.8633621550943 28.2674096279774 -2.23495688001223 3.86786768229318 206.628184035366
16.6360101472189 27.3488118938825 -0.496657084447161 3.86786768229318 206.628184035366
14.8709986141126 28.2819327831644 -1.98662833778865 4.02258238958491 12.7414152149936
16.6335070811067 27.3446969718756 -0.744985626670746 4.02258238958491 12.7414152149936
14.9909214476189 28.5100041860609 -2.75839449352272 3.71315297500145 123.699132547223
16.8011300969111 27.6202612620962 -0 3.71315297500145 123.699132547223
15.0004581596137 28.5281412765554 -2.50763135774793 3.86786768229318 169.386907705149
16.8011300969111 27.6202612620962 -0 3.86786768229318 169.386907705149
15.0090813919089 28.5445410949184 -2.25686822197314 4.02258238958491 12.3756466530992
15.796176447952 28.2025900538212 0.501526271549584 4.02258238958491 12.3756466530992
15.943777308101 28.4661175323912 1.01279091730402 3.71315297500145 10.0453126934963
15.9495373843399 28.4764016077418 0.506395458652007 3.86786768229318 14.4445935156567
-5.20861942545629 33.1688079898409 0.781504529938919 3.403723560418 9.7504563089591
16.6700903553051 29.1504190795886 -0.521003019959276 3.403723560418 9.7504563089591
-5.20861942545629 33.1688079898409 0.781504529938919 3.55843826770973 14.8556682274528
-3.89575005601617 33.2557862175497 2.60501509979639 3.55843826770973 14.8556682274528
14.5810612988616 30.2360242744991 1.04200603991856 3.55843826770973 14.8556682274528
16.6700903553051 29.1504190795886 -0.521003019959276 3.55843826770973 14.8556682274528
16.5629811298914 29.5716478234242 -0.525872207061699 3.403723560418 19.6193092775519
16.5604890517778 29.5671984519165 -0.788808310592554 3.55843826770973 30.9986640845975
16.7163420662793 29.8454593773448 -0.530741394164123 3.403723560418 6.27590879322791
16.7138269133684 29.8409688079528 -0.796112091246189 3.55843826770973 9.93315418939082
-6.23442524742767 34.3852357872757 3.81744268829976 3.09429414583454 6.63831720912417
0 34.9458509456031 3.81744268829976 3.09429414583454 6.63831720912417
2.4212946438543 34.5996205862417 5.72616403244964 3.09429414583454 6.63831720912417
3.74498073947846 34.2825156529742 6.81686194339242 3.09429414583454 6.63831720912417
-6.2289190219707 34.3548668513879 4.09011716603546 3.24900885312627 15.1691548443232
-4.82940226708916 34.2509907240029 6.27151298792103 3.24900885312627 15.1691548443232
0 34.9458509456031 3.81744268829976 3.24900885312627 15.1691548443232
3.75620176329157 34.3852357872757 6.27151298792103 3.24900885312627 15.1691548443232
14.7913956242984 32.0666096463158 3.3013088554429 3.09429414583454 21.5223887240492
16.4941255951979 31.3688248856243 1.37554535643454 3.09429414583454 21.5223887240492
14.7913956242984 32.0666096463158 3.3013088554429 3.24900885312627 54.6526597501201
16.4941255951979 31.3688248856243 1.37554535643454 3.24900885312627 54.6526597501201
14.8017156429402 32.0889826540925 3.02619978415599 3.403723560418 10.8097516254759
16.2270400511762 31.5270278499309 0.825327213860728 3.403723560418 10.8097516254759
14.9222929307081 32.3503849529204 3.33052397805744 3.09429414583454 18.5893879509056
16.3627564532893 31.7907071639412 1.3877183241906 3.09429414583454 18.5893879509056
14.9222929307081 32.3503849529204 3.33052397805744 3.24900885312627 46.0519212730661
16.3627564532893 31.7907071639412 1.3877183241906 3.24900885312627 46.0519212730661
14.9327042769485 32.3729559519163 3.05298031321932 3.403723560418 8.63345855558363
16.3706421755229 31.8060280963905 0.832630994514363 3.403723560418 8.63345855558363
18.117860684606 30.4014759787529 5.27332963192428 3.403723560418 8.63345855558363
-16.5900215753357 32.2322537312435 3.38895422328652 1.08300295104209 7.57598939481179
5.31328711873789 35.6589359494896 5.08343133492978 1.08300295104209 7.57598939481179
5.09693306330849 36.1483673169899 3.98786423688457 1.08300295104209 35.5025364070835
5.08761501221003 36.0822820202827 4.55755912786808 1.23771765833382 25.362099148514
6.83304741775757 36.0637976566407 1.13938978196702 1.23771765833382 25.362099148514
5.13595652277397 36.4251287202135 4.3092305856445 1.08300295104209 48.1531415406998
6.8845982059279 36.3358749714832 2.01097427330076 1.08300295104209 48.1531415406998
5.12042733221383 36.3149929037271 5.17107670277339 1.23771765833382 35.7876049566798
6.88148171162858 36.3194265828013 2.29825631234373 1.23771765833382 35.7876049566798
-13.4263349858529 40.0264622664474 3.6153714235492 2.47543531666763 8.60860077303386
14.4262044446503 39.7314704006732 2.95803116472207 2.47543531666763 8.60860077303386
15.7642970290387 39.2968370365976 1.64335064706782 2.47543531666763 8.60860077303386
14.5528218196589 40.0801896016706 1.98662833778865 2.32072060937591 11.515063819996
14.5471171130906 40.0644781662039 2.31773306075342 2.47543531666763 25.6306300489738
14.6686644708841 40.3992339411537 1.33415726606395 2.32072060937591 5.9643744062091
14.6598278624505 40.3748968781535 2.00123589909592 2.47543531666763 12.1587555958874
16.9592558513302 39.3739328668723 3.33539316515987 2.47543531666763 12.1587555958874
-15.4247089041711 41.4113735937606 2.40294383504583 2.32072060937591 16.8041648238738
-4.11139373448996 43.978999029835 2.74622152576667 2.32072060937591 16.8041648238738
14.7538342214616 41.701757629305 1.37311076288333 2.32072060937591 16.8041648238738
14.1737772512846 42.2547300450464 0.345712284272043 2.16600590208418 30.6927438541789
14.1737772512846 42.2547300450464 0.345712284272043 2.32072060937591 98.218470212717
14.1737772512846 42.2547300450464 0.345712284272043 2.47543531666763 20.7859146416598
14.2740219907535 42.5535787097035 -0 2.16600590208418 30.9237628522726
14.2735925840401 42.5522985664904 0.348146877823255 2.32072060937591 143.911712839228
14.2723042863835 42.5484579057593 0.69629375564651 2.47543531666763 31.0034677826979
14.3734079167957 42.8498670879344 0.350581471374466 2.32072060937591 25.5181111085021
14.3734079167957 42.8498670879344 0.350581471374466 2.47543531666763 6.31604217053566
14.4127938231726 44.1606951474679 -0 2.16600590208418 13.6491854900989
15.4820966501238 43.7601936151469 1.80159922789657 2.16600590208418 13.6491854900989
16.9023964640143 43.1728557132671 2.88255876463451 2.16600590208418 13.6491854900989
14.3915329728436 44.0955520571365 2.52223891905519 2.32072060937591 6.13714005092353
15.4708979458069 43.7285404430848 2.52223891905519 2.32072060937591 6.13714005092353
16.9023964640143 43.1728557132671 2.88255876463451 2.32072060937591 6.13714005092353
14.1406120173039 44.5543772107817 1.4510177565221 2.16600590208418 17.9804668715859
15.5815390037691 44.0412677323937 2.17652663478315 2.16600590208418 17.9804668715859
17.0078635902165 43.4422445559509 3.26478995217473 2.16600590208418 17.9804668715859
14.1320935150464 44.5275370314185 2.17652663478315 2.32072060937591 8.11246269988645
15.5683804118659 44.0040749320644 2.90203551304421 2.32072060937591 8.11246269988645
13.8217266033224 46.1341256052103 4.12420147575242 2.01129119479245 8.73898789073371
-9.59748634670451 44.810666734618 15.3720236823499 2.16600590208418 6.28640740106522
14.2124828973222 46.0763043653136 3.37434666197925 2.16600590208418 6.28640740106522
-9.63293730345569 44.9761872627035 -15.8492040183874 2.01129119479245 9.46102682404999
13.9114780747726 46.4336978493999 4.15098200481574 2.01129119479245 9.46102682404999
16.5994320007532 45.7167956919178 -1.13208600131339 2.01129119479245 9.46102682404999
13.9203280817774 46.4632373813619 3.77362000437795 2.16600590208418 7.6644936697211
16.5994320007532 45.7167956919178 -1.13208600131339 2.16600590208418 7.6644936697211
13.9890467342064 48.1043323174062 -3.50581471374468 1.85657648750073 14.5086798461097
16.7479879737879 47.3382393198822 0.779069936387703 1.85657648750073 14.5086798461097
14.0080637836289 48.1697265134867 -2.33720980916312 2.01129119479245 18.7854556014339
16.7479879737879 47.3382393198822 0.779069936387703 2.01129119479245 18.7854556014339
14.8585048472004 48.1706818364642 3.52772605570558 1.85657648750073 12.1124863881231
16.8526628986241 47.6341033156314 0.783939123490126 1.85657648750073 12.1124863881231
14.8661388106439 48.1954308423682 3.13575649396052 2.01129119479245 16.5383568738523
16.8526628986241 47.6341033156314 0.783939123490126 2.01129119479245 16.5383568738523
-20.8888126693954 47.3894191164204 -0 1.85657648750073 9.79816554415147
-8.0302907687322 51.1373841807105 1.60683174379964 1.85657648750073 9.79816554415147
14.032682515768 49.7479218392987 3.21366348759929 1.85657648750073 9.79816554415147
14.0934067331174 49.9631981141704 4.44556782451235 1.701861780209 6.17041526500802
16.569843709546 49.3978606000754 -0 1.701861780209 6.17041526500802
14.1023724769183 49.9949829936001 4.04142529501122 1.85657648750073 38.9195818084758
16.9734756090616 49.2589702185064 -0.404142529501121 1.85657648750073 38.9195818084758
13.740432635907 50.2567958809275 -0.404142529501121 2.01129119479245 17.0895014506025
16.9739862390471 49.2604521252079 -0 2.01129119479245 17.0895014506025
14.1783067736784 50.2641812353401 4.47234835357567 1.701861780209 5.57035238929485
16.6676560547276 49.6894578339986 -0.813154246104665 1.701861780209 5.57035238929485
16.6691605701728 49.6939430811461 0.406577123052333 1.85657648750073 32.7015102240516
16.6676560547276 49.6894578339986 0.813154246104665 2.01129119479245 14.0235922749404
13.8037795201176 52.131007275725 2.51250054485035 1.701861780209 7.11223827338622
16.7479879737879 51.3157129920771 0.837500181616781 1.701861780209 7.11223827338622
14.1533070058063 51.7669188502926 5.86250127131749 1.85657648750073 12.0462351742474
16.7479879737879 51.3157129920771 0.837500181616781 1.85657648750073 12.0462351742474
5.18539689228448 7.54818107706124 -2.19113419609042 -0.10382171147208 6.41710293798196
-0.628479370775458 10.1085838497183 -2.16922285412952 0.10382171147208 6.06456745757525
5.21213922014241 8.9277366105047 -0.642732697519858 0.10382171147208 6.06456745757525
-1.81910272745736 10.5037495260381 -0.496657084447162 -0.20764342294416 8.21591493016933
5.21348729407821 9.30819210523298 -0.248328542223582 -0.20764342294416 8.21591493016933
5.68244492189584 8.96863458768172 -1.07609034963552 0 6.5045981994044
5.19770086422066 9.67774816758608 -0.085210774292405 -0.20764342294416 10.8399633092201
5.09587242384024 9.48815087677556 3.41816934590106 -0.31146513441624 7.05825962836124
5.34572406837764 9.95335681267983 -0.175290735687233 -0.20764342294416 6.23064868958696
5.80867297231862 10.815334641693 2.62936103530851 -0.41528684588832 6.51924003929248
-7.46789617240622 11.7866222778474 -2.19113419609042 1.66114738355328 6.65075179809293
-1.85685283043761 13.9587548630794 -1.09556709804521 1.66114738355328 6.65075179809293
-11.150511286754 9.07303755031618 -1.34389564026879 1.5573256720812 15.8124443534412
-7.59232202813524 11.9830043015417 -2.68779128053758 1.5573256720812 15.8124443534412
-1.66846045231358 14.2426909623964 -1.67986955033599 1.5573256720812 15.8124443534412
-11.150511286754 9.07303755031618 -1.34389564026879 1.66114738355328 54.469301999917
-7.5807199407555 11.9646926621693 -2.79978258389332 1.66114738355328 54.469301999917
-1.66993533413241 14.2552811834727 -1.56787824698026 1.66114738355328 54.469301999917
-11.1582910451532 9.07936784659352 -1.23190433691306 1.76496909502536 16.2380235906967
-7.5807199407555 11.9646926621693 -2.79978258389332 1.76496909502536 16.2380235906967
-1.66993533413241 14.2552811834727 -1.56787824698026 1.76496909502536 16.2380235906967
-1.81998749459069 14.5514027584708 -1.60196255669722 1.5573256720812 57.2345962937756
-1.81998749459069 14.5514027584708 -1.60196255669722 1.66114738355328 206.836192785163
-1.81998749459069 14.5514027584708 -1.60196255669722 1.76496909502536 65.4846353943582
-1.86023772379199 14.8732166709123 -1.51918637595602 1.5573256720812 40.9337883149095
-1.86023772379199 14.8732166709123 -1.51918637595602 1.66114738355328 138.342029300889
-1.86023772379199 14.8732166709123 -1.51918637595602 1.76496909502536 46.2098660627118
-2.84363694481271 15.0082885595324 -1.78942626014051 1.5573256720812 9.74224559285884
-1.29635943218259 15.1381626459635 -2.38590168018735 1.66114738355328 29.0594206932464
-1.29472005261653 15.1190188854497 -2.50519676419672 1.76496909502536 12.1755887690251
-1.44644839893046 15.472454559539 -2.19113419609042 1.66114738355328 7.80519041023693
15.8592444494169 10.9790490880018 -6.64644039480761 2.28407765238576 7.60725119386134
16.6752256127347 21.9448782564379 -4.55025534721444 0.41528684588832 20.9832574453824
16.6875032621371 22.4092704848144 -4.1631549725718 0.31146513441624 14.9822777081075
16.6875032621371 22.4092704848144 -4.1631549725718 0.41528684588832 25.8811074965827
