VERSION .7
FIELDS x y z velocity SNR
SIZE 4 4 4 4 4
TYPE F F F F F
COUNT 1 1 1 1 1
WIDTH 202
HEIGHT 1
VIEWPOINT 0 0 0 1 0 0 0
POINTS 202
DATA ascii
-0.969443065323689 2.81343480753129 -0.998183355996748 0 5.65941790696209
-0.496264228412839 3.00594723563503 -0.75472400087559 0 5.65941790696209
-8.86428152684359 7.94568568399141 -0.740116439568321 1.23771765833382 6.52180358890616
-8.50211649089696 8.3464407714724 -0.55508732967624 1.23771765833382 6.52180358890616
-7.93228111094133 8.85890526020924 0.925145549460401 1.23771765833382 6.52180358890616
-8.31728787152964 8.5306377744331 0.55508732967624 1.39243236562554 5.42308932595
-7.85521632311133 8.95793697754144 -0.55508732967624 1.39243236562554 5.42308932595
-8.31728787152964 8.5306377744331 0.55508732967624 1.54714707291727 7.71532708946151
-7.53906210577248 13.7447889245337 0.730378065363474 -1.701861780209 5.29609858266261
-7.18118670387707 13.9521115677702 -0.243459355121157 -1.701861780209 5.29609858266261
-7.18118670387707 13.9521115677702 -0.243459355121157 -1.54714707291727 6.38792531938376
-7.69610029125831 14.0310920060459 0.372492813335373 -1.701861780209 7.71523496342446
-7.19957769182229 14.292221088223 -0.372492813335373 -1.701861780209 7.71523496342446
-7.19957769182229 14.292221088223 -0.372492813335373 -1.54714707291727 8.93719108837694
-11.4836323075077 12.0349961303407 -0.129033458214213 0.464144121875182 6.61534347279227
-6.11200111959961 14.8742591100477 4.25810412106905 0.464144121875182 6.61534347279227
-5.65769710852896 15.1894606308114 3.7419702882122 0.464144121875182 6.61534347279227
-2.08362980146591 16.6593103143831 4.01707935949911 -0.464144121875182 5.18087246345619
6.95958533290124 15.7888680145311 0.535610581266548 -0.464144121875182 5.18087246345619
8.20145763217559 14.9524307461862 2.67805290633274 -0.464144121875182 5.18087246345619
-7.77028744365275 15.7637122347464 0.272674477735696 -2.01129119479245 5.53308145014398
8.48725155394607 15.8026568515038 3.10654137134598 0.464144121875182 5.45400598789621
-3.7841160935737 18.3781486393232 1.60683174379964 -1.08300295104209 8.33172728584035
0.690533140032666 17.7915871350009 -6.13517574905318 -1.08300295104209 8.33172728584035
-3.76860371274817 18.3028103480257 2.33720980916312 -0.928288243750363 6.91143065437157
0.694333958488223 17.8895152268129 -5.84302452290779 -0.928288243750363 6.91143065437157
-7.42528694888665 17.6471326597848 0.148510206623906 -2.47543531666763 8.12111157456067
-7.42349964843069 17.642884914416 0.44553061987172 -2.32072060937591 5.55777453983886
7.39843210602551 17.5833087324685 1.63361227286297 -1.23771765833382 5.11712309839495
8.29628188264739 17.2035886311923 1.33659185961516 -0.928288243750363 40.7226868827503
-11.4339098129188 15.3543387331065 -0.297020413247812 0 6.9537956612094
9.87325857307807 16.2311689584966 2.3761633059825 0 6.9537956612094
-7.94574064681511 17.6191497491746 -2.26417200262677 -2.47543531666763 7.4743614617403
-7.9998337423087 17.7390975793722 -0.150944800175117 -2.32072060937591 7.78304989586086
-8.43661882160114 17.4945983873303 1.20755840140095 -2.16600590208418 9.45128247145227
-7.69818480893102 17.8727070645527 -0 -2.16600590208418 9.45128247145227
7.51447499759505 17.8590993269398 1.81133760210142 -1.23771765833382 6.43023377067099
8.29796712768993 17.5918986863939 0.603779200700473 -1.23771765833382 6.43023377067099
8.43228650367439 17.4856146743266 1.35850320157606 -1.08300295104209 53.5181223660982
8.4274418657247 17.4755685886785 1.50944800175118 -0.928288243750363 41.2166651154328
14.6398836735989 12.8171126179207 0.301889600350235 -0.154714707291727 7.4795213003646
15.8434314629516 10.9681020624241 2.71700640315212 -0.154714707291727 7.4795213003646
16.7402294702885 9.54349520118714 2.71700640315212 -0.154714707291727 7.4795213003646
-12.0755840140094 15.2602745023924 -0 0 15.4036891693352
-11.4686984732477 15.7149484091802 -0.452834400525355 0 15.4036891693352
-11.9246392138343 15.3785138029542 -0 0.154714707291727 11.0189842372471
-7.66896968631648 18.226275475938 -0 -2.47543531666763 6.02873278149773
-8.12690666429839 18.0208733056537 0.46013818117899 -2.32072060937591 6.70427838757287
-7.82140775578204 18.1587910814165 0.306758787452658 -2.32072060937591 6.70427838757287
-8.73841640924767 17.7277716766178 0.613517574905319 -2.16600590208418 6.09790631600286
-7.82211375959764 18.1604301950123 -0.153379393726329 -2.16600590208418 6.09790631600286
8.42620666382653 17.4730072117107 -3.83448484315824 -1.08300295104209 6.7201231027946
-11.9635927106537 15.7442898610262 -0 -0.154714707291727 29.0284521308353
-12.11697210438 15.6265543481631 -0 0 34.6295957427768
-11.8102133169274 15.8596681927174 -0 0.154714707291727 23.5323878187109
-12.4102690083087 15.3671249208405 0.920276362357977 0.309429414583454 10.3797750215423
-7.94627429546427 18.4486909917585 -0.155813987277541 -2.47543531666763 5.60304881133679
-8.56564348664767 18.1593792891808 -0.623255949110165 -2.32072060937591 5.38784710764405
-8.10013338687782 18.3763731354662 0.467441961832625 -2.32072060937591 5.38784710764405
-11.9973160931519 16.1109242766871 -0.155813987277541 -0.154714707291727 23.7315749397223
-11.9976770203707 16.1114089576811 -0 0 23.3120282356011
-11.9973160931519 16.1109242766871 -0.155813987277541 0.154714707291727 15.9297957019678
-12.4591177987603 15.7449575479038 0.623255949110165 0.309429414583454 10.8351986121054
-12.6899716720894 15.3955779935766 -2.33720980916312 1.39243236562554 10.7427512827778
-11.9846767926603 16.09395124609 -0.934883923665246 1.39243236562554 10.7427512827778
-7.60473794293347 18.073620621755 -4.36279164377115 1.39243236562554 10.7427512827778
-12.5717773302004 15.2521836459789 -3.58372170738345 1.54714707291727 7.7543583736564
-11.9267265602964 16.0161311904891 -2.18139582188558 1.54714707291727 7.7543583736564
-7.8076052614472 18.1267461326228 -3.73953569466099 1.54714707291727 7.7543583736564
17.6577510113479 9.32561493823756 2.18139582188558 1.54714707291727 7.7543583736564
0.466447005509255 20.0396657959989 -3.79796593989006 1.23771765833382 9.25831802053729
-12.7062070057818 15.7335727531114 -2.6902258740888 1.39243236562554 59.2967250549453
0.466447005509255 20.0396657959989 -3.79796593989006 1.39243236562554 59.2967250549453
-12.7190375305251 15.749460263398 -2.53197729326004 1.54714707291727 41.2156342601214
0.466447005509255 20.0396657959989 -3.79796593989006 1.54714707291727 41.2156342601214
0.474316294089115 20.3777490323154 -3.69571301073918 1.23771765833382 25.9258603591462
0.474316294089115 20.3777490323154 -3.69571301073918 1.39243236562554 166.151671446525
0.474316294089115 20.3777490323154 -3.69571301073918 1.54714707291727 115.329582067695
-0.324572727849122 20.9197648684712 -2.12053098310528 1.23771765833382 18.4117450421138
0.32187845463936 20.7461102228293 -3.42547312655469 1.23771765833382 18.4117450421138
0.32187845463936 20.7461102228293 -3.42547312655469 1.39243236562554 140.877362237538
0.482175681838091 20.7154069055365 -3.58859089448587 1.54714707291727 83.9084417608249
-0.496283424988258 21.3215088946714 -0.827761807411938 1.39243236562554 19.9256295944733
-0.496283424988258 21.3215088946714 -0.827761807411938 1.54714707291727 15.8903884378633
0.500064723422355 21.4839624124327 -2.68779128053758 1.39243236562554 9.9722109281466
0.500064723422355 21.4839624124327 -2.68779128053758 1.54714707291727 6.02559959255226
7.20444556044422 22.0743686480678 -0.540479768368972 -1.85657648750073 8.37045524215379
8.4307561424631 21.5342137588137 2.16191907347588 -1.85657648750073 8.37045524215379
7.30290173275634 22.3760376418941 -0.365189032681736 -1.85657648750073 8.78689715714103
8.54468527952341 21.8252166474463 2.19113419609042 -1.85657648750073 8.78689715714103
15.9207161633441 18.5363031686558 1.51918637595603 3.55843826770973 5.75478496879602
7.20444556044421 24.0469809554429 0.584302452290781 -2.16600590208418 6.1371410312332
-6.78211670132496 24.0436004437068 2.53197729326004 -2.01129119479245 6.88171120852118
7.47923753827428 24.2473906722474 1.57761662118511 -2.16600590208418 7.30832349298325
7.29450112994977 24.347568217386 0.591606232944415 -2.01129119479245 14.5515327867978
8.08309584670109 24.0972485227701 -0.591606232944415 -2.01129119479245 14.5515327867978
8.67584725851453 23.8943077422044 -0.394404155296275 -2.01129119479245 14.5515327867978
7.58596528941994 24.5933977972191 -0.199636671199349 -2.16600590208418 6.32370685157968
8.18411854184227 24.3984164214844 0.399273342398698 -2.16600590208418 6.32370685157968
8.98121760744566 24.1122578052814 -0.59891001359805 -2.16600590208418 6.32370685157968
7.38566795239425 24.6518646166991 -0.399273342398698 -2.01129119479245 12.3045722549759
8.18485728595309 24.4006187584071 -0.199636671199349 -2.01129119479245 12.3045722549759
8.78374928248624 24.1914826566494 -0.199636671199349 -2.01129119479245 12.3045722549759
9.01772662211007 28.4131403233143 0.693859162095302 -2.47543531666763 5.18764310135989
6.71152057103733 29.0719929436831 4.20697765649361 -2.63015002395936 6.50701803556469
-6.61012750755476 27.626574409853 -10.0500021794014 -2.47543531666763 8.02413193327342
6.94295231486621 29.0175928575495 -4.20697765649361 -2.47543531666763 8.02413193327342
6.80199891646101 29.4639139386159 3.54233361701285 -2.63015002395936 5.84470238025674
-6.47489907637296 28.0470302172196 -9.91853412763598 -2.47543531666763 6.8528143604811
6.96082454375348 29.0922886120051 5.66773378722056 -2.47543531666763 6.8528143604811
8.70589273066412 29.0585076863987 2.59771131914276 -2.47543531666763 6.8528143604811
15.5867574903665 26.6981482282818 3.1333219004093 0.464144121875182 10.6200908607172
15.3469612212839 26.8367082399315 3.1333219004093 0.618858829166909 10.9101092141726
15.5344550520271 27.1645723141213 2.43459355121158 0.464144121875182 18.7498332800913
15.5137548337446 27.1283745476358 2.9215122614539 0.618858829166909 14.7498005770508
10.0037102400578 29.8229659002295 -3.93430317875791 -2.16600590208418 6.65732793070646
15.6988191128316 27.4519901476154 2.21304553805133 0.464144121875182 5.461186484872
-12.1589439122123 29.5901912836412 1.24164271111791 -2.63015002395936 17.4442971468637
-12.1549136789196 29.5803832464541 1.48997125334149 -2.47543531666763 9.60219560328337
10.0925655647065 30.0878605496606 -4.22158521780088 -2.16600590208418 7.09070514507385
-12.2814780332701 29.8883921888393 1.00305254309917 -2.63015002395936 5.54805148999821
7.22359209446235 46.0002775413303 4.3530532695663 -3.09429414583454 9.80438110718952
9.42451955100248 45.7716457105196 1.81377219565263 -3.09429414583454 9.80438110718952
-23.092811032578 47.8864179112917 4.55268994076566 -3.24900885312627 7.30724883228817
-14.0448320244397 51.3701624204781 3.31104722964775 -3.24900885312627 7.30724883228817
-10.117565628014 51.1846948494661 11.1747844000612 -3.24900885312627 7.30724883228817
-23.0591967845048 47.8167137107623 5.38045174817759 -3.09429414583454 16.2791167533493
-14.0376198131446 51.3437831469492 3.72492813335372 -3.09429414583454 16.2791167533493
-10.166152684176 51.4304964320527 9.93314168894324 -3.09429414583454 16.2791167533493
8.2838711137612 52.7521993720753 5.41210146434334 -3.24900885312627 16.5063213740348
8.26976050277166 52.6623421357712 6.24473245885771 -3.09429414583454 28.6716082448599
8.25360455076426 52.5594600424073 7.07736345337206 -2.93957943854282 26.5705812316474
8.32547470929783 53.0171336203517 5.86250127131749 -3.24900885312627 20.1030264021934
10.4608761149485 52.9215002390662 2.09375045404196 -3.24900885312627 20.1030264021934
8.31812167530249 52.9703090488458 6.28125136212588 -3.09429414583454 37.7701911766486
10.8793111595465 52.8370675316066 2.09375045404196 -3.09429414583454 37.7701911766486
8.31025434093188 52.9202093810038 6.70000145293427 -2.93957943854282 43.9431544561076
10.8757050764563 52.8195540279512 2.51250054485035 -2.93957943854282 43.9431544561076
8.35856977314659 53.2278850169399 6.73895494975365 -3.09429414583454 9.30204312891191
10.5216951621285 53.229183379991 2.10592342179802 -3.09429414583454 9.30204312891191
8.36648284783332 53.2782759619205 6.31777026539405 -2.93957943854282 11.6484633247917
10.5245477499293 53.2436146020345 1.68473873743842 -2.93957943854282 11.6484633247917
8.14638019520246 57.7755956263001 6.37376591707192 -3.24900885312627 11.9978010279563
10.9146163647442 57.6057053336194 2.73161396445939 -3.24900885312627 11.9978010279563
8.14638019520246 57.7755956263001 6.37376591707192 -3.09429414583454 12.3799537205389
10.9146163647442 57.6057053336194 2.73161396445939 -3.09429414583454 12.3799537205389
8.18271039221616 58.0332559271198 6.86555381441666 -3.24900885312627 13.0969808460503
10.9637166253065 57.8648491319207 3.66162870102222 -3.24900885312627 13.0969808460503
8.18271039221616 58.0332559271198 6.86555381441666 -3.09429414583454 15.1359498392466
10.9637166253065 57.8648491319207 3.66162870102222 -3.09429414583454 15.1359498392466
-27.0421474105789 53.6826416820687 7.51802488614136 -3.24900885312627 11.8884092274944
-19.5624907861097 56.7725887866085 7.98790144152519 -3.24900885312627 11.8884092274944
-17.2336228353823 57.5223445911045 7.98790144152519 -3.24900885312627 11.8884092274944
-12.7182341356628 57.1615012217221 15.5059263276666 -3.24900885312627 11.8884092274944
8.36542371322716 59.3290917090646 8.92765455229287 -3.24900885312627 11.8884092274944
8.41832968177527 59.7043103671446 8.50160068083084 -3.403723560418 8.03315457696564
11.3187462029662 59.7386419022689 3.30617804254532 -3.403723560418 8.03315457696564
8.42736464656981 59.7683879647965 8.02928953189579 -3.24900885312627 19.4846893552311
11.3187462029662 59.7386419022689 3.30617804254532 -3.24900885312627 19.4846893552311
8.42736464656981 59.7683879647965 8.02928953189579 -3.09429414583454 9.78674343743433
11.3187462029662 59.7386419022689 3.30617804254532 -3.09429414583454 9.78674343743433
-34.1443705981689 53.8902509976626 5.46322792891879 -3.403723560418 5.32163271242612
-29.1534130775526 56.6412890532009 6.45654209781311 -3.403723560418 5.32163271242612
-26.8386430862248 56.8985973055537 11.9197700267319 -3.403723560418 5.32163271242612
-18.7081703150656 60.6511441936372 8.44317043560176 -3.403723560418 5.32163271242612
-13.9523220712061 60.4366483733216 15.8930267023092 -3.403723560418 5.32163271242612
-34.0044011927201 53.6693365025501 7.9465133511546 -3.24900885312627 5.09867310778322
-29.0762271068186 56.4913267531586 7.9465133511546 -3.24900885312627 5.09867310778322
-18.7081703150656 60.6511441936372 8.44317043560176 -3.24900885312627 5.09867310778322
-13.5246516204242 60.7859064299222 14.8997125334149 -3.24900885312627 5.09867310778322
7.94476527869495 63.5210295320213 6.48819181397886 -3.403723560418 22.9841273268096
10.4730399243845 63.4367814703941 2.49545838999187 -3.403723560418 22.9841273268096
7.93824332747002 63.4688843720534 6.98728349197724 -3.24900885312627 23.2174123153625
10.4695685049518 63.4157545596273 2.99455006799024 -3.24900885312627 23.2174123153625
7.93824332747002 63.4688843720534 6.98728349197724 -3.09429414583454 12.9830849433136
9.96259711076172 63.4424294913907 3.992733423987 -3.09429414583454 12.9830849433136
11.4621753322564 63.2182736648175 3.49364174598861 -3.09429414583454 12.9830849433136
11.0066596873999 63.5539679699033 4.51373644394627 -3.403723560418 28.8005495183934
11.0066596873999 63.5539679699033 4.51373644394627 -3.24900885312627 24.8686315488268
10.5206395708296 63.7250997038206 3.00915762929751 -3.09429414583454 8.69055151577638
0.0728177580563772 3.12842298959674 -0.243459355121158 0 5.82159505125453
7.01230483917468 5.99386284605293 -3.09436840358992 0.62293026883248 7.49819329491243
7.18945531576494 8.90240637621903 1.98175915068623 -0.5191085573604 5.73832301898069
9.99127135679699 14.8402794708684 -0.13877183241906 -1.97261251796952 9.57347108581588
9.30261873003535 15.9342117126783 1.58005121473632 -1.76496909502536 15.9578069162402
-7.68664966302951 18.2682941745586 -3.27209373282836 0.62293026883248 5.16693774632913
0.467782377902625 20.0970365501474 -3.48146877823256 0.5191085573604 14.180039025168
0.468405213840862 20.1237950541159 -3.32322019740381 0.62293026883248 35.6647382208514
0.468998310344353 20.149275881679 -3.16497161657506 0.726751980304561 10.6627694423413
0.474316294089115 20.3777490323154 -3.69571301073918 0.5191085573604 57.7978296050832
0.474979029870358 20.4062217278419 -3.53502983635921 0.62293026883248 137.667495261598
0.475611447899952 20.4333919011023 -3.37434666197925 0.726751980304561 38.2162091271992
0.32187845463936 20.7461102228293 -3.42547312655469 0.5191085573604 49.4691918686272
0.482175681838091 20.7154069055365 -3.58859089448587 0.62293026883248 191.60759688144
0.482175681838091 20.7154069055365 -3.58859089448587 0.726751980304561 37.2480829405676
-0.163930818545452 21.1336532037618 -2.97994250668297 0.5191085573604 10.5908446628499
-0.163744620754014 21.1096489342385 -3.14549486816536 0.62293026883248 41.2763618674958
0.671927605866465 21.646136406056 -0.167986955033599 0.62293026883248 11.4320284803567
1.33806135441048 21.5216378231107 -2.01584346040319 0.62293026883248 11.4320284803567
0.168358367815921 21.7044445391246 -3.40843097169621 0.62293026883248 5.76272216487253
8.15796896996779 28.0529229634232 -4.11933228864999 -2.595542786802 6.10992465719345
-14.764082937802 35.9300973350421 -2.41511680280189 -2.90700792121824 5.48113383337335
