VERSION .7
FIELDS x y z velocity intensity
SIZE 4 4 4 4 4
TYPE F F F F F
COUNT 1 1 1 1 1
WIDTH 885
HEIGHT 1
VIEWPOINT 0 0 0 1 0 0 0
POINTS 885
DATA ascii
-0.435788 0.274333 0.691035 0.000000 1.020000
-6.013580 1.080670 10.403800 -12.432000 4.370000
-5.883950 1.685650 10.894500 -12.698400 4.560000
-6.228350 1.119260 10.775300 -12.520800 3.840000
-5.672620 1.704150 11.490200 -12.964800 3.770000
-5.930240 1.760960 11.839100 -12.964800 5.680000
-5.521430 1.404840 12.556700 -13.231200 3.450000
-6.121540 1.817760 12.221000 -12.964800 3.810000
9.058730 -0.031984 10.395600 -11.544000 6.460000
-5.793610 1.448740 12.904800 -13.231200 4.640000
9.341820 -0.032983 10.720500 -11.544000 8.660000
-5.446210 1.675680 13.963600 -13.497600 7.060000
-5.927140 1.675680 13.766400 -13.320000 6.080000
-5.712340 1.723550 14.319000 -13.497600 5.460000
-6.340900 0.970870 14.123900 -13.231200 6.670000
-6.518270 0.948623 14.519000 -13.231200 7.840000
9.858060 0.234206 12.528100 -11.988000 6.340000
10.124500 0.240535 12.866700 -11.988000 13.480000
-5.998930 1.259180 15.647300 -13.497600 7.320000
-6.151290 1.344610 16.044700 -13.586400 7.120000
-6.305070 1.378230 16.445900 -13.586400 8.530000
9.737080 1.378230 14.676800 -12.520800 6.560000
9.642630 0.867226 15.290500 -12.698400 6.510000
-5.256780 1.773710 17.678600 -13.852800 4.020000
-5.145310 1.796500 18.608900 -14.030400 4.210000
-5.262580 1.714310 19.033000 -14.030400 4.460000
9.486130 1.668510 17.323900 -13.142400 6.720000
1.049200 1.751580 20.149100 0.888000 7.130000
-5.382030 1.517470 19.465000 -14.030400 12.280000
1.071520 1.788850 20.577800 0.888000 6.880000
-5.496540 1.549760 19.879200 -14.030400 18.280000
0.243410 1.582040 21.053300 0.888000 5.890000
0.248636 1.281920 21.505400 0.888000 8.290000
-9.622000 1.614330 19.209300 -12.964800 9.400000
1.387280 2.509230 21.788100 0.888000 8.430000
-10.115300 1.646620 19.439900 -12.787200 11.400000
-5.202990 1.748000 21.724100 -14.208000 7.360000
-10.309300 1.799810 19.812700 -12.787200 3.930000
1.617270 2.467250 22.646400 0.888000 6.380000
1.336430 2.513800 23.093800 0.888000 6.200000
-5.505720 1.702660 22.988100 -14.119200 4.970000
-4.736440 1.840340 24.029900 -14.296800 6.120000
-4.818390 1.949690 24.445700 -14.296800 6.180000
-4.086320 1.826490 25.026000 -14.385600 6.650000
-5.194940 0.219885 25.325700 -14.296800 8.860000
-5.280880 0.467404 25.744700 -14.296800 6.250000
10.379700 1.401620 24.107900 -13.675200 8.660000
-5.363630 1.115110 26.148100 -14.296800 10.550000
-5.245190 1.133090 26.611000 -14.296800 10.200000
12.017400 -0.062968 24.341800 -13.408800 7.390000
18.800800 1.470550 20.121900 -11.188800 9.810000
12.017200 -0.063967 24.821500 -13.408800 6.310000
19.094600 1.493530 20.436300 -11.188800 6.860000
12.204100 -0.324827 25.207700 -13.408800 6.950000
19.227800 1.516510 20.899500 -11.188800 7.230000
-9.973510 -0.593654 26.626600 -13.586400 7.050000
-8.187130 0.611644 28.127500 -13.941600 8.540000
-7.921830 0.620639 28.650600 -14.030400 7.080000
-9.669230 0.965339 28.099300 -13.764000 9.700000
-8.022630 1.887800 29.015200 -14.030400 4.280000
-9.808330 1.072560 28.503600 -13.764000 5.900000
-4.340590 1.725870 30.235200 -14.474400 5.730000
-8.137240 1.914770 29.429700 -14.030400 5.110000
-4.401720 1.750180 30.661000 -14.474400 8.140000
-9.624470 1.845970 29.436400 -13.852800 7.340000
-4.643270 1.677350 31.065900 -14.474400 5.080000
-3.672990 1.700330 31.628700 -14.474400 6.150000
-3.969580 1.723300 32.026500 -14.563200 6.800000
-4.968300 -0.181906 33.240500 -14.474400 8.220000
-5.291320 -0.184239 33.626800 -14.474400 5.270000
-5.358360 -0.079959 34.052900 -14.474400 7.110000
-7.663180 1.564680 34.015300 -14.208000 6.500000
-7.558610 1.584000 34.479500 -14.208000 6.050000
10.906900 1.603310 34.023300 -14.208000 5.340000
10.772600 1.622630 34.517200 -14.208000 5.150000
10.902300 -1.528780 34.932800 -14.208000 6.450000
-17.392100 -1.415590 32.202600 -12.787200 8.440000
10.826100 -1.546760 35.407000 -14.208000 7.060000
-17.596800 -1.432250 32.581500 -12.698400 6.920000
10.952000 -1.564750 35.818700 -14.208000 6.610000
-18.179700 -2.256180 33.200500 -12.698400 5.840000
-10.020700 2.786180 37.360300 -14.119200 11.370000
-10.132100 2.817130 37.775400 -14.119200 10.250000
-10.251700 2.358740 38.221600 -14.119200 10.380000
-17.080300 -1.064670 36.711800 -13.142400 6.860000
-17.547400 -1.075990 36.968200 -13.142400 10.180000
12.751400 1.486260 39.777000 -14.208000 8.390000
12.344800 0.881487 40.373900 -14.208000 9.980000
12.472100 0.626658 40.790400 -14.208000 6.550000
12.039900 0.899476 41.364000 -14.296800 11.470000
11.837900 0.908471 41.870100 -14.296800 9.060000
-15.730000 -1.115330 43.783900 -13.675200 10.230000
-16.130900 -1.125650 44.096800 -13.586400 11.270000
-16.619000 -1.392420 44.368200 -13.586400 9.530000
13.878000 0.112942 46.671900 -14.208000 8.230000
13.999900 0.569697 47.081900 -14.208000 7.640000
-16.150400 -2.711330 48.136800 -13.764000 8.050000
-16.652000 -3.209270 48.391700 -13.764000 8.700000
13.768100 2.158270 49.794600 -14.296800 5.610000
-16.791900 -3.236230 48.798300 -13.764000 8.010000
14.302400 0.000000 50.586800 -14.296800 8.520000
14.124600 0.000000 51.084000 -14.296800 8.060000
14.651800 0.957795 51.822500 -14.296800 8.040000
14.770400 0.629665 52.241900 -14.296800 7.120000
14.887600 0.634663 52.656500 -14.296800 7.090000
15.004200 0.810225 53.069000 -14.296800 4.850000
30.491200 0.298513 45.959700 -12.520800 7.290000
30.729400 0.300845 46.318800 -12.520800 9.330000
14.623500 0.130933 54.520700 -14.296800 11.430000
14.734600 0.483748 54.935000 -14.296800 10.200000
14.844400 1.019090 55.344400 -14.296800 10.530000
-26.055200 1.196300 51.030400 -12.876000 15.390000
14.957400 0.669644 55.765600 -14.296800 15.750000
-26.251100 1.205300 51.414100 -12.876000 16.260000
14.744000 0.674641 56.268000 -14.296800 21.540000
15.768200 15.840300 54.172800 -14.296800 9.020000
15.071600 0.689633 57.518400 -14.385600 12.820000
15.180800 0.694631 57.935200 -14.385600 12.490000
15.290100 0.699628 58.352000 -14.385600 16.250000
14.945300 0.892513 58.883300 -14.385600 15.660000
15.051300 0.898843 59.300900 -14.385600 10.610000
16.993900 1.497430 60.106400 -14.296800 13.580000
14.199200 1.898760 63.027500 -14.474400 6.830000
14.295100 1.710270 63.453100 -14.474400 10.440000
16.850300 1.710270 62.822900 -14.474400 10.090000
16.596000 1.721590 63.335900 -14.385600 9.980000
16.213300 1.732920 63.879500 -14.385600 8.570000
16.323900 0.769591 64.314900 -14.385600 13.560000
16.055400 0.774588 64.826400 -14.385600 19.150000
15.856800 0.579031 66.207300 -14.385600 15.420000
17.474900 0.586361 66.690000 -14.385600 8.820000
17.066400 0.590026 67.240400 -14.385600 8.120000
14.510700 0.380138 68.720400 -14.474400 6.990000
14.599700 0.382470 69.142000 -14.474400 10.850000
14.688800 0.384802 69.563600 -14.474400 10.760000
14.777800 0.387134 69.985200 -14.474400 11.760000
25.075400 1.889860 74.737700 -14.119200 9.130000
15.216700 -0.193901 82.197800 -14.563200 11.560000
15.295100 0.194901 82.621500 -14.563200 12.220000
15.373500 0.195900 83.045200 -14.563200 8.440000
15.451800 0.459430 83.467900 -14.563200 5.750000
-14.882900 0.725622 84.007000 -14.385600 7.060000
-14.958000 0.729286 84.431200 -14.385600 5.390000
-15.032700 0.999469 84.852900 -14.385600 6.470000
-15.107900 1.004470 85.277100 -14.385600 6.350000
-13.716100 0.000000 95.542100 -14.474400 8.510000
-13.777300 0.224885 95.968300 -14.474400 8.450000
-13.838500 0.225885 96.394900 -14.474400 5.370000
-13.899700 0.226884 96.821400 -14.474400 5.870000
-14.522900 0.000000 97.165900 -14.474400 10.000000
-14.022200 0.000000 97.674700 -14.474400 13.480000
-12.720600 0.559712 102.629000 -14.563200 12.750000
-12.773300 0.883206 103.055000 -14.563200 9.290000
-12.826700 0.241877 103.486000 -14.563200 13.280000
-12.078500 0.242876 104.009000 -14.563200 15.400000
13.401700 3.552520 147.580000 -14.652000 6.150000
13.440700 3.562840 148.009000 -14.652000 5.850000
13.481400 2.651180 148.457000 -14.652000 5.000000
7.520440 0.622192 4.993840 -5.683200 2.580000
-6.425140 0.771904 5.691370 -9.412800 3.810000
8.236670 0.681448 5.469450 -6.216000 3.560000
-6.688510 0.810499 6.040650 -9.590400 7.920000
-6.931420 0.878291 6.407070 -9.679200 8.640000
-7.129250 0.918213 6.822960 -9.945600 5.200000
-5.431340 1.072470 9.739940 -12.520800 3.430000
-5.636780 1.185330 10.108300 -12.520800 5.700000
-5.768120 1.154970 10.533900 -12.609600 5.570000
-9.476670 1.160700 9.948700 -10.744800 3.650000
-5.629180 1.107570 12.538600 -13.142400 8.070000
-9.673520 1.196970 10.353300 -10.833600 4.810000
-6.279920 0.977730 12.720300 -12.964800 3.560000
8.789470 -0.417727 11.170100 -11.632800 9.520000
-9.887300 1.176800 10.746900 -10.833600 5.330000
-6.364670 1.142920 13.146300 -12.964800 9.780000
8.944530 -0.430386 11.595300 -11.721600 7.240000
9.322170 -0.443044 11.847000 -11.632800 5.300000
8.871380 0.227876 12.723300 -12.165600 4.620000
-5.222300 1.437200 14.536000 -13.497600 9.460000
9.442470 0.234206 12.844200 -11.988000 18.050000
-5.254980 1.378910 14.989100 -13.675200 12.880000
9.697670 0.240535 13.191400 -11.988000 18.990000
-5.188880 1.416170 15.465600 -13.586400 16.590000
9.952870 0.246865 13.538500 -11.988000 15.430000
-5.991660 1.505210 15.628400 -13.497600 9.000000
10.073300 0.306494 13.982600 -12.076800 16.090000
-5.109850 1.703010 16.372800 -13.852800 11.020000
-9.520070 1.105710 14.841300 -12.076800 6.350000
-5.239180 1.691210 16.787200 -13.852800 7.700000
-5.137490 1.621000 17.277400 -13.852800 6.950000
-5.259810 1.659590 17.688800 -13.852800 7.300000
-5.139940 1.595960 18.179700 -13.941600 8.740000
9.859940 1.647150 18.597700 -13.053600 10.550000
-5.458050 1.386630 20.349300 -13.941600 9.790000
9.907640 1.863390 19.040800 -13.053600 8.910000
-20.814000 0.598971 13.821300 -7.548000 7.400000
-21.172900 0.609298 14.059600 -7.548000 7.560000
10.174600 0.708870 21.868900 -13.408800 5.270000
-4.903740 1.826490 24.878700 -14.208000 5.220000
-4.840530 1.857450 25.328800 -14.296800 4.900000
-4.074280 1.969480 25.892400 -14.385600 5.860000
-4.647350 2.001770 26.232200 -14.296800 5.110000
10.584300 -0.965305 24.979700 -13.586400 13.560000
10.752300 -0.980627 25.376200 -13.586400 5.690000
19.050600 -0.417772 21.111600 -11.188800 7.730000
10.920300 -0.995949 25.772700 -13.586400 10.330000
19.340100 -0.334822 21.432300 -11.188800 6.340000
19.628700 -0.339819 21.752200 -11.188800 7.320000
-4.650820 0.758859 28.483100 -14.296800 8.380000
-18.385700 -0.160917 23.365300 -11.277600 9.840000
-4.553050 0.770186 28.935000 -14.385600 6.520000
10.637800 1.223020 27.274500 -13.764000 7.240000
-4.617570 1.241010 29.345100 -14.385600 9.070000
-8.082020 1.241010 28.585600 -13.941600 6.050000
-4.684490 1.258990 29.770400 -14.385600 10.210000
-8.201120 1.072560 29.006900 -13.941600 7.800000
-9.333490 1.087880 29.115100 -13.764000 8.890000
-17.186600 -0.267527 26.344100 -11.988000 6.070000
-7.968170 1.118530 30.409200 -14.030400 8.400000
-17.422000 -0.271192 26.705000 -11.988000 5.200000
-17.656900 -0.374801 27.065000 -11.988000 4.800000
-18.103200 -0.379798 27.287100 -11.899200 8.160000
-16.110100 -2.588380 28.890000 -12.520800 5.760000
-18.973100 -2.103550 27.663000 -11.810400 9.450000
11.784400 0.987355 31.461100 -13.852800 5.970000
11.689500 1.000010 31.955500 -13.852800 4.500000
11.650000 -0.202896 35.631600 -14.030400 7.450000
-15.981700 -1.582730 34.350400 -13.053600 6.670000
-17.485400 -1.699900 33.604100 -12.787200 7.530000
11.777900 1.231160 36.022600 -14.030400 13.150000
-16.163300 -1.600720 34.740700 -13.053600 7.400000
-8.424870 1.126600 37.396300 -14.208000 14.740000
-16.139400 -1.738530 35.220200 -13.053600 12.220000
-8.519540 1.139260 37.816500 -14.208000 8.550000
11.458200 1.394330 37.474500 -14.119200 7.640000
-17.164200 -1.920290 36.160800 -12.964800 7.400000
-9.618550 2.260650 38.836500 -14.030400 8.020000
-9.721970 2.284960 39.254100 -14.030400 6.300000
12.345500 0.750911 40.376300 -14.119200 5.610000
12.471500 0.758574 40.788300 -14.119200 6.040000
12.598600 0.499734 41.204000 -14.119200 6.890000
12.725000 0.370140 41.617400 -14.119200 6.800000
12.851000 0.373805 42.029400 -14.119200 6.380000
11.940900 0.796885 43.186100 -14.208000 6.520000
-2.002960 1.748670 45.166300 -14.563200 13.600000
12.050000 -1.608840 43.580700 -14.208000 8.000000
-2.373410 1.765330 45.579500 -14.474400 12.930000
-2.661380 1.924460 45.989200 -14.474400 7.630000
-2.686900 1.654810 46.430100 -14.474400 7.900000
13.969300 0.115941 47.992600 -14.208000 8.800000
14.329600 0.594684 49.230600 -14.208000 5.630000
14.926800 0.822885 53.985300 -14.208000 7.560000
14.845200 0.841874 55.347200 -14.208000 9.800000
15.292200 0.684636 57.014100 -14.208000 7.860000
15.846000 0.689633 57.309800 -14.208000 16.700000
15.398700 0.892513 58.766400 -14.296800 6.530000
15.507900 0.898843 59.183100 -14.296800 10.620000
15.617100 0.905173 59.599900 -14.296800 21.980000
15.726300 0.911503 60.016700 -14.296800 20.180000
15.833800 1.304240 60.426800 -14.296800 19.250000
17.108600 1.848130 60.512200 -14.208000 13.540000
15.900900 -0.149924 62.648400 -14.208000 19.080000
16.006400 -0.553378 63.063900 -14.296800 23.180000
25.356300 0.431445 75.575100 -14.030400 10.740000
25.492800 0.681645 75.981900 -14.030400 8.250000
15.451800 0.459430 83.467900 -14.385600 9.030000
15.529900 0.725622 83.889800 -14.385600 8.320000
15.607800 0.994471 84.310800 -14.385600 7.410000
-13.956300 1.004470 85.473200 -14.296800 6.910000
-14.025200 1.278640 85.894900 -14.296800 7.480000
-14.759500 1.284970 86.208900 -14.296800 5.680000
-18.729000 1.284970 85.434500 -14.296800 4.600000
-19.972700 2.310560 85.573300 -14.296800 8.450000
-13.899700 0.226884 96.821400 -14.385600 8.170000
-13.961000 -0.227884 97.247900 -14.385600 10.540000
-14.022200 -0.228883 97.674400 -14.385600 14.000000
-13.516100 -0.229883 98.180700 -14.385600 12.880000
-13.574900 0.230882 98.607600 -14.385600 9.050000
-13.692000 0.853888 99.458000 -14.385600 9.290000
-12.402300 0.857553 100.061000 -14.385600 10.330000
-12.455300 0.861218 100.489000 -14.385600 6.980000
-12.508700 0.235880 100.920000 -14.385600 5.260000
-12.561700 0.236879 101.347000 -14.385600 6.090000
-12.028600 0.564376 103.580000 -14.385600 6.930000
-12.078300 0.566709 104.008000 -14.385600 5.700000
-12.128000 0.569041 104.436000 -14.385600 5.080000
-12.177700 0.571373 104.864000 -14.385600 5.820000
-12.227600 0.245875 105.294000 -14.385600 4.950000
14.379900 3.121180 148.796000 -14.563200 7.300000
14.421300 3.130180 149.225000 -14.563200 11.820000
14.461800 3.604150 149.644000 -14.563200 11.730000
-6.815250 0.316427 4.525570 -7.281600 3.750000
-7.173950 0.333081 4.763760 -7.281600 4.600000
-7.017110 0.681066 6.337420 -9.501600 6.020000
-7.262080 0.650866 6.712720 -9.679200 6.700000
-6.140450 1.299890 8.219110 -11.544000 2.950000
-6.127310 1.130670 8.787740 -11.721600 6.330000
-5.943110 1.175900 9.424060 -12.076800 5.760000
-6.301780 1.175900 9.188090 -11.810400 5.780000
-6.240540 1.328420 9.728710 -12.076800 6.290000
-6.489540 0.835853 9.619980 -11.810400 6.480000
-6.010120 1.154970 10.397800 -12.432000 6.960000
-6.652810 0.866811 10.027900 -11.988000 8.890000
-6.139730 1.234690 10.813500 -12.432000 7.050000
-6.810150 0.897768 10.438800 -11.988000 5.900000
-6.360020 1.088160 11.201500 -12.432000 3.990000
-5.601940 1.356800 11.570900 -12.876000 6.680000
-9.435260 1.155300 9.384810 -10.389600 6.570000
-5.949410 1.402030 11.877400 -12.876000 7.320000
-9.647760 1.160700 9.782870 -10.478400 7.510000
-5.714320 1.404840 12.470100 -13.053600 8.250000
-6.331620 1.404840 12.168300 -12.787200 9.060000
-9.949250 1.196970 10.088600 -10.478400 4.830000
-5.909700 0.977730 12.896500 -13.053600 8.990000
-6.450920 0.977730 12.634500 -12.787200 7.560000
-5.415760 1.007360 13.575500 -13.231200 7.360000
9.570060 -1.536550 11.554400 -11.632800 9.800000
-5.632070 1.722020 13.884000 -13.320000 5.770000
8.029000 -0.943902 12.731700 -12.520800 6.940000
-5.407590 1.723550 14.436800 -13.497600 5.550000
8.695900 -0.948623 13.329300 -12.432000 7.370000
9.441430 0.332806 12.842800 -11.988000 9.350000
9.696600 0.341801 13.189900 -11.988000 14.410000
-5.528360 0.873141 15.388000 -13.497600 10.580000
-6.263670 0.835212 15.105700 -13.231200 7.140000
9.951780 0.350796 13.537000 -11.988000 15.890000
-5.765040 0.896118 15.759800 -13.497600 6.510000
-6.428510 0.857191 15.503300 -13.231200 5.370000
10.207000 0.359791 13.884100 -11.988000 12.680000
-9.948960 4.556180 13.316900 -11.721600 13.340000
-9.959450 4.670090 13.824600 -11.810400 8.380000
-5.472590 1.419080 16.737900 -13.675200 6.150000
-5.274670 1.453690 17.250900 -13.764000 6.970000
9.988140 1.045250 15.571000 -12.520800 8.590000
-5.394280 1.128090 18.141000 -13.764000 6.870000
9.965880 1.303640 16.076300 -12.609600 7.840000
-5.408510 1.213590 18.581400 -13.852800 6.110000
10.065400 1.333270 16.519800 -12.609600 5.390000
-5.382140 1.240560 19.036300 -13.941600 5.610000
9.474050 1.033030 17.869800 -13.053600 8.200000
17.974700 1.578830 12.544200 -8.702400 5.710000
9.675630 1.055000 18.250000 -13.053600 8.140000
10.477800 0.927217 17.808700 -12.787200 7.570000
17.974700 1.578830 12.544200 -8.702400 10.310000
18.327200 1.609790 12.790200 -8.702400 10.420000
9.617940 1.730580 19.201200 -13.142400 6.970000
10.205200 1.730580 18.895600 -12.964800 7.210000
10.119800 1.511040 19.448600 -13.142400 6.060000
10.320400 1.471520 19.834000 -13.142400 11.320000
-5.307780 1.499820 22.161600 -14.030400 13.300000
10.358300 1.640750 20.287300 -13.142400 5.000000
10.553700 1.671710 20.670100 -13.231200 12.200000
-4.885760 1.556420 23.138100 -14.119200 6.710000
-8.772740 1.062440 21.990400 -13.408800 4.090000
-4.656390 1.584720 23.623800 -14.208000 6.050000
-4.739540 1.613020 24.045600 -14.208000 4.830000
-10.225400 0.873371 22.314500 -13.142400 8.280000
-10.404800 0.888693 22.706000 -13.142400 6.010000
-10.584200 0.904015 23.097400 -13.142400 8.880000
-4.502130 1.538310 25.412500 -14.296800 4.340000
-4.228280 1.563950 25.895400 -14.296800 6.590000
-4.299100 1.424600 26.329100 -14.296800 5.790000
-5.090600 1.216970 26.637300 -14.296800 8.900000
10.916200 1.216970 24.825400 -13.497600 8.560000
-5.172090 1.151080 27.063800 -14.296800 12.350000
10.879900 -1.896200 25.269700 -13.586400 11.010000
-5.623160 1.169060 27.413300 -14.296800 7.790000
11.049900 -1.925830 25.664500 -13.586400 10.590000
18.847100 -0.329825 21.295000 -11.188800 10.570000
9.954140 -1.867700 26.574900 -13.852800 14.090000
11.968300 -1.955460 25.724200 -13.497600 10.580000
19.132700 -0.334822 21.617600 -11.188800 8.920000
-3.931720 1.539480 28.559900 -14.385600 14.640000
12.022800 -0.758859 26.236800 -13.497600 10.750000
-2.477680 1.562460 29.154400 -14.296800 11.390000
12.356000 -0.770186 26.557400 -13.408800 9.900000
-17.972800 -0.712569 23.674200 -11.366400 9.390000
-4.615030 1.585440 29.328900 -14.296800 9.310000
12.745000 -0.781512 26.850600 -13.408800 8.770000
-18.233300 -0.722896 24.017300 -11.366400 7.440000
-18.305500 -0.733223 24.502200 -11.455200 7.390000
-8.533430 1.914770 29.317200 -13.852800 9.860000
-7.617490 1.941740 30.012400 -13.941600 5.550000
-7.961870 1.677350 30.385100 -13.941600 6.610000
-8.071910 1.626470 30.805100 -13.941600 8.600000
-18.139100 -0.987355 28.278000 -11.988000 7.270000
-18.810900 -1.000010 28.353900 -11.899200 7.770000
-16.758500 -0.836494 30.605000 -12.520800 4.930000
-16.786000 -0.846821 31.080400 -12.520800 6.490000
-7.242390 1.680580 36.743700 -14.208000 8.990000
11.919300 1.101280 35.525900 -13.941600 8.690000
-16.772600 -1.680580 33.484700 -12.787200 9.270000
10.592800 1.113940 36.392500 -14.119200 7.440000
-16.965400 -1.699900 33.869600 -12.787200 9.220000
-17.938100 -2.044990 33.834500 -12.609600 7.520000
-8.425600 1.008040 37.399500 -14.119200 9.700000
-18.402800 -2.067960 34.073900 -12.609600 9.480000
-8.520270 1.019360 37.819700 -14.119200 6.770000
-18.607200 -2.090940 34.452500 -12.609600 9.000000
-8.614940 1.030690 38.239900 -14.119200 8.750000
-9.627790 1.424970 38.873900 -14.030400 7.710000
-9.728990 1.690650 39.282500 -14.030400 5.190000
-9.828260 2.088030 39.683300 -14.030400 7.970000
12.468100 1.253180 40.777100 -14.119200 8.390000
12.594000 1.265840 41.189000 -14.119200 6.410000
12.725300 0.235546 41.618300 -14.119200 7.090000
-2.537630 1.562870 43.850600 -14.474400 6.400000
12.851400 0.101948 42.030800 -14.119200 10.680000
12.649900 0.102947 42.541700 -14.119200 11.460000
13.095100 -1.593520 42.828000 -14.119200 8.610000
13.968800 0.425112 47.991000 -14.119200 7.420000
14.089200 0.428776 48.404700 -14.119200 7.270000
14.209700 0.432441 48.818400 -14.119200 7.310000
14.330100 0.436106 49.232100 -14.119200 7.680000
14.450100 0.599681 49.644300 -14.119200 7.340000
-26.593500 0.458094 46.837400 -12.520800 18.630000
14.654100 0.124936 51.830600 -14.119200 21.800000
14.887600 -0.634663 52.656500 -14.119200 20.470000
14.695600 1.151330 53.148900 -14.208000 14.200000
14.812600 0.644657 53.572200 -14.208000 7.850000
14.927400 0.649655 53.987500 -14.208000 7.230000
15.042300 0.654652 54.402800 -14.208000 8.320000
14.957400 0.669644 55.765600 -14.208000 14.410000
15.400100 0.328831 58.771800 -14.208000 17.710000
15.509300 0.331163 59.188700 -14.208000 20.210000
15.618500 0.333495 59.605500 -14.208000 17.670000
16.039500 2.839600 61.212100 -14.208000 14.610000
16.271500 -1.141690 62.097500 -14.208000 24.640000
16.371100 2.498100 62.477400 -14.296800 25.770000
16.056400 -0.154921 64.830600 -14.208000 10.240000
25.355000 0.924508 75.571100 -14.030400 7.190000
26.077700 0.681645 75.783200 -14.030400 13.190000
15.934000 0.459430 83.377200 -14.385600 13.470000
16.014900 0.461763 83.800400 -14.385600 11.820000
16.095800 0.464095 84.223600 -14.385600 9.290000
14.542900 0.199898 84.943800 -14.296800 7.600000
-13.952400 2.276580 85.449400 -14.296800 8.150000
-14.024500 1.547800 85.890600 -14.296800 9.400000
-13.595400 1.284970 86.400200 -14.296800 13.540000
-13.339700 0.529394 96.899000 -14.385600 8.840000
-13.398600 0.000000 97.327300 -14.385600 9.920000
-13.457400 0.000000 97.754100 -14.385600 12.010000
-13.516100 0.229883 98.180700 -14.385600 10.020000
-13.574400 -0.846559 98.604300 -14.385600 5.850000
-12.869800 -0.541055 99.135400 -14.385600 7.910000
-13.692300 -0.543387 99.460200 -14.385600 13.600000
-13.751200 0.000000 99.888500 -14.385600 14.450000
-12.455700 -0.234880 100.492000 -14.385600 12.250000
-12.508700 -0.235880 100.920000 -14.385600 10.290000
-12.561700 -0.236879 101.347000 -14.385600 8.650000
-12.078300 0.566709 104.008000 -14.385600 6.380000
-12.128000 0.569041 104.436000 -14.385600 6.080000
-12.177700 0.571373 104.864000 -14.385600 6.650000
-12.227200 0.901530 105.290000 -14.385600 8.990000
14.379900 3.121180 148.796000 -14.474400 6.880000
14.421300 3.130180 149.225000 -14.474400 10.570000
14.462800 3.139170 149.654000 -14.474400 14.570000
-6.271510 0.964880 8.705400 -11.544000 4.200000
-6.359440 1.373830 9.120650 -11.810400 4.790000
-6.522370 1.003470 9.053610 -11.544000 5.610000
-10.359100 1.234690 6.878790 -7.903200 3.730000
-5.880610 0.934516 9.995100 -12.254400 4.570000
-6.604030 1.426670 9.471450 -11.810400 6.690000
-10.716300 1.277260 7.115990 -7.992000 3.660000
-6.040050 1.532350 10.831500 -12.609600 3.260000
-5.601940 1.356800 11.570900 -12.964800 4.180000
-6.334500 1.585190 11.156500 -12.520800 4.240000
-5.788670 1.402030 11.956500 -12.964800 6.950000
-6.348290 0.990641 12.200400 -12.698400 7.630000
-5.517030 1.492480 13.020600 -13.231200 5.170000
-6.643450 1.021600 12.530800 -12.609600 8.750000
-5.584190 1.447560 13.467100 -13.231200 5.620000
-6.149870 1.447560 13.218300 -12.964800 5.480000
-6.253880 1.443720 13.647600 -13.053600 5.180000
8.121810 -1.083510 12.661500 -12.432000 5.780000
8.353860 -1.114470 13.023300 -12.432000 7.970000
9.441430 0.332806 12.842800 -12.076800 10.910000
9.696600 0.341801 13.189900 -12.076800 14.950000
9.951780 0.350796 13.537000 -12.076800 14.150000
-6.647390 5.801450 14.806600 -13.320000 6.410000
-5.597000 1.582400 16.682000 -13.586400 6.160000
-5.733510 1.621000 17.088900 -13.586400 5.400000
9.523040 0.923129 15.362000 -12.609600 6.950000
9.749780 0.945108 15.727700 -12.609600 8.480000
9.525190 1.098960 19.293800 -13.142400 5.660000
-5.554670 1.646620 21.198500 -13.941600 5.020000
9.829290 1.120940 19.623200 -13.142400 8.470000
10.179000 1.004480 19.936000 -13.142400 12.410000
10.374700 1.023800 20.319400 -13.142400 12.190000
-4.924720 1.613020 24.008400 -14.208000 9.660000
-4.822680 1.641310 24.467500 -14.208000 7.910000
-5.671000 1.618120 25.172400 -14.119200 4.320000
-5.765520 1.645090 25.592000 -14.119200 6.150000
-3.877130 1.726210 25.940000 -14.296800 4.490000
10.040300 -0.557675 24.751100 -13.675200 4.500000
-5.861150 1.589580 26.016400 -14.208000 6.290000
10.397300 -0.314833 25.074700 -13.675200 6.710000
-6.052330 1.470550 26.865000 -14.119200 11.050000
10.758400 -0.319830 25.390500 -13.675200 7.570000
-6.357010 1.493530 27.236600 -14.119200 13.490000
18.192300 0.584660 21.287900 -11.366400 12.580000
19.629700 -0.158585 21.753400 -11.277600 11.260000
-18.159700 -0.160917 23.541400 -11.277600 11.350000
-7.960520 1.774490 30.380000 -14.030400 8.650000
-8.066590 1.995680 30.784800 -14.030400 6.520000
-18.059700 -1.249050 26.771400 -11.899200 7.680000
-3.974090 0.774531 32.062900 -14.385600 5.570000
-17.697500 -1.195140 28.548500 -12.165600 6.210000
-19.068700 0.512720 29.229000 -11.899200 8.050000
-4.747740 2.507560 34.487400 -14.296800 6.450000
-3.872860 0.191235 35.120400 -14.385600 7.240000
-4.399200 0.193567 35.492600 -14.385600 8.340000
-7.744000 1.510790 35.325200 -14.119200 5.120000
-17.608100 -1.734450 31.576400 -12.432000 6.870000
-7.836190 1.528780 35.745700 -14.119200 5.210000
-17.815000 -1.868240 31.947400 -12.520800 11.220000
-7.928380 1.546760 36.166300 -14.119200 6.530000
20.221600 -1.890220 30.996200 -12.520800 8.150000
-18.024600 -1.890220 32.323200 -12.520800 7.660000
-8.231930 1.564750 36.539800 -14.119200 6.050000
-7.526380 1.564750 36.691700 -14.208000 7.030000
-16.156300 -1.956150 34.725700 -13.053600 10.780000
-17.151000 -2.044990 34.240200 -12.787200 9.340000
-16.141500 -1.618700 35.224900 -13.053600 9.210000
-16.043700 -1.757850 35.736300 -13.142400 9.230000
-15.941100 -1.777170 36.252900 -13.142400 7.850000
12.836600 0.499734 41.130500 -14.030400 8.210000
12.724600 0.504732 41.616100 -14.119200 10.300000
-2.679320 12.402800 42.080300 -14.474400 7.480000
12.725000 0.370140 41.617400 -14.119200 5.540000
12.977200 0.240210 42.442400 -14.119200 5.260000
-4.116260 13.309300 42.593200 -14.474400 10.170000
12.183100 -1.732020 43.091000 -14.119200 6.260000
-2.495980 13.437200 43.130900 -14.474400 9.910000
12.041900 -2.307820 43.551500 -14.119200 6.510000
12.410500 -2.329800 43.895300 -14.119200 7.030000
-16.727400 -0.263531 45.727500 -13.497600 6.120000
14.368400 0.584689 48.320900 -14.119200 5.680000
14.491600 0.432441 48.735400 -14.119200 6.970000
14.535900 -0.619670 51.412600 -14.119200 21.720000
14.770400 -0.629665 52.241900 -14.119200 6.610000
14.769800 -0.797565 52.239700 -14.119200 7.660000
14.176000 0.634663 52.852500 -14.119200 6.550000
14.812600 0.644657 53.572200 -14.119200 7.820000
14.812600 0.644657 53.572200 -14.119200 14.730000
15.041600 0.829214 54.400600 -14.119200 16.130000
14.734900 0.307842 54.936200 -14.208000 21.620000
14.846500 0.310174 55.352400 -14.208000 21.800000
15.181600 0.135931 56.601600 -14.208000 18.430000
15.410400 -15.609300 55.734100 -14.208000 19.160000
15.516500 0.000000 57.850300 -14.208000 15.770000
15.287800 1.259270 58.343200 -14.208000 8.910000
15.398700 0.892513 58.766400 -14.208000 14.300000
15.507900 0.898843 59.183100 -14.208000 10.330000
15.617100 0.905173 59.599900 -14.208000 10.920000
15.262500 1.103380 60.133100 -14.208000 13.250000
15.362800 2.028610 60.528400 -14.208000 21.030000
15.936300 2.237060 60.818400 -14.208000 23.090000
16.183400 -12.830600 60.336500 -14.208000 21.100000
15.537100 -11.552800 61.215200 -14.208000 15.790000
13.746200 1.141690 62.704900 -14.296800 13.090000
16.357200 3.646210 62.424600 -14.208000 9.720000
15.372500 0.979479 83.039800 -14.385600 11.700000
15.451000 0.984476 83.463500 -14.385600 6.790000
15.529400 0.989474 83.887200 -14.385600 6.640000
-14.541400 1.265980 84.934900 -14.208000 6.320000
-14.613400 1.540130 85.355300 -14.208000 6.250000
-14.685200 1.816940 85.774800 -14.296800 8.860000
-14.756900 2.096400 86.193500 -14.296800 9.620000
-13.899800 0.000000 96.821700 -14.296800 6.620000
-13.961000 0.000000 97.248200 -14.296800 7.510000
-14.022000 -0.534059 97.673300 -14.296800 13.290000
-14.082500 1.149390 98.094600 -14.296800 13.600000
-14.144500 0.538723 98.526300 -14.296800 8.560000
-12.870000 0.231882 99.136600 -14.385600 10.770000
-12.925400 0.232881 99.563900 -14.385600 14.300000
-12.980100 1.169380 99.984800 -14.385600 13.220000
-12.879700 0.242876 103.913000 -14.385600 9.520000
-12.932600 0.569041 104.340000 -14.385600 8.930000
-12.985600 0.571373 104.767000 -14.385600 8.670000
14.339300 2.651180 148.377000 -14.474400 8.610000
14.380800 2.658840 148.805000 -14.474400 12.820000
14.422900 2.202800 149.242000 -14.474400 13.050000
-6.220440 1.339440 9.221070 -11.899200 5.290000
-6.081320 1.462370 9.809990 -12.165600 4.870000
-6.548300 1.149530 9.547530 -11.810400 6.610000
-6.148990 1.516540 10.269300 -12.254400 5.150000
-6.800000 1.015610 9.914510 -11.810400 6.900000
-5.853100 1.197670 11.463600 -12.698400 6.840000
-6.691150 1.317040 10.981900 -12.254400 3.420000
-5.956720 1.237590 11.892000 -12.787200 6.760000
-6.257980 0.862996 12.256600 -12.787200 6.140000
-6.549470 0.933851 12.587000 -12.787200 8.820000
-5.427260 1.196970 13.088600 -13.320000 7.240000
8.848540 -0.702040 11.655500 -11.899200 7.000000
-5.580650 1.537710 13.458500 -13.320000 3.990000
9.111320 -0.629496 12.001600 -11.899200 7.690000
-5.372410 1.490140 14.013100 -13.408800 6.980000
9.201240 -0.997839 12.981900 -12.165600 7.970000
-5.569950 1.428020 14.870300 -13.408800 4.980000
9.466420 0.341801 13.356100 -12.165600 9.040000
-5.832900 1.617860 15.214300 -13.408800 5.140000
9.715540 0.350796 13.707500 -12.165600 15.190000
-6.524260 1.660440 15.397700 -13.320000 6.660000
9.964660 0.359791 14.059000 -12.165600 16.900000
-10.497900 1.291460 13.609000 -11.366400 6.490000
-10.760400 1.323750 13.949200 -11.366400 11.350000
-5.142050 1.691210 16.817200 -13.852800 9.610000
-5.867820 1.523420 17.052200 -13.586400 6.680000
9.166730 0.867226 15.580400 -12.787200 7.750000
-5.387840 1.944750 17.621100 -13.852800 3.890000
9.601770 0.967087 16.319800 -12.787200 3.120000
-5.524080 1.595960 18.066700 -13.852800 8.360000
9.194800 -1.142480 18.008500 -13.231200 6.130000
-5.453190 1.647150 20.331100 -14.030400 13.520000
-4.718310 1.813590 20.943600 -14.030400 5.940000
9.786050 1.032410 19.166500 -13.231200 4.950000
-5.100370 1.849860 21.295600 -14.030400 5.200000
10.130600 1.120940 19.469300 -13.142400 5.940000
-5.076400 1.799810 21.749800 -14.119200 6.650000
10.324400 1.333200 19.841700 -13.142400 4.630000
10.518800 1.499820 20.215500 -13.142400 5.560000
-5.289630 1.733620 23.479600 -14.119200 11.440000
-5.241080 1.669610 24.820900 -14.208000 7.140000
-4.696030 1.697910 25.367200 -14.208000 5.850000
-4.926090 1.482790 25.776600 -14.208000 4.720000
-4.853530 1.672050 26.218000 -14.208000 4.850000
10.024700 -1.589580 24.712600 -13.764000 4.420000
-4.931820 1.699020 26.640800 -14.208000 5.530000
10.041100 -1.615220 25.169700 -13.764000 5.610000
18.679600 0.593654 21.436400 -11.366400 10.710000
10.869700 1.867700 26.213800 -13.764000 9.870000
18.965500 0.334822 21.764500 -11.366400 9.060000
11.239100 1.896000 26.525100 -13.764000 9.210000
19.249200 0.249203 22.090000 -11.366400 8.610000
9.666870 2.195490 27.573400 -13.941600 5.270000
-8.854010 0.873429 28.369700 -13.852800 7.900000
-9.203880 0.886088 28.710800 -13.852800 7.270000
-8.546500 0.898746 29.362200 -13.852800 6.840000
-9.503540 0.898746 29.066500 -13.852800 6.140000
-8.030340 1.294960 29.939500 -13.941600 6.560000
-9.864290 0.911405 29.400700 -13.764000 6.450000
-8.134530 1.871610 30.328000 -13.941600 6.790000
-17.870200 -1.670420 27.392000 -11.899200 7.820000
-18.691200 -2.971830 27.252000 -11.721600 8.250000
-3.630970 1.871720 32.926900 -14.385600 7.950000
-3.678130 1.896030 33.354500 -14.385600 5.850000
-3.725280 1.920330 33.782100 -14.385600 7.960000
10.565200 1.736360 32.313400 -14.030400 6.570000
10.698900 1.758340 32.722500 -14.030400 7.420000
10.637800 1.968950 33.183900 -14.030400 5.250000
-5.286500 0.414779 35.369400 -14.296800 5.520000
-7.649690 1.713800 34.895000 -14.119200 6.120000
-4.658810 0.755560 35.886600 -14.385600 6.090000
-7.740660 1.846260 35.310000 -14.119200 6.260000
-8.039220 1.868240 35.684500 -14.119200 6.040000
-16.578800 -1.680580 33.581100 -12.876000 7.260000
10.473400 -0.985385 35.982100 -14.030400 5.360000
10.593800 -0.996711 36.395700 -14.119200 6.010000
-15.780700 -1.699900 34.437600 -13.053600 9.180000
-17.433200 -1.008040 34.143800 -12.787200 8.830000
-8.712850 1.126600 37.330200 -14.119200 8.740000
-15.962200 -1.600720 34.833600 -13.053600 7.960000
-8.810750 1.139260 37.749700 -14.119200 7.300000
-18.567900 -0.459756 35.022500 -12.698400 7.580000
12.280200 0.632988 41.298200 -14.119200 11.070000
12.724600 0.504732 41.616100 -14.119200 9.220000
12.850000 0.645648 42.026400 -14.119200 6.090000
-17.113700 -2.750800 40.389500 -13.320000 7.700000
19.649300 -2.615120 39.227900 -13.142400 9.820000
19.302200 -2.777770 39.868900 -13.320000 4.880000
19.815400 -2.147420 40.137200 -13.231200 9.690000
-16.745500 -2.168060 41.975600 -13.408800 6.510000
12.742500 -2.717680 43.777700 -14.030400 7.300000
-15.671700 -1.685450 44.701500 -13.586400 5.950000
-18.041900 -0.263531 45.225000 -13.408800 5.680000
-1.891150 1.898560 49.049500 -14.474400 6.670000
-2.193720 1.915210 49.467900 -14.474400 8.320000
13.968400 0.579692 47.989500 -14.119200 6.840000
14.088800 0.584689 48.403200 -14.119200 6.190000
14.209200 0.589686 48.816900 -14.119200 5.510000
14.653900 -0.291517 51.830000 -14.119200 7.950000
14.771300 0.000000 52.245400 -14.119200 7.420000
14.812000 0.816555 53.570100 -14.208000 14.570000
14.926100 0.996107 53.982600 -14.208000 20.300000
15.272700 0.310174 55.236300 -14.208000 7.970000
-25.934800 1.404480 52.532400 -12.876000 11.510000
15.289900 1.232280 57.005500 -14.208000 14.490000
15.404900 0.000000 57.434100 -14.208000 22.000000
15.516300 -0.324167 57.849500 -14.208000 18.830000
15.290900 -0.326499 58.355000 -14.208000 10.090000
15.399800 0.516731 58.770600 -14.208000 15.560000
15.509000 0.520395 59.187400 -14.208000 11.040000
15.617700 0.714620 59.602400 -14.208000 14.990000
15.726900 0.719617 60.019200 -14.208000 10.950000
15.451000 0.984476 83.463500 -14.385600 9.800000
15.529400 0.989474 83.887200 -14.385600 10.100000
14.958000 0.729286 84.431200 -14.385600 7.760000
-14.539800 1.798950 84.925600 -14.296800 8.170000
-14.613400 1.540130 85.355300 -14.296800 9.250000
-14.686100 1.547800 85.779900 -14.296800 6.630000
-14.759500 1.284970 86.208900 -14.296800 6.320000
-14.164100 1.291300 86.745300 -14.296800 6.150000
-13.339900 0.000000 96.900400 -14.296800 4.860000
-13.398600 0.227884 97.327000 -14.296800 10.570000
-13.457400 0.228883 97.753900 -14.296800 12.410000
-12.759100 0.000000 98.282300 -14.385600 9.980000
-12.814500 -0.230882 98.709300 -14.385600 9.200000
-12.870000 -0.231882 99.136600 -14.385600 13.810000
-12.925400 -0.232881 99.563900 -14.385600 13.670000
-13.091700 0.550384 100.845000 -14.385600 6.220000
-12.561600 0.552716 101.346000 -14.385600 5.310000
-12.028600 0.564376 103.580000 -14.385600 9.770000
-12.078100 0.890536 104.006000 -14.385600 12.480000
-12.127800 0.894200 104.434000 -14.385600 10.200000
-12.177500 0.897865 104.862000 -14.385600 7.620000
13.519500 3.121180 148.877000 -14.563200 6.290000
13.558500 3.130180 149.306000 -14.563200 5.910000
-0.435788 0.274333 0.691035 0.000000 0.700000
-6.102430 1.486150 8.752050 -11.721600 2.800000
-5.860560 1.339440 9.453880 -12.254400 2.680000
-6.139560 1.476930 9.254220 -11.988000 3.770000
-6.416490 1.545600 9.052950 -11.721600 4.270000
-6.085970 1.390950 9.817490 -12.254400 4.200000
-6.375690 1.533740 9.610160 -11.988000 3.810000
-6.256860 1.436300 11.220300 -12.609600 6.530000
-6.471850 1.360940 11.605900 -12.609600 6.730000
-6.128830 1.690870 12.235600 -12.964800 7.710000
-6.429160 1.319970 12.126600 -12.787200 6.770000
-6.320360 1.743710 12.617900 -12.964800 7.510000
-6.777960 1.743710 12.378100 -12.698400 7.000000
-6.611890 1.796550 12.949700 -12.876000 5.350000
-5.454970 1.443720 13.986100 -13.408800 5.070000
-5.527580 1.484970 14.417900 -13.497600 7.540000
9.185620 0.371775 12.494800 -12.165600 8.620000
-5.569950 1.428020 14.870300 -13.586400 8.080000
9.316620 0.382102 12.932300 -12.343200 9.840000
9.568420 0.392429 13.281800 -12.254400 14.410000
-9.664290 1.378330 13.146000 -11.544000 8.370000
-9.916650 1.453440 13.489200 -11.544000 11.410000
-9.698160 -1.756050 14.140100 -0.177600 9.990000
-10.406600 -1.854300 14.155700 0.000000 4.670000
-9.940610 -1.799950 14.493600 -0.177600 3.950000
-5.966290 1.523420 17.018000 -13.675200 3.920000
-5.255200 1.830740 17.673300 -13.941600 4.440000
9.389840 0.658859 15.959600 -12.964800 7.210000
-5.394280 1.128090 18.141000 -13.852800 5.320000
9.609210 0.615578 16.332500 -12.964800 5.970000
10.108100 0.615578 16.028500 -12.787200 5.610000
10.083900 0.629569 16.550200 -12.787200 4.570000
0.893376 1.876350 20.145400 0.888000 11.220000
9.346170 0.422754 17.961800 -13.231200 7.460000
1.070930 1.916270 20.566400 0.888000 14.570000
-5.601340 1.979950 19.811600 -14.030400 4.160000
9.533530 -1.102910 18.321900 -13.231200 7.320000
0.121735 1.516920 21.059200 0.888000 14.790000
0.122367 -4.007800 21.168600 0.888000 11.880000
0.665575 -4.087950 21.582100 0.888000 6.680000
-4.978770 1.765200 21.331600 -14.208000 3.090000
0.560789 0.866010 22.383000 0.888000 6.910000
-5.202030 1.799810 21.720100 -14.119200 6.020000
0.571574 0.882664 22.813500 0.888000 7.890000
10.106400 0.600292 20.471000 -13.408800 4.640000
-9.926020 1.640750 20.502300 -13.142400 5.780000
0.443236 -3.494940 23.000400 0.888000 6.780000
-9.362910 0.611618 21.292900 -13.320000 3.630000
0.136752 1.410110 23.657100 0.888000 6.970000
0.139239 1.435750 24.087200 0.888000 7.500000
0.754050 2.199930 24.451000 0.888000 6.380000
0.623447 2.238520 24.883900 0.888000 4.010000
-5.336670 1.872620 24.343900 -14.208000 6.510000
-5.428680 1.904910 24.763600 -14.208000 4.500000
-4.498460 1.857450 25.391800 -14.385600 3.670000
-4.574430 1.807320 25.820600 -14.385600 4.670000
10.241400 -1.340730 24.170500 -13.764000 5.890000
-5.707260 1.836950 26.034300 -14.208000 6.420000
10.219700 -1.362710 24.646200 -13.764000 4.160000
-5.799310 1.866570 26.454200 -14.296800 8.370000
10.387600 -1.216970 25.051200 -13.852800 9.940000
10.721300 -1.384690 24.901400 -13.675200 10.410000
10.891500 -1.406670 25.296600 -13.675200 13.010000
11.052200 -1.839400 25.669900 -13.675200 11.390000
10.524200 1.450630 26.380600 -13.852800 7.150000
18.475600 -0.241874 21.619300 -11.455200 10.800000
-8.589880 1.472610 27.523400 -13.852800 6.620000
18.755500 -0.245539 21.946900 -11.455200 7.970000
-8.556470 1.494590 27.984200 -13.852800 8.530000
-12.962900 1.041920 26.257100 -13.053600 8.340000
18.863200 -0.249203 22.420500 -11.455200 9.260000
-13.155000 0.965339 26.646100 -13.053600 8.980000
-8.406070 2.260060 28.879700 -13.941600 8.780000
-8.246690 2.228940 29.825500 -14.030400 7.020000
-8.127910 2.259900 30.303300 -14.030400 6.630000
-4.706870 1.700330 31.491400 -14.474400 5.650000
-4.770480 1.723300 31.917000 -14.474400 8.120000
12.028200 0.805513 31.373900 -13.941600 8.510000
11.937200 0.815840 31.869000 -13.941600 6.320000
18.596900 -0.605326 28.505900 -12.520800 7.010000
19.054300 -0.612989 28.720700 -12.520800 9.120000
-3.440270 0.193567 35.598300 -14.474400 7.710000
-18.012600 -4.166060 30.615400 -0.888000 5.640000
-7.739730 1.930100 35.305700 -14.208000 8.250000
-17.990200 -4.216250 31.123900 -0.976800 7.450000
-18.204400 -4.266450 31.494400 -0.976800 6.280000
11.649800 -0.318834 35.630800 -14.119200 4.260000
11.783700 -0.322499 36.040300 -14.119200 4.750000
-16.494400 -2.256180 34.069200 -12.964800 7.440000
-16.151600 -2.163410 34.715600 -13.142400 11.630000
-17.145000 -2.281820 34.228200 -12.876000 6.730000
-16.129900 -2.187720 35.199500 -13.142400 7.080000
-8.812020 0.929438 37.755100 -14.208000 12.470000
-8.909930 0.939765 38.174600 -14.208000 11.790000
-10.144400 2.044070 38.714500 -14.119200 6.390000
-10.252300 2.159870 39.126100 -14.119200 9.330000
-17.649600 -0.344487 36.455400 -12.964800 7.050000
-16.648300 -0.735587 37.861200 -13.231200 9.280000
-17.406100 -1.098650 37.984700 -13.142400 7.290000
12.031700 1.109970 40.462700 -14.208000 6.510000
-17.591000 -0.359146 38.388100 -13.142400 8.780000
12.152300 1.385050 40.868100 -14.208000 6.250000
-17.994400 -0.362811 38.676500 -13.142400 5.920000
12.281000 0.366476 41.301200 -14.208000 5.810000
-18.176100 -0.366476 39.067100 -13.142400 9.090000
12.403000 0.639318 41.711200 -14.208000 8.840000
12.524400 0.917466 42.119600 -14.208000 7.080000
12.064500 1.852520 42.671300 -14.296800 8.570000
19.644400 -0.789223 39.790700 -13.408800 8.490000
11.932300 1.870500 43.155300 -14.296800 7.360000
-16.281300 -0.796885 41.743800 -13.497600 10.020000
-17.640500 -1.608840 41.632800 -13.320000 7.440000
-16.314700 -0.858184 45.411400 -13.675200 8.100000
-17.583600 -0.569697 45.864200 -13.586400 11.020000
13.967800 0.734266 47.987500 -14.208000 6.570000
14.088800 0.584689 48.403200 -14.208000 10.610000
14.209200 0.589686 48.816900 -14.208000 7.270000
14.329600 0.594684 49.230600 -14.208000 7.340000
14.450100 0.599681 49.644300 -14.208000 6.520000
-15.750800 -3.395820 49.133500 -13.852800 7.060000
-15.882100 -3.424120 49.542900 -13.852800 7.070000
14.654100 0.000000 51.830700 -14.296800 6.210000
14.771300 0.000000 52.245400 -14.296800 12.480000
14.888500 -0.126935 52.659900 -14.296800 19.790000
14.696400 0.980782 53.152100 -14.296800 21.720000
31.078200 0.131933 47.637500 -12.609600 19.270000
31.313600 0.132932 47.998400 -12.609600 9.050000
14.958300 0.133932 55.769200 -14.296800 11.220000
15.172000 2.083830 56.566000 -14.296800 7.750000
-25.936600 1.223290 52.536000 -12.964800 9.920000
15.288000 1.551700 56.998200 -14.296800 7.700000
-26.432800 1.232280 52.770400 -12.964800 12.170000
15.400500 1.425140 57.417600 -14.296800 16.770000
14.946300 0.516731 58.887500 -14.385600 19.030000
15.052300 0.520395 59.305200 -14.385600 11.560000
15.158300 0.524060 59.722800 -14.385600 7.990000
15.263900 0.719617 60.138600 -14.385600 18.030000
16.053900 0.930493 61.267100 -14.385600 12.860000
16.217200 0.968472 63.894600 -14.385600 12.430000
16.261900 0.993791 65.660200 -14.385600 9.220000
15.856400 0.789580 66.205300 -14.385600 9.410000
15.864500 1.025440 67.971400 -14.474400 11.270000
14.862800 1.724620 70.387600 -14.474400 9.950000
18.452200 1.914140 70.419500 -14.474400 23.480000
-12.775000 -1.755600 72.109100 -14.385600 23.240000
-12.850100 -1.765930 72.533200 -14.385600 18.160000
15.451400 0.721957 83.466100 -14.563200 9.080000
15.530200 0.461763 83.891600 -14.563200 10.020000
15.608300 0.729286 84.313400 -14.563200 9.440000
-14.541400 1.265980 84.934900 -14.385600 8.990000
-13.955800 1.272310 85.469700 -14.385600 7.270000
-14.024500 1.547800 85.890600 -14.385600 5.620000
-14.093900 1.555460 86.315800 -14.385600 6.450000
-13.339900 0.000000 96.900400 -14.474400 9.010000
-13.398600 0.227884 97.327000 -14.474400 8.970000
-13.457400 0.228883 97.753900 -14.474400 11.300000
-13.515700 0.842894 98.177500 -14.474400 13.990000
-13.751200 0.233881 99.888200 -14.474400 12.810000
-13.810000 0.234880 100.315000 -14.474400 13.690000
-13.868600 0.550384 100.741000 -14.474400 9.970000
-13.146900 0.868547 101.270000 -14.474400 5.350000
-12.826600 0.564376 103.484000 -14.474400 5.930000
-12.078300 0.566709 104.008000 -14.563200 6.570000
-12.128000 0.569041 104.436000 -14.563200 5.390000
-12.177700 0.571373 104.864000 -14.563200 5.550000
13.519500 3.121180 148.877000 -14.652000 12.050000
13.558500 3.130180 149.306000 -14.652000 15.610000
13.597500 3.139170 149.735000 -14.652000 14.800000
