VERSION .7
FIELDS x y z velocity intensity
SIZE 4 4 4 4 4
TYPE F F F F F
COUNT 1 1 1 1 1
WIDTH 935
HEIGHT 1
VIEWPOINT 0 0 0 1 0 0 0
POINTS 935
DATA ascii
-6.591950 0.433703 11.610000 -12.520800 4.200000
-6.712030 0.447693 12.036600 -12.520800 7.130000
-6.155840 1.623620 12.714900 -12.787200 3.840000
-6.925430 0.000000 12.419300 -12.520800 6.300000
-6.443160 1.672820 13.051000 -12.876000 3.840000
7.769180 1.582760 12.319700 -12.432000 4.260000
-6.674020 0.396419 13.518600 -12.876000 10.320000
8.095190 1.629320 12.620000 -12.343200 6.760000
-6.864710 0.407745 13.904800 -12.876000 11.730000
8.630000 1.580450 12.793000 -12.165600 4.120000
-6.068980 1.771430 14.636200 -13.231200 4.920000
-7.054780 0.468361 14.289800 -12.876000 8.860000
8.654360 -1.820430 13.265600 -12.520800 6.660000
7.442740 0.481019 14.577000 -12.964800 4.270000
9.028810 1.176390 13.609200 -12.432000 9.790000
9.266410 1.207340 13.967400 -12.432000 8.910000
-6.067220 0.464377 16.585900 -13.320000 5.690000
-6.764640 0.464377 16.313900 -13.320000 4.140000
-5.866660 1.565240 17.048800 -13.586400 6.700000
-6.215990 0.377780 16.992600 -13.320000 3.690000
-5.871630 1.602510 17.500500 -13.586400 6.230000
-6.009370 1.595960 17.911100 -13.586400 5.050000
-6.144730 1.677050 18.314500 -13.675200 5.560000
-10.306600 1.632230 16.343300 -12.254400 7.030000
0.495279 1.362900 19.768300 0.888000 11.000000
-5.628310 1.714310 18.928100 -13.764000 5.130000
-5.118380 1.592140 19.082900 -13.586400 5.640000
-10.406500 1.668510 16.787100 -12.343200 9.180000
-10.791900 1.668510 16.542100 -12.165600 9.990000
-6.680100 1.592140 18.593800 -13.586400 4.710000
0.506046 1.392520 20.198000 0.888000 13.100000
-6.167780 1.392520 19.239900 -13.675200 5.710000
-11.009200 -5.594730 16.051600 -12.165600 10.630000
0.119195 1.613540 20.619800 0.799200 12.840000
-6.412490 1.422150 19.612600 -13.675200 7.770000
1.072280 1.613540 20.592300 0.799200 11.040000
0.931911 1.826120 21.014300 0.888000 13.020000
-5.604250 1.891160 20.268700 -13.852800 5.460000
0.829451 0.832702 21.512900 0.888000 10.700000
-5.718630 1.929760 20.682400 -13.941600 4.170000
0.676892 0.849356 21.949000 0.888000 7.150000
-9.312260 1.540660 20.321700 -13.231200 6.600000
-5.481540 1.288330 22.132600 -13.941600 8.520000
0.580287 2.155800 23.161300 0.799200 4.210000
-5.715220 1.312630 22.517600 -13.941600 9.000000
9.511350 -1.456310 21.185900 -13.408800 8.110000
0.136406 2.195730 23.597200 0.799200 8.660000
9.064740 -1.263760 21.860900 -13.497600 10.680000
0.000000 2.309950 24.019600 0.799200 11.880000
9.232090 -1.156300 22.264500 -13.497600 11.310000
0.000000 2.351190 24.448500 0.799200 10.280000
9.579590 0.588644 22.608500 -13.497600 11.560000
9.880470 0.598971 22.948400 -13.586400 15.290000
-9.376170 1.564180 23.113900 -13.320000 11.280000
10.051500 0.530691 23.345600 -13.586400 15.910000
-9.537830 1.591150 23.512400 -13.320000 11.010000
10.221900 0.539686 23.741300 -13.586400 12.180000
-10.384400 1.697910 23.615900 -13.142400 7.740000
-9.027990 0.548681 24.679800 -13.497600 4.270000
9.856880 1.049200 25.272200 -13.764000 6.350000
-4.874400 1.925830 27.513800 -14.208000 6.580000
-4.949390 1.955460 27.937100 -14.208000 6.240000
18.379600 1.806900 22.190600 -11.544000 5.630000
18.657400 1.743410 22.526000 -11.544000 10.160000
10.422500 -1.057240 27.825400 -13.764000 12.930000
18.935200 1.677250 22.861400 -11.544000 9.730000
-20.708000 0.733223 22.508400 -10.478400 4.500000
-20.999600 0.743550 22.825400 -10.478400 12.970000
-21.292800 0.656618 23.144100 -10.478400 6.460000
-21.584500 0.665613 23.461100 -10.478400 15.930000
-9.721350 1.626470 30.325000 -13.675200 7.260000
-7.515270 1.823100 31.378600 -13.764000 14.500000
-4.068650 2.102350 35.035700 -14.385600 4.620000
19.070900 -0.083957 30.763900 -12.609600 9.120000
-17.839800 2.153630 31.420100 -12.432000 9.340000
19.297900 -0.084957 31.130100 -12.609600 10.460000
19.525000 0.000000 31.496400 -12.609600 10.120000
19.752000 0.000000 31.862700 -12.609600 15.970000
9.115800 -0.205228 36.806600 -14.030400 7.210000
-5.042350 1.878990 38.840900 -14.385600 7.240000
-30.829800 0.469750 26.266400 -9.235200 7.520000
-9.199430 1.565480 39.415000 -14.119200 5.610000
-31.157800 0.474748 26.545900 -9.235200 6.480000
-16.650900 -0.095951 37.867100 -13.053600 9.790000
-18.789200 -1.982230 36.799700 -12.787200 6.850000
18.501000 -0.613998 37.474700 -13.231200 9.640000
20.333200 -2.002880 36.463200 -12.964800 5.220000
-18.984900 -2.002880 37.183000 -12.787200 8.430000
18.687300 -1.109970 37.852000 -13.231200 5.360000
20.542800 -2.023530 36.839100 -12.964800 5.590000
21.389000 -2.023530 36.354300 -12.787200 9.120000
11.920200 0.758574 40.952800 -14.119200 7.150000
12.040600 0.766236 41.366500 -14.119200 6.680000
-17.342000 -0.766236 39.438800 -13.142400 8.800000
11.821700 2.455110 41.812500 -14.119200 6.170000
11.368100 2.479420 42.383700 -14.119200 8.870000
-7.353150 2.047600 45.033100 -14.296800 7.350000
-7.774660 1.781980 45.411100 -14.208000 6.880000
-16.488400 -2.066920 43.007600 -13.408800 4.920000
-7.847330 1.798640 45.835500 -14.208000 7.110000
-16.307400 -2.086240 43.536500 -13.408800 8.660000
-7.919000 1.960430 46.254200 -14.208000 7.440000
-15.525600 -1.960430 44.284500 -13.586400 8.710000
-16.121400 -1.960430 44.071100 -13.408800 9.920000
-15.409400 -1.978420 44.780600 -13.586400 7.610000
-17.547800 -1.978420 43.986600 -13.320000 5.140000
-15.549500 -1.996400 45.187700 -13.586400 11.390000
-7.776340 0.708947 47.624900 -14.208000 8.650000
-15.948400 -2.312600 45.490700 -13.586400 9.390000
-7.845780 0.715277 48.050100 -14.208000 8.600000
13.551100 -2.813340 53.390500 -14.208000 9.660000
35.434300 0.317170 46.674900 -11.899200 7.000000
14.733300 0.879853 58.048100 -14.208000 6.530000
14.839300 0.886183 58.465700 -14.208000 6.870000
14.945300 0.892513 58.883300 -14.208000 7.630000
15.273900 5.515620 61.671000 -14.208000 8.290000
15.380200 5.404510 62.100000 -14.208000 8.790000
15.535100 1.349210 62.725800 -14.208000 6.560000
15.640400 0.955812 63.150900 -14.208000 6.570000
15.744000 0.962142 63.569100 -14.208000 7.090000
15.554700 0.981132 64.945600 -14.296800 9.420000
15.655600 0.779585 65.367200 -14.296800 11.790000
15.854900 1.210650 66.199300 -14.208000 9.950000
15.954300 1.430170 66.614300 -14.208000 7.610000
16.054600 1.439160 67.033200 -14.296800 6.730000
16.155000 1.448160 67.452200 -14.296800 12.580000
16.258300 0.593690 67.883500 -14.208000 11.670000
15.963100 0.814567 68.393800 -14.296800 16.640000
16.061000 0.819564 68.813400 -14.296800 19.760000
16.158900 0.824561 69.233000 -14.296800 18.320000
16.256900 0.829559 69.652600 -14.296800 12.790000
16.759600 0.834556 69.976500 -14.296800 16.810000
16.330000 19.683900 68.183100 -14.296800 14.270000
13.638700 19.800400 69.194900 -14.385600 12.670000
13.829700 1.082410 72.366300 -14.385600 8.960000
17.260600 1.088740 72.068600 -14.296800 8.890000
17.427200 2.016070 74.666900 -14.296800 9.800000
17.525100 2.027400 75.086400 -14.296800 8.810000
16.460800 1.094420 92.913900 -14.385600 10.120000
16.535300 1.392570 93.334400 -14.385600 14.300000
16.067400 1.693380 93.848400 -14.385600 11.200000
-13.714600 1.417890 95.531800 -14.296800 10.300000
-13.776400 1.124400 95.962200 -14.296800 10.540000
-11.901700 -0.923518 107.929000 -14.385600 5.810000
-11.322400 -0.927183 108.424000 -14.385600 6.390000
-11.996200 0.930848 108.785000 -14.385600 7.750000
-12.043400 0.934513 109.213000 -14.385600 11.250000
-12.090600 0.938177 109.642000 -14.385600 10.060000
-10.984000 -0.618016 113.657000 -14.385600 6.790000
-11.025600 0.000000 114.088000 -14.385600 6.230000
-11.067100 0.000000 114.517000 -14.385600 8.710000
-11.994100 -0.267863 114.856000 -14.385600 9.270000
15.291600 3.319070 158.230000 -14.474400 9.910000
15.333000 3.328060 158.659000 -14.474400 9.270000
15.375400 2.842740 159.097000 -14.474400 6.120000
-6.496480 0.870525 7.999160 -10.833600 7.510000
-6.847130 0.906797 8.266880 -10.833600 7.260000
-6.520530 1.037980 9.051050 -11.366400 9.810000
-7.121010 0.943068 8.597560 -10.833600 5.830000
-6.702400 1.006230 9.456340 -11.455200 8.740000
8.699480 0.755121 8.325730 -10.034400 4.900000
8.277500 0.405722 9.352590 -10.833600 7.520000
8.926690 0.782090 8.709490 -10.123200 6.990000
8.655740 0.419712 9.592150 -10.744800 7.460000
8.907050 0.579510 9.350710 -10.478400 6.750000
8.848360 0.433703 9.997590 -10.833600 3.510000
9.110440 0.598827 9.750630 -10.567200 5.400000
-5.979190 1.362410 12.350100 -12.698400 4.050000
-6.169710 1.317440 12.743600 -12.698400 5.230000
-6.651560 0.826473 13.027400 -12.520800 8.590000
-6.851220 0.676095 13.418500 -12.520800 8.000000
-6.104150 0.468361 14.721000 -13.053600 5.670000
8.157490 -1.428020 13.623700 -12.343200 6.830000
7.749850 -1.466620 14.349300 -12.520800 10.020000
8.038790 -1.505210 14.680700 -12.520800 10.850000
8.268680 -0.825929 15.100500 -12.520800 9.920000
8.740810 -2.330320 15.674800 -12.609600 5.180000
-6.342790 1.559690 17.339200 -13.320000 4.520000
-6.387630 1.595960 17.779700 -13.320000 6.000000
-5.632590 1.420610 18.047800 -13.497600 6.440000
9.078800 0.569628 17.124300 -12.787200 7.550000
9.280550 0.582286 17.504900 -12.787200 8.270000
9.722670 0.594945 17.755900 -12.698400 7.600000
-9.469590 1.205010 17.861400 -12.520800 6.240000
-5.492140 1.626750 19.425400 -13.586400 9.840000
-9.530190 1.230650 18.315400 -12.609600 9.220000
-5.609000 1.661360 19.838700 -13.586400 11.350000
8.885560 1.451780 19.098300 -13.053600 6.160000
-9.726900 1.321460 18.693500 -12.609600 6.900000
-5.739410 0.881295 20.299900 -13.586400 8.940000
9.066890 1.481410 19.488000 -13.053600 6.090000
-6.016020 0.899280 20.668500 -13.497600 8.620000
-6.258100 0.917266 21.046000 -13.497600 5.440000
-9.056520 1.599920 21.374000 -13.053600 6.020000
-5.580630 1.599920 22.532700 -13.764000 6.260000
10.056600 -0.588644 22.400400 -13.231200 8.950000
8.925460 -1.718430 23.280800 -13.320000 9.550000
8.925460 -1.718430 23.280800 -13.408800 10.460000
10.577100 1.296780 23.082000 -13.053600 7.150000
8.906040 -1.296780 23.776800 -13.497600 11.030000
10.238500 1.482790 24.163400 -13.231200 15.740000
-5.417620 1.807320 25.656900 -13.852800 7.670000
10.420600 0.557675 24.593400 -13.231200 16.780000
-5.355600 1.836950 26.108900 -13.852800 12.180000
10.588700 0.566670 24.990000 -13.231200 13.490000
-5.535900 1.236290 26.987900 -13.852800 9.310000
-4.349310 1.255610 27.640200 -13.941600 5.540000
-20.152700 0.551690 23.581800 -10.656000 10.090000
10.342900 0.449422 28.789000 -13.497600 8.130000
-20.660800 0.656618 23.710000 -10.567200 16.490000
10.488600 0.455751 29.194500 -13.497600 5.480000
-20.523900 0.665613 24.394300 -10.656000 17.730000
-20.801200 0.674607 24.724000 -10.656000 8.330000
-19.583100 -1.366910 26.212400 -11.188800 14.650000
10.914200 1.548620 30.379300 -13.497600 7.420000
11.059800 1.569270 30.784400 -13.497600 11.000000
-9.262090 1.589910 31.820600 -13.586400 7.430000
18.817100 1.907120 30.354500 -12.343200 6.250000
19.046100 1.846260 30.723900 -12.343200 8.930000
19.272800 1.868240 31.089700 -12.343200 7.600000
-18.032400 -1.546760 32.337200 -12.254400 12.270000
-17.799200 -1.564750 32.956200 -12.343200 11.470000
-4.663540 -0.674288 37.625300 -14.119200 6.300000
11.571600 -0.996711 36.096700 -13.675200 8.820000
-4.422840 -0.800534 38.085800 -14.030400 10.350000
-4.249840 -0.809529 38.538900 -14.119200 8.500000
-3.767590 1.878990 38.985200 -14.119200 9.170000
-30.699000 0.223885 27.725400 -9.412800 6.790000
-30.692800 0.226217 28.371000 -9.501600 8.240000
-16.629300 -2.110010 37.817900 -12.876000 6.680000
-9.088820 0.991400 40.343400 -13.852800 11.290000
-17.608600 -2.131990 37.847200 -12.787200 8.420000
-9.182960 1.098650 40.761300 -13.852800 6.600000
-17.790100 -2.153970 38.237300 -12.787200 9.150000
-15.966200 -0.233213 40.022200 -13.053600 7.220000
20.977100 1.265840 37.617900 -12.609600 8.330000
20.893400 1.278500 38.156300 -12.698400 8.480000
-3.095710 2.320720 43.348600 -14.119200 6.220000
19.682900 -0.509729 39.294800 -12.876000 10.850000
-2.816200 2.366670 44.230000 -14.119200 7.740000
-2.843540 2.389650 44.659400 -14.119200 7.500000
-2.871230 2.307820 45.094300 -14.119200 7.810000
-7.294430 1.960430 46.356800 -13.941600 5.680000
-7.001440 1.831940 46.843200 -14.030400 7.780000
-6.791730 1.848600 47.309100 -14.030400 6.360000
12.495900 1.566930 46.588600 -13.941600 5.200000
-7.633050 1.291190 48.508800 -13.941600 12.870000
13.249300 0.791235 52.201500 -13.941600 9.050000
13.355300 0.797565 52.619100 -13.941600 9.180000
13.461300 0.803895 53.036700 -13.941600 8.940000
-3.185110 1.620270 55.039300 -14.119200 9.590000
-13.099600 -1.277260 59.755500 -13.852800 4.880000
32.993300 0.553378 56.077700 -12.520800 10.830000
33.210700 0.759596 56.447300 -12.520800 5.960000
15.745100 0.557043 63.573700 -13.941600 6.740000
33.430300 0.560708 56.820500 -12.520800 8.360000
15.353200 1.172340 64.104300 -13.941600 6.480000
15.951200 0.974802 64.405500 -13.941600 6.190000
15.555800 0.568037 64.950200 -13.941600 8.980000
14.394300 0.000000 65.661200 -14.030400 11.020000
15.756000 0.784583 65.786300 -13.941600 10.400000
15.855700 1.000120 66.202600 -13.941600 9.320000
15.956100 1.006450 66.621600 -13.941600 8.340000
16.056400 1.012780 67.040600 -13.941600 16.450000
16.156800 1.019110 67.459600 -13.941600 8.760000
16.257100 1.025440 67.878600 -13.941600 17.240000
16.062000 0.163916 68.817800 -13.941600 6.990000
16.160000 0.164916 69.237500 -13.941600 12.710000
16.355300 -0.612014 70.074300 -13.941600 11.120000
16.453200 -0.615679 70.494000 -13.941600 19.120000
16.551700 -0.168914 70.915900 -13.941600 21.190000
16.644000 1.925460 71.311100 -13.941600 20.160000
16.746500 0.854546 71.750500 -13.941600 19.430000
16.844500 0.859543 72.170100 -13.941600 16.330000
16.383300 0.403459 72.722000 -13.941600 7.990000
16.572900 0.000000 73.563800 -13.941600 16.420000
17.132700 18.459200 71.534500 -13.941600 18.240000
16.908900 18.669000 72.446400 -13.941600 16.010000
16.035200 18.484500 73.146400 -13.941600 11.450000
26.205100 1.039450 85.704400 -13.764000 7.100000
26.331100 1.044440 86.116500 -13.764000 7.590000
26.457100 1.049440 86.528500 -13.764000 7.090000
26.583000 1.054440 86.940500 -13.764000 7.050000
16.686300 1.109410 94.186700 -14.030400 6.370000
16.760800 1.411560 94.607100 -14.030400 7.370000
16.835100 1.716370 95.026600 -14.030400 8.550000
-13.279000 1.731690 96.458300 -14.030400 7.160000
-13.337800 1.739360 96.885100 -14.030400 6.510000
-12.646100 1.747020 97.412200 -14.030400 11.590000
-11.993700 0.982155 114.852000 -14.119200 12.220000
-12.038800 0.268863 115.285000 -14.119200 8.540000
-12.083600 0.269862 115.713000 -14.119200 10.250000
15.414800 3.841680 159.506000 -14.208000 11.460000
15.456300 3.852000 159.934000 -14.208000 7.410000
15.495500 4.734240 160.340000 -14.208000 7.570000
-6.877020 0.565971 5.162960 -8.436000 5.690000
-6.377370 0.349760 8.674880 -11.366400 5.160000
-6.574780 0.416351 8.523240 -11.100000 6.900000
-6.824740 1.254840 8.239850 -10.833600 6.540000
-6.545240 0.363751 9.085360 -11.366400 6.980000
-6.922850 0.433005 8.797880 -11.100000 7.310000
-7.057640 0.433005 8.690130 -10.833600 6.580000
-7.100760 0.449659 9.205100 -11.100000 6.430000
8.617160 0.792359 8.407490 -10.123200 3.150000
-6.408130 1.117820 10.161500 -11.899200 4.490000
8.840610 0.820657 8.793330 -10.212000 6.220000
-6.475810 1.119260 10.628400 -11.988000 4.890000
9.145460 0.848956 9.096550 -10.300800 6.020000
9.160410 0.419712 9.111430 -10.300800 2.920000
-6.443270 1.196970 12.619500 -12.520800 6.740000
-6.171460 1.273640 12.747200 -12.698400 5.460000
-6.282080 0.124602 13.234800 -12.787200 7.150000
-7.039270 1.269520 13.277400 -12.520800 7.310000
-6.466850 0.128266 13.624100 -12.787200 7.100000
-7.044020 0.827186 13.796100 -12.609600 7.000000
8.163520 1.416170 14.123200 -12.432000 6.610000
6.682520 1.378330 14.884800 -13.053600 5.710000
7.332840 0.189899 14.639300 -12.698400 7.160000
8.489820 1.453440 14.429900 -12.432000 7.690000
8.332130 1.300220 16.013000 -12.698400 5.410000
8.994060 1.301730 17.615300 -12.876000 8.100000
9.050590 1.330030 18.068600 -12.964800 3.530000
-5.869750 1.916270 19.740000 -13.586400 8.450000
9.252510 0.991115 18.471700 -12.964800 5.550000
-6.162790 1.256280 20.155600 -13.586400 8.400000
-9.320580 1.582040 18.879300 -12.787200 6.340000
-6.288560 1.281920 20.566900 -13.586400 9.600000
-9.510800 1.614330 19.264600 -12.787200 5.310000
-6.255400 1.120940 21.037000 -13.586400 5.420000
-9.172850 1.499820 20.860700 -13.053600 6.780000
-11.051600 0.755482 20.462600 -12.520800 4.960000
-5.272610 1.815230 22.590500 -13.764000 6.120000
-4.881400 1.848840 23.117500 -13.852800 4.680000
9.363940 -0.989209 21.748700 -13.142400 4.590000
10.913500 -1.629550 20.973900 -12.787200 6.180000
9.534190 -1.007190 22.144100 -13.142400 6.480000
11.111900 -1.659180 21.355300 -12.787200 8.580000
-5.709500 1.537210 23.839000 -13.764000 10.400000
9.575180 -0.949280 22.598100 -13.320000 7.800000
8.723860 -1.218250 23.848400 -13.586400 4.700000
-9.225920 1.296780 23.654500 -13.231200 3.810000
8.731380 -1.238890 24.303400 -13.586400 8.850000
10.390000 0.772162 24.131900 -13.231200 8.710000
-5.515370 1.032550 26.119900 -13.941600 15.580000
10.228600 0.784821 24.667700 -13.320000 18.570000
-5.604970 0.965305 26.544200 -13.852800 8.600000
10.586400 0.797479 24.984700 -13.320000 17.330000
-4.806600 1.151080 27.131100 -13.941600 8.740000
-9.121260 0.660933 26.017100 -13.320000 11.780000
-4.718930 1.580020 27.562900 -14.030400 6.420000
10.725800 0.584660 25.866800 -13.408800 6.800000
-4.574000 1.779930 28.012700 -14.030400 7.970000
10.890800 0.593654 26.264800 -13.408800 6.490000
-4.643300 1.806900 28.437100 -14.030400 6.770000
11.056500 0.513378 26.664300 -13.408800 9.050000
-4.712600 1.833870 28.861500 -14.030400 6.640000
11.391000 -2.466490 26.883500 -13.320000 8.230000
-20.432600 0.559352 23.909300 -10.656000 6.560000
10.729700 -0.544028 28.645500 -13.586400 5.000000
-20.712500 0.567015 24.236900 -10.656000 5.760000
-20.992400 0.574677 24.564400 -10.656000 14.350000
-18.628800 -1.035290 25.858300 -11.366400 5.860000
-21.511100 0.582339 24.685800 -10.656000 14.520000
-18.677900 -1.049280 26.352500 -11.455200 7.080000
-8.830720 1.692400 31.937800 -13.586400 9.750000
10.431400 1.714380 31.904400 -13.675200 6.400000
10.565200 1.736360 32.313400 -13.675200 5.900000
19.058700 1.241110 29.213700 -12.165600 7.240000
19.291800 1.365630 29.570900 -12.165600 5.940000
19.063300 1.382280 30.229000 -12.343200 10.250000
19.046100 1.846260 30.723900 -12.432000 9.660000
-4.006740 2.292330 36.334400 -14.119200 4.850000
-4.053880 2.319300 36.761900 -14.119200 7.090000
11.312500 -0.085956 35.288400 -13.675200 12.360000
-18.003100 0.550700 32.877900 -12.343200 10.200000
11.137200 2.808930 35.685400 -13.675200 7.290000
19.727900 0.557030 32.378500 -12.520800 11.230000
11.265200 2.841220 36.095600 -13.675200 10.950000
12.964400 -0.681950 36.085900 -13.675200 11.160000
-18.099500 0.212224 34.784200 -12.432000 9.850000
-3.115170 1.940930 40.338000 -14.119200 7.970000
-8.755660 1.961580 39.940000 -13.852800 6.220000
-8.854940 1.087320 40.392900 -13.852800 5.570000
-17.622200 -1.357070 37.876500 -12.698400 9.490000
-8.947180 1.098650 40.813700 -13.852800 5.020000
-16.523300 -1.098650 38.376900 -12.876000 6.690000
-3.313100 2.297740 42.901000 -14.119200 5.710000
-17.925100 -2.297740 39.117200 -12.787200 6.810000
-3.344430 2.723830 43.306600 -14.119200 4.930000
20.062600 2.219910 38.556900 -12.876000 7.580000
-3.124670 2.750800 43.754200 -14.208000 5.880000
20.261200 2.241880 38.938700 -12.876000 6.690000
-7.632600 1.831940 46.744500 -13.941600 7.300000
-16.964000 -0.989424 44.248200 -13.231200 6.150000
-7.701990 1.848600 47.169500 -14.030400 6.340000
-15.559700 -0.998419 45.217200 -13.320000 5.710000
-16.311700 -1.268540 45.402900 -13.320000 6.710000
-7.633050 1.291190 48.508800 -14.030400 11.230000
-15.618500 -1.443060 46.551200 -13.320000 8.200000
-7.700010 1.302520 48.934300 -14.030400 10.510000
-8.052160 1.313850 49.314100 -14.030400 8.600000
13.355900 0.629665 52.621300 -13.941600 8.100000
-3.158840 2.284170 54.585300 -14.208000 9.530000
13.461900 0.634663 53.038900 -13.941600 9.040000
-2.865640 2.302160 55.032600 -14.208000 10.660000
13.567900 0.639660 53.456500 -13.941600 5.820000
-14.551100 -0.917833 60.755500 -13.764000 12.490000
32.993300 0.553378 56.077700 -12.609600 11.670000
33.209400 0.962142 56.445000 -12.609600 7.100000
33.427900 0.968472 56.816400 -12.609600 10.660000
15.848200 0.764593 63.989900 -13.941600 6.910000
15.951200 0.974802 64.405500 -13.941600 7.150000
15.756800 0.366145 65.789700 -14.030400 8.420000
15.472800 1.000120 66.293100 -13.941600 6.530000
15.570700 1.006450 66.712700 -13.941600 9.010000
15.668600 1.012780 67.132300 -13.941600 10.880000
16.676200 1.019110 67.333100 -13.941600 8.650000
16.061000 0.819564 68.813400 -14.030400 7.190000
16.157500 1.264290 69.226700 -13.941600 10.730000
16.254400 1.493130 69.642100 -14.030400 9.970000
16.352300 1.502130 70.061600 -14.030400 16.070000
16.451200 1.287280 70.485400 -14.030400 18.010000
16.549100 1.294940 70.904900 -14.030400 10.180000
15.489200 -0.869538 73.354100 -14.030400 17.660000
16.639900 18.071400 71.293900 -14.030400 20.880000
17.109200 18.857000 71.436300 -14.030400 20.270000
17.206400 18.964200 71.842200 -14.030400 18.480000
17.425000 -0.429113 77.345900 -14.030400 21.690000
26.331100 1.044440 86.116500 -13.764000 6.930000
26.457100 1.049440 86.528500 -13.764000 6.860000
25.912200 1.054440 87.142800 -13.764000 12.190000
16.685600 1.405230 94.182900 -14.119200 13.740000
16.760800 1.411560 94.607100 -14.119200 11.920000
16.836000 1.417890 95.031400 -14.119200 7.400000
16.910300 1.724030 95.450800 -14.119200 6.900000
-13.279700 1.430550 96.463100 -14.030400 8.540000
-13.338400 1.436880 96.889900 -14.030400 6.850000
-13.397200 1.443210 97.316800 -14.030400 7.900000
-11.108300 0.625012 114.944000 -14.119200 11.270000
-11.149900 0.268863 115.374000 -14.119200 9.160000
-11.191400 0.269862 115.803000 -14.119200 8.200000
-11.232400 0.993149 116.228000 -14.119200 13.000000
23.256600 -8.360270 131.273000 -14.030400 9.650000
22.565500 -8.800840 131.803000 -14.030400 11.970000
22.638000 -8.829140 132.227000 -14.030400 10.020000
15.416800 2.850400 159.526000 -14.208000 4.750000
15.458300 2.858060 159.955000 -14.208000 9.560000
15.498800 3.364040 160.374000 -14.208000 13.320000
-6.785350 0.449640 8.354850 -10.922400 4.670000
-6.989590 0.467626 8.743180 -11.011200 6.450000
-7.252690 0.943068 8.486770 -10.656000 3.670000
7.914700 0.979340 8.470860 -10.567200 3.120000
-7.414760 1.340540 9.423020 -11.100000 3.900000
8.154400 0.717877 8.863370 -10.656000 3.730000
8.539070 0.717877 8.493410 -10.389600 4.630000
-6.072010 1.479510 10.320400 -12.165600 5.000000
8.844040 0.743515 8.796740 -10.389600 7.590000
-6.123350 1.532350 10.784700 -12.254400 4.230000
8.973580 0.729241 9.276330 -10.478400 6.190000
-6.250690 1.545510 11.209300 -12.254400 3.970000
-5.993860 0.549583 12.883000 -12.698400 4.050000
-6.556100 0.681392 12.599700 -12.520800 4.310000
-6.172070 0.747295 13.266000 -12.787200 6.420000
-10.751400 1.350830 10.489800 -10.300800 3.170000
-6.353600 0.769274 13.656200 -12.787200 4.430000
-6.850230 0.722688 13.416500 -12.520800 3.930000
-11.058500 1.389430 10.789500 -10.300800 7.210000
-6.643200 0.791253 13.995600 -12.787200 4.480000
7.737870 1.246020 13.386800 -12.432000 4.640000
-11.258400 1.428020 11.198200 -10.389600 6.890000
7.247920 0.382102 14.195400 -12.698400 8.030000
-11.562600 1.466620 11.500800 -10.478400 3.360000
-6.818900 0.430398 14.880600 -12.876000 10.220000
-5.841520 6.196820 15.968900 -13.408800 6.560000
-5.980600 6.344360 16.349100 -13.408800 7.120000
-5.628310 1.714310 18.928100 -13.586400 4.170000
9.003170 0.949819 17.633200 -12.964800 6.820000
-5.750670 1.751580 19.339500 -13.586400 4.480000
-5.610030 1.613540 19.842300 -13.586400 7.920000
-9.528390 1.294490 18.312000 -12.698400 9.380000
-5.724030 1.777320 20.245500 -13.586400 9.390000
-9.582530 1.321460 18.767900 -12.698400 10.750000
-5.561680 1.813590 20.735600 -13.675200 7.870000
-9.636560 1.098960 19.238400 -12.698400 9.180000
-6.240080 1.900650 20.985400 -13.586400 5.580000
-9.412640 1.053060 19.830100 -12.964800 7.460000
-9.589400 1.402370 20.202500 -12.964800 8.070000
-9.769830 1.570290 20.582600 -12.964800 5.420000
-9.177920 1.671710 21.316600 -13.053600 5.260000
-9.347880 1.702660 21.711400 -13.053600 5.260000
-5.288430 1.808050 23.474200 -13.852800 5.540000
11.102300 -1.938250 21.336800 -12.787200 5.890000
9.329440 -3.162580 22.499300 -13.231200 8.580000
11.129300 -2.067500 21.797300 -12.876000 7.660000
10.230600 -0.811444 22.787900 -13.320000 8.160000
11.870200 -0.811444 21.978400 -13.053600 7.230000
11.153300 -2.103770 22.266300 -12.964800 9.030000
9.095130 -0.904015 23.723300 -13.497600 10.370000
10.709100 -1.355670 23.017700 -13.142400 9.680000
11.345600 -2.140040 22.650200 -12.964800 8.050000
-5.268070 1.888410 25.682200 -13.941600 6.660000
10.250400 0.772162 24.191500 -13.320000 16.190000
-9.405320 0.772162 24.532400 -13.231200 16.340000
-5.856380 1.919370 25.995200 -13.941600 6.610000
10.229500 0.702228 24.669800 -13.408800 16.370000
-4.935070 1.384690 26.658400 -13.941600 7.730000
10.396400 0.482729 25.072400 -13.408800 11.590000
-5.326970 1.321490 27.025900 -13.941600 6.880000
-8.971870 0.490391 26.072800 -13.408800 6.770000
-5.777350 1.580020 27.360600 -13.941600 4.690000
10.168500 1.169060 26.071300 -13.497600 6.060000
10.325000 1.187050 26.472400 -13.497600 8.360000
-4.638240 2.252230 28.406100 -14.030400 6.300000
10.685300 1.383430 26.784400 -13.497600 8.270000
-4.707470 2.285840 28.830100 -14.030400 6.630000
10.054600 1.404080 27.486200 -13.586400 6.800000
11.876800 -2.794560 27.585100 -13.231200 8.870000
10.114200 -1.182440 28.849400 -13.586400 5.360000
-20.659400 0.753877 23.708300 -10.567200 5.130000
10.876800 -1.007310 29.038200 -13.586400 5.040000
-20.942400 0.764204 24.033100 -10.567200 5.680000
-20.989700 0.774531 24.561200 -10.656000 6.920000
-21.268300 0.860796 24.887200 -10.656000 6.680000
10.827800 1.164490 30.884600 -13.586400 6.590000
10.970200 1.179820 31.291000 -13.586400 16.840000
11.108500 1.506730 31.685600 -13.586400 7.770000
18.991200 1.506730 27.689500 -12.076800 10.730000
18.819300 1.824280 30.358200 -12.432000 7.900000
19.043800 1.930100 30.720200 -12.432000 8.310000
-4.006740 2.292330 36.334400 -14.119200 9.250000
19.270500 1.953080 31.085900 -12.432000 6.180000
-3.841310 2.319300 36.784700 -14.119200 6.330000
-17.333400 1.976060 32.694000 -12.432000 7.080000
-18.542800 -0.544370 32.079900 -12.165600 11.040000
-3.599050 2.346270 37.241300 -14.119200 6.850000
19.257800 -0.318834 32.162200 -12.520800 10.270000
-18.758400 -0.550700 32.452900 -12.165600 7.690000
19.479800 -0.087955 32.533000 -12.520800 8.540000
10.930500 -0.088955 36.759300 -13.852800 13.170000
19.701300 0.000000 32.902700 -12.520800 11.380000
11.053300 -0.089954 37.172300 -13.852800 9.720000
9.936350 -0.939765 37.920400 -13.941600 8.430000
10.782300 -0.950092 38.136500 -13.852800 13.470000
-3.810040 1.654680 39.424600 -14.208000 8.110000
-30.377600 0.474748 27.435200 -9.412800 8.430000
-3.851460 1.672660 39.853100 -14.208000 7.860000
-30.696100 0.607669 27.722900 -9.412800 5.790000
-8.761110 1.329090 39.964900 -13.941600 7.970000
-31.015900 0.613998 28.011600 -9.412800 7.980000
-8.853330 1.343080 40.385600 -13.852800 6.470000
-16.931600 -1.470940 37.713900 -12.876000 9.000000
-8.946410 1.227860 40.810200 -13.852800 6.100000
-17.620400 -1.486260 37.872500 -12.876000 9.350000
-9.038640 1.240520 41.230900 -13.852800 5.370000
-17.767200 -3.033840 38.188200 -12.787200 7.580000
-16.818400 -3.327920 39.062300 -12.964800 6.020000
-17.931200 -3.590910 38.540600 -12.787200 7.610000
-16.165800 -2.696860 39.851500 -13.053600 7.710000
-16.094500 -2.723830 40.343700 -13.053600 5.490000
-16.253900 -2.750800 40.743200 -13.142400 9.240000
23.155000 -1.094670 39.355900 -12.609600 5.880000
-7.295330 1.815290 46.362500 -14.030400 8.230000
-7.361350 1.978420 46.782100 -14.030400 8.590000
-15.202600 -1.848600 45.311800 -13.408800 6.560000
-15.339600 -1.865250 45.720000 -13.408800 4.940000
-15.474600 -2.032370 46.122500 -13.408800 10.380000
-7.633050 1.291190 48.508800 -14.030400 13.750000
-15.609500 -2.202140 46.524400 -13.408800 11.960000
-7.700010 1.302520 48.934300 -14.030400 9.880000
-15.746400 -2.221460 46.932600 -13.408800 6.880000
-7.766960 1.313850 49.359800 -14.030400 6.080000
12.946000 1.124350 52.271500 -13.941600 11.440000
13.353900 1.133340 52.613300 -13.941600 7.620000
-2.404970 0.965457 54.231500 -14.208000 8.920000
13.459900 1.142340 53.030900 -13.941600 6.700000
-2.424060 0.973120 54.661900 -14.208000 5.740000
13.255000 1.449760 53.519200 -13.941600 7.000000
-2.124250 1.449760 55.095200 -14.208000 8.780000
-2.140840 1.461090 55.525600 -14.208000 9.510000
34.757900 0.321835 48.247000 -11.899200 8.090000
35.010200 0.138929 48.597200 -11.899200 5.800000
35.262200 0.000000 48.947000 -11.899200 5.750000
15.156500 1.095720 59.715500 -13.941600 9.780000
15.453500 1.180000 64.523300 -14.030400 8.270000
15.553900 1.187670 64.942300 -14.030400 6.470000
15.375900 0.575367 65.878300 -14.030400 8.040000
15.854000 1.421170 66.195300 -14.030400 9.570000
16.156800 1.019110 67.459600 -14.030400 7.480000
16.459000 0.601020 68.721500 -14.030400 8.270000
17.091200 0.824561 69.008700 -14.030400 10.120000
16.254400 1.493130 69.642100 -14.030400 9.220000
16.352300 1.502130 70.061600 -14.030400 7.150000
16.450200 1.511120 70.481100 -14.030400 18.320000
16.549100 1.294940 70.904900 -14.030400 17.470000
16.095900 1.529110 71.446400 -14.030400 7.680000
26.327100 1.879910 86.103500 -13.852800 19.990000
26.454700 1.609100 86.520600 -13.852800 9.190000
26.580600 1.616760 86.932600 -13.852800 10.650000
26.706600 1.624420 87.344600 -13.852800 10.290000
16.141600 1.109410 94.281600 -14.119200 11.160000
16.214300 1.114410 94.706300 -14.119200 10.300000
16.287000 1.119400 95.131000 -14.119200 9.010000
-13.897600 1.739360 96.806400 -14.030400 8.040000
-13.959500 1.443210 97.237700 -14.030400 6.570000
-11.590900 0.949172 110.996000 -14.119200 14.040000
-11.680400 0.956501 111.853000 -14.119200 13.570000
-11.680400 0.956501 111.853000 -14.119200 8.550000
-10.859400 0.960166 112.368000 -14.119200 5.450000
-11.066700 0.978490 114.513000 -14.208000 11.120000
-11.108100 0.982155 114.942000 -14.119200 12.010000
-11.149600 0.985819 115.370000 -14.119200 9.520000
-11.191000 0.989484 115.799000 -14.119200 7.710000
-53.911600 -13.658500 117.649000 -12.698400 8.450000
-54.090100 -13.703700 118.038000 -12.698400 5.960000
23.261000 -7.947920 131.298000 -14.119200 4.730000
22.574200 -7.973560 131.854000 -14.119200 7.430000
15.415900 3.346050 159.517000 -14.296800 11.740000
15.457400 3.355050 159.946000 -14.208000 11.080000
-6.910130 0.804896 8.781710 -11.100000 6.010000
-6.671600 1.498060 9.412890 -11.544000 5.760000
-7.175900 0.835853 9.119470 -11.100000 5.170000
-6.624640 1.405420 9.985390 -11.810400 4.060000
-6.993730 1.553550 9.707900 -11.544000 4.570000
8.062070 0.866811 8.934250 -10.922400 3.940000
-6.861230 1.455610 10.342000 -11.810400 3.850000
8.366340 0.444347 9.271430 -10.922400 5.040000
8.654830 0.459669 9.591140 -10.922400 5.190000
9.038390 0.474991 9.824220 -10.922400 4.530000
-6.653970 0.637461 12.550600 -12.520800 6.190000
-6.755740 0.656779 12.983400 -12.609600 9.570000
-6.955370 0.629496 13.367100 -12.609600 3.750000
-6.239960 1.756770 13.617200 -12.964800 8.980000
-6.418250 1.806970 14.006300 -12.964800 8.050000
-5.883850 1.428020 14.748900 -13.142400 5.510000
-6.045730 1.378330 15.154700 -13.142400 5.200000
7.733390 1.311000 14.862300 -12.787200 4.420000
8.961070 -0.441724 14.209700 -12.343200 5.700000
-5.994490 1.414600 15.635700 -13.231200 5.950000
7.733390 1.311000 14.862300 -12.787200 6.490000
9.190840 -0.453050 14.574000 -12.343200 7.130000
7.313830 -2.483390 15.408400 -13.053600 10.340000
-6.105470 1.659590 17.415000 -13.408800 7.030000
-6.247450 1.698190 17.820000 -13.408800 14.000000
-6.139980 1.592140 18.779100 -13.497600 6.110000
9.412220 0.766086 17.427300 -12.876000 14.610000
-9.971420 1.517470 17.562000 -12.432000 4.520000
-5.638780 1.751580 19.372400 -13.675200 11.910000
-10.183600 1.549760 17.935700 -12.432000 4.510000
-5.755550 1.916270 19.773600 -13.675200 7.910000
-10.398100 1.516920 18.313500 -12.432000 11.710000
-5.998480 1.695970 20.172900 -13.675200 14.690000
-9.762530 1.813590 19.120400 -12.698400 10.260000
-5.443460 1.730580 20.774000 -13.764000 7.610000
-9.802540 1.968350 19.569800 -12.787200 9.360000
-5.553350 1.714380 21.193400 -13.764000 4.690000
-10.605100 2.006950 19.635900 -12.698400 7.260000
-5.662240 1.748000 21.609000 -13.852800 7.160000
-9.153360 1.609790 20.388500 -13.142400 7.370000
-5.770070 1.834420 22.020500 -13.764000 6.350000
-9.329380 1.640750 20.780500 -13.142400 4.160000
10.900600 -1.994950 20.949100 -12.964800 8.130000
9.541000 -0.429092 22.159900 -13.408800 5.340000
11.098800 -2.031220 21.330000 -12.964800 8.870000
10.826100 -2.275570 21.928900 -13.053600 4.260000
11.464000 -2.067500 21.623200 -12.876000 9.690000
10.846800 -2.238520 22.404200 -13.142400 5.740000
8.915090 0.609298 23.800900 -13.675200 10.280000
11.033800 -2.277120 22.790400 -13.142400 6.750000
9.899480 0.679576 23.874000 -13.497600 10.170000
-5.075010 1.482790 25.747700 -13.941600 8.280000
10.064500 0.690902 24.271900 -13.497600 8.150000
-5.158210 1.507100 26.169700 -13.941600 10.340000
10.229500 0.702228 24.669800 -13.497600 9.890000
-10.018700 1.836950 24.697900 -13.231200 10.180000
-4.728080 1.531410 26.687900 -14.030400 11.040000
10.394500 0.713554 25.067700 -13.497600 16.650000
-4.803950 1.470550 27.116100 -14.030400 18.430000
-4.879010 1.493530 27.539800 -14.030400 15.750000
10.168500 1.169060 26.071300 -13.586400 8.260000
10.325000 1.187050 26.472400 -13.586400 5.340000
10.458600 -2.252230 26.814900 -13.586400 5.590000
10.614700 -2.285840 27.215100 -13.586400 7.250000
10.580100 0.163249 28.246100 -13.675200 8.480000
10.731300 0.165582 28.649600 -13.675200 10.600000
-20.430000 0.753877 23.906200 -10.656000 11.480000
11.106000 -0.167914 28.968400 -13.675200 9.870000
-20.709800 0.764204 24.233700 -10.656000 8.020000
10.232900 -0.656618 29.737500 -13.764000 5.510000
-20.989700 0.774531 24.561200 -10.656000 9.160000
10.547200 -0.665613 30.084400 -13.764000 8.910000
19.117300 1.648440 26.004500 -11.899200 9.450000
-21.269600 0.784858 24.888700 -10.656000 12.760000
18.755600 2.207290 27.802900 -12.165600 7.810000
10.916800 1.999800 31.724900 -13.764000 5.440000
18.996000 2.235580 28.159400 -12.165600 10.110000
19.043600 1.861170 29.190600 -12.343200 7.090000
19.050400 1.884150 29.698700 -12.343200 10.810000
19.050500 1.907120 30.208600 -12.432000 7.730000
19.033500 2.265360 30.703700 -12.520800 10.890000
19.263700 2.179270 31.075100 -12.520800 5.500000
-4.005110 2.518390 36.319700 -14.208000 6.110000
19.250900 2.090490 31.595600 -12.520800 10.530000
-4.052230 2.548020 36.746900 -14.208000 10.900000
11.038400 -0.658963 35.369000 -13.852800 6.480000
11.167400 -0.550700 35.782100 -13.852800 8.290000
19.201200 2.022010 32.635700 -12.698400 11.490000
-17.212700 -2.256180 33.712000 -12.520800 13.020000
11.296800 -0.205228 36.196800 -13.852800 8.090000
-17.414400 2.044990 34.107000 -12.609600 6.040000
11.213300 -0.207560 36.673500 -13.852800 6.350000
9.824810 -1.259140 37.494700 -14.030400 10.710000
11.547600 -1.259140 37.000500 -13.852800 10.510000
9.634010 -2.000110 37.957300 -14.030400 6.900000
-30.376400 0.601339 27.434100 -9.412800 12.960000
-30.696100 0.607669 27.722900 -9.412800 9.600000
-31.015900 0.613998 28.011600 -9.412800 8.840000
-16.805300 -1.132630 39.661700 -13.142400 9.120000
11.837100 1.043040 41.867200 -13.941600 12.430000
12.188700 1.074020 43.110800 -13.941600 5.830000
-8.332860 2.439700 47.035200 -14.030400 7.530000
-17.263300 -1.865250 45.028900 -13.231200 8.650000
-7.912650 1.443060 48.459600 -14.119200 6.210000
-14.986200 -1.746740 46.748200 -13.497600 6.490000
-7.981290 1.608900 48.880100 -14.119200 6.980000
-17.012900 -1.762060 46.508100 -13.320000 8.010000
-16.447500 -0.119939 49.022300 -13.497600 8.200000
-2.424440 -0.126935 54.670400 -14.296800 10.190000
-2.443540 0.000000 55.101000 -14.296800 7.560000
-15.736400 -1.268260 58.669900 -13.852800 11.270000
15.051300 0.898843 59.300900 -14.030400 6.640000
-13.099600 -1.277260 59.755500 -13.852800 10.280000
15.157300 0.905173 59.718500 -14.030400 7.110000
34.431400 0.542384 53.676900 -12.432000 6.320000
12.998000 0.987462 65.944400 -14.208000 9.980000
15.755400 0.993791 65.783600 -14.119200 5.600000
-18.169300 6.769480 65.712200 -13.675200 5.900000
-18.283600 6.812060 66.125500 -13.675200 8.510000
16.156000 1.233640 67.456200 -14.119200 8.380000
16.256300 1.241300 67.875200 -14.119200 6.470000
16.357500 1.031770 68.297600 -14.119200 5.640000
16.557300 1.264290 69.132100 -14.119200 7.210000
16.255400 1.271950 69.646200 -14.119200 10.230000
15.812800 1.279610 70.189800 -14.119200 8.340000
15.907500 1.287280 70.610100 -14.119200 9.530000
16.959600 1.069750 70.811600 -14.119200 7.540000
16.285300 1.547100 72.286900 -14.119200 7.480000
16.382900 0.634003 72.720400 -14.119200 11.490000
16.477600 0.637667 73.140800 -14.119200 10.310000
17.137600 1.107730 73.425900 -14.119200 8.620000
16.385300 5.273810 74.743800 -14.119200 9.840000
16.140900 1.405230 94.277700 -14.208000 24.930000
16.212800 1.708710 94.697700 -14.208000 22.500000
16.284600 2.014830 95.116600 -14.208000 14.520000
-12.478100 2.323590 96.118100 -14.208000 8.210000
16.357300 2.023820 95.541300 -14.208000 6.650000
-13.277300 2.333920 96.445800 -14.119200 10.080000
-13.335300 2.571060 96.866900 -14.119200 10.950000
-10.776900 0.000000 111.514000 -14.208000 12.040000
-10.171100 0.000000 112.004000 -14.208000 12.250000
-11.066700 0.978490 114.513000 -14.208000 11.410000
-11.108100 0.982155 114.942000 -14.208000 9.040000
-11.149800 0.627344 115.373000 -14.208000 7.240000
-11.191200 0.629676 115.802000 -14.208000 8.220000
15.413900 4.213370 159.496000 -14.296800 6.750000
15.456300 3.852000 159.934000 -14.296800 11.370000
15.497700 3.862330 160.363000 -14.296800 13.660000
-6.226800 1.533740 9.707290 -11.988000 2.910000
-6.379650 1.590540 10.116300 -11.988000 2.870000
-6.605220 1.830970 12.458700 -12.698400 4.010000
-6.759620 0.430386 12.990900 -12.698400 7.470000
8.411040 1.751570 11.867000 -12.165600 3.070000
-6.279420 0.489664 13.703300 -12.964800 7.610000
-6.958430 0.443044 13.372900 -12.698400 7.120000
-6.505350 1.675870 13.982400 -12.964800 7.620000
-6.723090 0.419072 14.450400 -12.964800 5.660000
-7.015290 0.683453 14.779500 -12.964800 7.750000
-6.874900 0.805281 15.313300 -13.053600 6.990000
-7.316590 0.701439 15.112500 -12.876000 6.920000
7.172020 0.825929 15.651200 -13.142400 5.200000
9.078250 -0.453050 14.644400 -12.698400 8.990000
-6.195660 0.368785 16.540800 -13.408800 4.450000
9.187560 -0.573607 15.079100 -12.698400 9.240000
-6.477180 0.377780 16.894800 -13.408800 8.250000
9.172430 -0.587597 15.590100 -12.609600 5.110000
-6.630940 0.444065 17.295800 -13.408800 9.840000
-6.785620 0.395770 17.699300 -13.408800 7.440000
-5.601340 1.979950 19.811600 -13.852800 6.460000
-10.027100 1.979950 17.981400 -12.698400 11.720000
-5.602670 1.956190 20.263000 -13.852800 6.250000
-6.266770 1.826120 20.079800 -13.675200 5.210000
-10.236000 2.021200 18.356000 -12.698400 10.100000
0.000000 2.509680 21.398300 0.799200 6.870000
-5.439150 1.929760 20.757600 -13.941600 5.910000
-5.998700 1.863390 20.609000 -13.764000 6.130000
0.420533 2.559870 21.822200 0.888000 6.670000
-5.384590 1.968350 21.214900 -13.941600 6.530000
-6.240080 1.900650 20.985400 -13.764000 5.710000
0.429044 2.489580 22.263900 0.888000 4.460000
-5.491670 1.937920 21.636800 -13.941600 4.050000
-0.570393 1.711190 22.766400 0.799200 4.570000
-5.600180 1.834420 22.064300 -13.941600 5.010000
-10.812000 1.975190 20.019000 -12.787200 5.230000
0.580117 2.227450 23.154500 0.888000 5.320000
-12.822100 1.869030 19.326900 -14.119200 6.620000
-11.016000 2.012460 20.396700 -12.787200 6.150000
0.136366 2.268700 23.590300 0.799200 7.560000
-5.503170 1.848840 22.977500 -14.030400 8.960000
0.000000 2.309950 24.019600 0.799200 8.830000
-5.603220 1.882460 23.395200 -14.030400 7.980000
9.410170 -0.708870 22.208600 -13.586400 9.750000
0.000000 2.275570 24.455700 0.799200 5.710000
9.578210 -0.721529 22.605200 -13.586400 10.230000
11.634000 -1.972870 21.541000 -12.964800 8.180000
8.757690 -1.120390 23.380700 -13.586400 7.710000
10.531900 -1.120390 22.637000 -13.320000 9.500000
11.838100 -2.007480 21.918900 -12.964800 8.530000
9.086390 -1.434170 23.700500 -13.764000 7.760000
10.713500 -1.139700 23.027300 -13.320000 11.810000
12.042200 -2.042090 22.296900 -12.964800 5.960000
9.900740 0.539686 23.877000 -13.586400 14.600000
10.895100 -1.159020 23.417600 -13.320000 10.640000
10.064500 0.690902 24.271900 -13.586400 17.890000
-5.358790 1.589580 26.124500 -14.119200 6.560000
10.229500 0.702228 24.669800 -13.586400 16.890000
-10.010000 2.145920 24.676500 -13.320000 8.290000
-5.598580 1.615220 26.514000 -14.119200 6.700000
10.391500 0.965305 25.060500 -13.586400 11.470000
-10.364400 2.180540 24.995300 -13.231200 8.740000
-9.318290 0.980627 25.937100 -13.497600 7.830000
-4.877300 1.666500 27.530200 -14.208000 7.940000
-4.952340 1.692140 27.953700 -14.208000 5.080000
-4.863260 1.717780 28.405800 -14.208000 4.380000
10.624700 -3.362960 26.632700 -13.675200 8.450000
-12.874200 2.674790 25.702000 -13.142400 5.240000
10.427800 -3.165530 27.199300 -13.675200 8.130000
10.115400 -1.087880 28.852800 -13.852800 5.940000
18.874100 2.103600 23.986100 -11.721600 13.690000
10.089600 -1.007310 29.321000 -13.852800 9.840000
19.131400 2.324630 24.313100 -11.721600 12.820000
-20.660800 0.656618 23.710000 -10.744800 10.880000
10.229800 -1.021300 29.728300 -13.852800 7.580000
-20.943800 0.665613 24.034700 -10.744800 9.930000
-9.136100 1.948520 31.387800 -13.852800 15.040000
-17.561200 -3.814710 27.377100 -0.355200 8.150000
-9.010940 1.974160 31.871200 -13.852800 9.560000
18.733400 1.974160 27.313500 -12.254400 9.590000
-9.132270 1.714380 32.300300 -13.852800 7.360000
18.976700 1.999800 27.668300 -12.254400 8.900000
-9.249350 1.736360 32.714400 -13.852800 9.550000
-18.127200 2.157490 29.241600 -12.165600 9.240000
-4.005940 2.405370 36.327200 -14.385600 4.340000
10.835500 -0.085956 35.437800 -14.030400 4.710000
-18.041900 0.974058 32.354200 -12.520800 6.260000
-4.601320 2.461970 37.123300 -14.385600 5.990000
10.961500 -0.086956 35.849800 -14.030400 9.630000
11.087100 -0.322499 36.260700 -14.030400 9.290000
9.934690 -0.326163 37.039500 -14.119200 9.000000
12.961700 -1.636690 36.971500 -13.852800 10.190000
11.276800 -2.481110 37.924000 -14.030400 8.490000
10.470500 -2.660060 39.037300 -14.119200 5.270000
-30.376400 0.601339 27.434100 -9.501600 7.950000
-30.694600 0.735587 27.721500 -9.501600 8.460000
-31.014300 0.743249 28.010200 -9.501600 7.930000
-16.698300 -0.489740 38.783400 -13.053600 7.420000
-18.102600 -1.012050 38.137800 -12.876000 8.750000
-18.287400 -1.022380 38.527000 -12.876000 5.380000
-18.472100 -1.032710 38.916100 -12.876000 6.340000
19.482800 -1.278500 38.895400 -13.142400 11.330000
20.896400 -1.043040 38.161800 -12.964800 10.200000
11.951500 1.427020 42.271600 -14.119200 6.490000
19.146900 -1.053360 39.548000 -13.320000 7.220000
19.977900 -1.291160 39.127700 -13.142400 8.100000
12.067400 1.578200 42.681500 -14.119200 9.300000
18.716700 -1.063690 40.229000 -13.408800 7.390000
20.173700 -1.303810 39.511300 -13.142400 6.560000
-7.563210 1.815290 46.319600 -14.296800 7.270000
-7.992650 1.831940 46.684300 -14.208000 8.040000
-16.950700 -2.124870 44.213400 -13.408800 7.150000
-6.793230 1.552940 47.319500 -14.296800 8.110000
-16.155400 -2.144190 44.967800 -13.497600 6.630000
-6.854430 1.566930 47.745900 -14.296800 7.710000
-16.300900 -2.163510 45.372900 -13.497600 9.940000
-7.913330 1.291190 48.463800 -14.296800 9.790000
-15.256100 -1.746740 46.660800 -13.675200 7.840000
-7.983210 1.187610 48.891800 -14.296800 9.450000
-2.401090 3.230440 54.144000 -14.474400 8.380000
-2.419210 3.593910 54.552500 -14.474400 6.150000
-2.438260 3.622210 54.982100 -14.474400 8.040000
12.928500 -2.964080 53.980400 -14.208000 6.450000
13.028700 -2.987060 54.398900 -14.208000 6.090000
12.388400 -3.010040 54.989400 -14.208000 7.090000
15.051300 0.898843 59.300900 -14.208000 9.260000
15.157900 0.714620 59.721000 -14.208000 5.370000
15.553900 1.187670 64.942300 -14.208000 7.120000
15.855700 1.000120 66.202600 -14.208000 5.460000
15.955300 1.218320 66.618200 -14.208000 6.610000
16.056400 1.012780 67.040600 -14.208000 10.170000
16.155000 1.448160 67.452200 -14.208000 11.030000
15.863700 1.241300 67.968000 -14.296800 9.050000
16.355700 1.466150 68.290100 -14.208000 11.080000
15.530600 0.601020 68.937300 -14.208000 19.150000
16.159400 0.604685 69.235100 -14.208000 15.660000
16.255400 1.271950 69.646200 -14.296800 18.160000
16.354100 1.057090 70.069300 -14.296800 19.890000
16.452100 1.063420 70.488900 -14.296800 16.190000
16.550000 1.069750 70.908500 -14.296800 14.080000
16.379900 -1.556090 72.707200 -14.296800 10.900000
17.037800 -1.565090 72.998300 -14.296800 21.990000
17.139400 -0.174911 73.433700 -14.208000 25.450000
16.239700 0.000000 74.079300 -14.296800 24.430000
15.757200 -0.176910 74.623600 -14.296800 18.380000
16.424000 -0.415120 74.920000 -14.296800 10.860000
16.951500 -0.417452 75.244100 -14.208000 8.830000
17.123900 3.496380 76.009500 -14.296800 10.900000
16.686300 1.109410 94.186700 -14.385600 9.830000
16.214300 1.114410 94.706300 -14.385600 8.920000
16.287000 1.119400 95.131000 -14.385600 9.820000
16.358200 1.724030 95.547000 -14.385600 8.260000
-13.279000 1.731690 96.458300 -14.296800 9.400000
-13.337800 1.739360 96.885100 -14.296800 7.920000
-13.395700 2.050810 97.306100 -14.296800 8.510000
-10.776500 -0.952837 111.510000 -14.385600 14.260000
-10.170700 -0.956501 112.000000 -14.385600 13.430000
-10.209700 -0.960166 112.429000 -14.385600 6.780000
-11.108100 0.982155 114.942000 -14.385600 11.750000
-11.149600 0.985819 115.370000 -14.385600 12.480000
-11.191000 0.989484 115.799000 -14.385600 8.870000
-11.232400 0.993149 116.228000 -14.385600 5.710000
-54.072200 -14.105200 117.999000 -12.876000 6.540000
-54.250600 -14.151800 118.389000 -12.876000 7.170000
-53.493800 -14.602300 119.154000 -12.876000 6.740000
-53.669200 -14.650200 119.544000 -12.876000 5.450000
15.414800 3.841680 159.506000 -14.474400 8.820000
15.456300 3.852000 159.934000 -14.474400 6.930000
15.496800 4.236020 160.354000 -14.474400 13.210000
