VERSION .7
FIELDS x y z velocity intensity
SIZE 4 4 4 4 4
TYPE F F F F F
COUNT 1 1 1 1 1
WIDTH 977
HEIGHT 1
VIEWPOINT 0 0 0 1 0 0 0
POINTS 977
DATA ascii
5.614090 -1.585080 9.056290 -9.679200 8.570000
5.451640 -0.467626 9.776350 -9.768000 7.270000
5.582910 -0.485611 10.195700 -9.768000 4.220000
7.027790 0.521559 9.257160 -9.146400 6.880000
7.332970 -0.242859 9.029150 -8.968800 5.500000
-2.407890 1.405420 11.738700 2.752800 6.080000
-2.493890 1.455610 12.157900 2.752800 8.200000
-1.995710 1.505810 12.682900 2.752800 11.470000
-1.961170 1.556000 13.121200 2.752800 10.780000
-2.034310 0.862996 13.610600 2.752800 11.150000
-8.406060 0.889964 11.434400 -8.791200 10.140000
-2.645890 1.874570 13.845000 2.752800 6.780000
-8.651350 1.142920 11.768100 -8.791200 7.070000
6.918330 1.675680 13.295900 -10.123200 7.200000
-1.560100 1.350830 14.939600 2.752800 7.900000
7.159560 0.227876 13.759500 -10.123200 6.760000
7.358440 0.234206 14.141700 -10.123200 8.650000
4.946390 -2.359220 15.429900 -10.656000 17.850000
-7.946430 1.378330 14.250200 -9.501600 7.290000
-8.699210 1.466620 13.794500 -9.235200 6.830000
4.753630 -2.060750 15.986500 -10.656000 6.430000
-8.042590 1.414600 14.687700 -9.590400 6.730000
-8.949900 0.948013 14.192000 -9.235200 7.540000
4.875520 -2.113590 16.396400 -10.656000 6.440000
5.225600 -2.112190 16.743700 -10.656000 7.760000
7.091340 -1.323750 16.127000 -10.300800 7.180000
5.485090 -2.163710 17.110300 -10.656000 7.610000
7.264300 -1.356040 16.520300 -10.300800 7.460000
-9.144700 1.523420 15.543000 -9.412800 7.240000
6.490060 -0.988028 17.326700 -10.567200 3.200000
-7.534300 2.215220 16.782100 -10.034400 10.380000
6.777440 -1.011010 17.678000 -10.567200 7.060000
7.251800 -1.011010 17.488700 -10.389600 11.920000
-7.709520 2.266740 17.172400 -10.034400 10.660000
4.761830 -1.153730 18.761300 -10.833600 7.380000
6.938350 -0.569628 18.097700 -10.567200 7.560000
7.423970 -0.569628 17.904000 -10.389600 11.460000
-7.564900 -0.104946 17.853700 -10.123200 9.850000
-8.794790 1.393090 17.225100 -9.768000 7.940000
6.291290 -1.301730 18.751300 -10.656000 7.310000
-7.816450 1.485180 18.154500 -10.123200 9.170000
-8.990230 1.424050 17.607800 -9.768000 9.080000
6.575530 -1.330030 19.108900 -10.656000 6.170000
-8.271350 1.517470 18.423800 -10.034400 9.640000
-9.185670 1.455000 17.990600 -9.768000 9.180000
5.456950 -2.916750 19.736000 -10.833600 4.420000
5.609000 -1.661360 19.838700 -10.656000 6.080000
-7.365580 2.107260 19.212000 -10.300800 6.450000
-8.592100 1.549760 18.750200 -10.034400 6.640000
4.751070 -2.977520 20.356000 -10.833600 7.010000
-7.369950 2.086190 19.675800 -10.300800 8.640000
4.412360 -2.840260 20.896200 -10.922400 7.590000
6.394660 -1.863390 20.489600 -10.744800 6.680000
8.059150 2.128770 19.867200 -10.478400 7.010000
-7.251070 2.062450 20.183000 -10.300800 8.900000
5.671780 -1.900650 21.146100 -10.833600 6.290000
8.220340 2.171340 20.264500 -10.478400 9.110000
5.782990 -1.937920 21.560800 -10.833600 6.390000
-7.096630 2.075960 21.151700 -10.478400 10.050000
7.070660 -1.975190 21.625600 -10.744800 5.530000
-7.228800 2.256490 21.545600 -10.478400 7.060000
7.571190 0.053972 22.002300 -10.656000 6.870000
-7.534170 2.299070 21.894700 -10.478400 7.390000
-8.589590 2.012460 21.531300 -10.300800 5.170000
-7.029250 2.086990 22.989400 -10.567200 5.470000
-7.152820 2.199930 23.393500 -10.567200 9.990000
6.143770 -0.965934 24.206000 -10.922400 13.480000
-7.278310 2.238520 23.803900 -10.567200 9.280000
6.439290 -0.982588 24.574500 -10.922400 12.590000
-7.397300 2.511950 24.193100 -10.567200 8.400000
6.881080 -1.318760 24.886600 -10.833600 7.360000
7.481950 -1.340730 25.161900 -10.744800 5.370000
-8.882430 0.853415 24.723900 -10.389600 8.660000
-7.955010 0.867406 25.489200 -10.478400 7.030000
-7.082630 1.925830 27.029700 -10.744800 6.670000
-6.988370 1.362780 27.533700 -10.656000 5.210000
-8.096470 1.362780 27.228500 -10.567200 6.430000
17.878600 2.130910 22.014000 -8.880000 6.430000
18.149400 2.163200 22.347500 -8.880000 8.560000
18.199200 1.980900 23.972300 -9.146400 10.380000
18.267400 2.103600 24.451300 -9.146400 10.410000
7.226060 0.167914 30.171100 -10.922400 12.610000
18.524700 2.133230 24.795600 -9.146400 7.580000
18.782000 2.162860 25.140000 -9.146400 10.580000
18.260800 1.448780 26.624500 -9.412800 7.220000
18.504300 1.468090 26.979500 -9.412800 7.620000
18.750300 1.384890 27.338200 -9.412800 9.640000
-6.941890 0.805513 32.875600 -10.833600 7.320000
-7.287310 0.815840 33.241900 -10.833600 4.980000
7.296830 -1.037990 34.556600 -11.011200 14.620000
18.582600 1.907120 30.498600 -9.768000 8.030000
18.803200 2.041870 30.860800 -9.768000 13.430000
19.027100 2.066180 31.228200 -9.768000 18.770000
8.419880 0.974058 36.075000 -10.922400 5.770000
19.250900 2.090490 31.595600 -9.768000 19.320000
8.234760 1.217170 36.552400 -10.922400 6.340000
18.730600 2.114800 32.404700 -9.856800 15.280000
18.945900 2.139110 32.777200 -9.856800 5.840000
19.161200 2.163410 33.149600 -9.856800 12.200000
19.376500 2.187720 33.522100 -9.856800 18.580000
18.799500 2.333100 34.332300 -9.945600 16.510000
19.006100 2.358740 34.709600 -9.945600 6.730000
19.212700 2.384380 35.086900 -9.945600 8.930000
19.419300 2.410010 35.464200 -9.945600 16.540000
19.632700 2.182850 35.854000 -9.945600 18.390000
-12.607800 2.333570 39.329100 -13.408800 15.780000
-12.432500 2.357880 39.835800 -13.408800 7.530000
-13.724600 2.023530 39.884400 -13.320000 6.500000
-13.866600 1.912380 40.297100 -13.320000 6.260000
19.260400 2.696860 38.451400 -10.123200 7.830000
19.453000 2.723830 38.835900 -10.123200 7.010000
19.649300 2.615120 39.227900 -10.123200 10.740000
19.842000 2.640760 39.612500 -10.123200 14.480000
9.257040 0.796885 43.839800 -11.011200 13.670000
19.505500 2.147420 40.288700 -10.212000 8.280000
9.686910 0.804548 44.188000 -11.011200 6.730000
19.379000 2.168060 40.826700 -10.212000 8.830000
9.779660 0.670967 44.611100 -11.011200 14.050000
19.563500 2.188710 41.215500 -10.212000 13.130000
9.871920 0.677297 45.032000 -11.011200 16.660000
19.748100 2.209360 41.604400 -10.212000 13.550000
8.099000 -3.199840 45.715200 -11.011200 15.340000
6.927990 -3.084540 46.351800 -11.011200 9.620000
19.543800 2.250660 42.649500 -10.300800 10.880000
6.721040 -3.112840 46.816700 -11.011200 8.380000
19.723100 2.271310 43.040800 -10.300800 10.930000
9.590250 -3.141140 46.753200 -11.011200 13.090000
19.902400 2.291950 43.432000 -10.300800 6.820000
9.867920 1.177290 48.106800 -11.011200 8.720000
9.954480 1.187610 48.528800 -11.011200 5.580000
20.100500 1.336500 46.685300 -10.389600 8.150000
20.270800 1.347820 47.081000 -10.389600 7.590000
19.743800 2.194240 48.671900 -10.478400 5.700000
19.905600 2.212230 49.070800 -10.478400 5.390000
20.067500 2.230220 49.469800 -10.478400 10.380000
20.229300 2.248200 49.868700 -10.478400 10.340000
10.191400 0.125936 53.328200 -11.011200 16.540000
7.463260 0.126935 54.212800 -11.011200 20.840000
19.872500 1.945930 50.951400 -10.478400 20.480000
9.961420 0.126935 53.809900 -11.011200 20.490000
7.100670 0.127935 54.696100 -11.100000 15.560000
20.029000 1.961250 51.352600 -10.478400 7.340000
20.194300 2.007220 52.673800 -10.567200 7.530000
20.348400 2.022540 53.075900 -10.567200 8.230000
19.231100 0.000000 53.529100 -9.324000 6.160000
20.087500 2.214990 53.628200 -10.567200 9.040000
19.376800 0.000000 53.934600 -9.324000 14.990000
20.651800 2.410070 53.867200 -10.567200 18.030000
20.540600 2.264950 54.837900 -10.567200 6.900000
20.691600 2.281600 55.241100 -10.567200 16.620000
20.410600 2.482010 55.796400 -10.567200 7.510000
20.972200 1.630980 58.375200 -10.656000 10.290000
21.114000 2.028610 58.769900 -10.656000 9.580000
21.259600 2.042600 59.175200 -10.656000 10.540000
-19.374300 -2.112550 62.078500 -10.478400 5.750000
-4.324650 1.789550 67.921100 -11.100000 10.430000
21.177100 1.484140 67.855200 -10.744800 7.190000
21.305500 1.493130 68.266400 -10.744800 8.280000
21.693800 0.844551 69.510600 -10.833600 6.430000
21.417600 0.849548 70.046900 -10.744800 6.620000
21.542700 1.082410 70.456100 -10.744800 6.460000
21.669600 0.859543 70.871000 -10.744800 5.480000
22.046700 1.107730 72.104200 -10.833600 12.040000
22.591400 1.114060 72.386800 -10.833600 8.090000
21.540000 2.981070 74.002300 -10.833600 5.940000
22.090100 2.997730 74.289300 -10.833600 7.900000
-29.534800 1.171030 74.034100 -10.212000 6.270000
-17.992200 0.949495 79.863900 -10.833600 8.090000
-18.705200 0.954492 80.142400 -10.833600 9.300000
-14.980400 0.954492 80.921400 -10.833600 8.220000
-27.314800 1.291300 83.542100 -10.478400 6.650000
23.535900 1.843930 85.121400 -10.833600 5.220000
19.414100 0.978490 113.396000 -11.100000 4.720000
19.486800 0.982155 113.821000 -11.100000 6.080000
19.557200 2.061170 114.232000 -11.100000 6.900000
-56.016300 -18.820900 107.654000 -9.679200 7.990000
-56.212800 -18.886900 108.032000 -9.590400 4.890000
21.367800 2.209130 148.842000 -11.100000 6.730000
-59.547100 -7.108660 146.794000 -10.212000 5.940000
-5.139910 1.933970 166.668000 -11.100000 7.970000
-6.540730 1.443910 169.642000 -11.100000 5.010000
-5.246330 1.447580 170.118000 -11.100000 6.080000
-5.259610 1.451240 170.549000 -11.100000 4.850000
-5.273010 0.925857 170.984000 -11.188800 4.820000
6.106790 1.215310 5.958200 -7.814400 7.320000
6.648400 1.276080 6.004420 -7.459200 5.730000
6.399090 0.650108 6.364870 -7.814400 9.640000
6.580350 0.650108 6.177290 -7.548000 8.920000
6.799610 1.133370 6.507480 -7.725600 9.410000
6.538210 -0.948728 7.387400 -8.347200 6.100000
7.042810 1.184890 6.871450 -7.814400 7.210000
7.044650 -1.031230 8.084320 -8.347200 8.550000
7.247220 -1.037980 8.480370 -8.436000 11.850000
5.528740 -0.363751 9.737400 -9.590400 10.140000
6.884270 0.521559 9.364390 -8.968800 11.190000
7.542150 0.764060 8.825480 -8.524800 11.490000
5.584830 -0.377741 10.199200 -9.679200 8.640000
7.139240 0.540876 9.711220 -8.968800 11.470000
7.296970 0.560193 10.128800 -8.968800 9.720000
5.171650 -1.426820 11.285900 -9.856800 8.100000
5.419280 -1.436300 11.648000 -9.856800 7.460000
6.327250 1.072960 11.715300 -9.768000 5.170000
6.531360 1.107570 12.093200 -9.679200 6.660000
-8.263150 1.536210 11.470000 -8.791200 5.010000
6.438410 1.317440 12.610000 -9.856800 5.350000
-7.866510 1.537710 12.263500 -9.057600 7.180000
6.461270 1.267100 13.087600 -9.856800 5.970000
-8.194930 1.582940 12.561400 -9.057600 7.410000
-8.889320 1.490140 12.091800 -8.702400 5.590000
6.651310 1.304370 13.472600 -9.856800 7.070000
-7.720070 1.628160 13.356100 -9.235200 6.790000
-9.023050 1.532710 12.524800 -8.702400 6.360000
6.922710 1.305790 13.820500 -9.856800 7.500000
-8.454690 1.722420 13.406700 -9.057600 4.950000
7.140250 0.086289 14.254800 -9.856800 12.860000
-8.576820 1.768970 13.835600 -9.146400 5.000000
7.248320 0.139261 14.681900 -9.945600 18.050000
-7.533710 1.315240 14.478500 -9.501600 6.860000
7.439060 0.142925 15.068200 -9.945600 19.200000
-8.482740 1.384470 14.940100 -9.412800 5.540000
7.629810 0.146590 15.454600 -9.945600 16.180000
-8.044880 1.450870 15.174100 -9.501600 8.910000
5.786570 -2.491390 16.505400 -10.300800 8.010000
-8.255780 1.214750 15.572000 -9.501600 8.050000
-8.463710 1.020940 15.964100 -9.501600 8.490000
-8.099580 1.639780 17.063800 -9.768000 12.120000
-8.283660 1.677050 17.451600 -9.768000 10.290000
4.865100 -0.782740 19.643700 -10.656000 5.980000
-7.684870 7.082080 17.848900 -10.034400 8.980000
5.510840 -0.431749 19.930900 -10.567200 8.450000
5.458050 -1.386630 20.349300 -10.567200 8.240000
6.129860 -1.281920 20.614800 -10.478400 9.020000
4.509320 -2.559870 21.355400 -10.656000 6.250000
4.621050 -1.333200 21.884500 -10.656000 7.640000
4.874560 -1.834420 22.235900 -10.744800 7.680000
7.084680 -1.358840 21.668400 -10.478400 7.790000
5.702890 -2.012460 22.469000 -10.567200 8.990000
5.189110 -2.049720 23.033400 -10.656000 5.220000
17.872100 1.537210 16.777400 -7.725600 5.450000
18.182100 1.641310 17.068400 -7.725600 6.780000
6.545530 0.056971 23.673000 -10.567200 6.120000
18.491700 1.748060 17.359000 -7.725600 5.050000
5.350550 -0.521696 24.407200 -10.656000 9.690000
18.634200 1.777690 17.833600 -7.814400 9.490000
8.592760 -0.668249 23.917600 -10.389600 13.700000
9.915140 -0.668249 23.400400 -10.123200 10.290000
17.789800 1.777690 18.675900 -8.080800 13.130000
18.086300 1.807320 18.987200 -8.080800 9.630000
-8.490510 1.115110 25.306200 -10.300800 5.230000
7.931720 1.049200 25.940900 -10.478400 6.140000
18.192800 7.903740 19.774500 -8.524800 12.890000
7.854270 1.065860 26.414000 -10.478400 5.710000
18.626800 8.025340 19.935700 -8.436000 12.020000
-7.821790 1.082510 26.872400 -10.389600 5.930000
18.786300 7.975460 20.419600 -8.524800 5.420000
8.299330 1.779930 27.143200 -10.478400 6.870000
19.066700 8.094500 20.724400 -8.524800 8.920000
8.212460 1.806900 27.618600 -10.567200 6.430000
19.052700 1.802300 29.702300 -9.412800 4.820000
19.285000 1.824280 30.064500 -9.412800 9.550000
19.288000 1.622630 30.585300 -9.412800 8.160000
18.791300 1.868240 31.383100 -9.590400 9.290000
19.012400 1.890220 31.752300 -9.590400 8.480000
19.233500 1.912200 32.121500 -9.590400 13.810000
19.203500 1.934170 32.639700 -9.590400 15.850000
18.905100 2.163410 33.296300 -9.679200 13.260000
19.117500 2.187720 33.670500 -9.679200 7.120000
19.330000 2.212030 34.044600 -9.679200 8.540000
-7.215020 0.704937 38.974300 -10.656000 13.430000
19.279800 2.113920 34.574200 -9.679200 6.510000
-6.989580 0.712599 39.453000 -10.656000 16.070000
18.746500 2.044070 35.359500 -9.768000 14.320000
19.427500 2.088030 35.971200 -9.768000 6.090000
-5.872410 1.854430 40.905400 -10.744800 7.440000
19.632000 2.110010 36.349800 -9.768000 11.440000
19.180700 2.023530 37.566300 -9.856800 14.600000
19.376400 2.044180 37.949700 -9.856800 9.240000
19.574900 1.931700 38.338500 -9.856800 8.520000
19.133100 1.970340 39.519600 -9.945600 16.560000
19.320700 1.989650 39.907100 -9.945600 6.400000
19.508300 2.008970 40.294500 -9.945600 17.780000
19.695900 2.028290 40.682000 -9.945600 9.830000
9.872630 0.392129 45.035200 -10.744800 5.950000
19.421500 2.458580 41.743900 -10.034400 7.840000
9.964900 0.395794 45.456100 -10.744800 7.970000
19.603000 2.481560 42.134000 -10.034400 6.110000
10.056900 0.544710 45.875500 -10.744800 12.330000
10.149100 0.549708 46.296400 -10.744800 6.270000
19.390700 2.271310 43.191500 -10.123200 15.010000
10.511300 0.554705 46.657300 -10.744800 12.920000
19.567000 2.291950 43.584100 -10.123200 17.990000
11.605200 17.953700 43.267600 -10.744800 11.330000
19.743300 2.312600 43.976800 -10.123200 16.420000
9.337710 18.114000 44.221800 -10.744800 7.810000
19.916500 2.483660 44.362700 -10.123200 7.570000
9.903320 -2.615530 50.243600 -10.744800 9.170000
19.635100 1.228920 47.352900 -10.212000 9.510000
19.800100 1.239250 47.750800 -10.212000 15.500000
19.966500 1.088370 48.152000 -10.212000 10.020000
20.067500 2.230220 49.469800 -10.212000 13.640000
19.940700 2.248200 49.984800 -10.212000 9.070000
20.097500 2.433940 50.378000 -10.212000 8.320000
20.254100 2.622330 50.770500 -10.212000 15.460000
20.031100 1.790770 51.358000 -10.389600 6.710000
20.185500 1.976580 51.753800 -10.300800 16.790000
20.341900 1.991900 52.155000 -10.300800 7.250000
20.498400 2.007220 52.556200 -10.300800 13.670000
20.654900 2.022540 52.957400 -10.300800 6.930000
20.967800 2.053190 53.759800 -10.300800 6.120000
20.465900 1.313240 59.474900 -10.478400 6.870000
20.606000 1.322230 59.882300 -10.478400 11.720000
20.743600 1.676290 60.282000 -10.478400 11.730000
-3.756250 2.514760 64.908700 -10.833600 11.930000
21.160200 2.112550 61.492700 -10.478400 15.970000
21.300300 2.126540 61.900000 -10.478400 15.810000
21.148700 2.000030 64.683200 -10.478400 6.130000
21.282600 2.012690 65.092600 -10.478400 7.730000
21.416400 2.025340 65.502000 -10.478400 8.860000
21.550300 2.038000 65.911400 -10.478400 6.600000
-16.760700 0.000000 69.981200 -10.478400 9.070000
-16.747600 -0.170913 71.755200 -10.478400 8.920000
19.871600 2.061380 75.836400 -10.567200 9.880000
21.654700 0.969484 80.735300 -10.567200 6.340000
21.765400 1.234330 81.148200 -10.567200 5.340000
22.505100 1.240660 81.393300 -10.567200 7.160000
22.099200 1.517150 82.392500 -10.656000 7.330000
22.210800 1.524810 82.808600 -10.656000 5.010000
22.321100 1.798950 83.219700 -10.656000 5.100000
22.544300 1.816940 84.051900 -10.656000 5.290000
22.655900 1.825940 84.468000 -10.656000 5.120000
22.768900 1.563120 84.889200 -10.656000 9.590000
22.387000 1.570780 85.436200 -10.656000 11.560000
21.832500 1.852920 86.018600 -10.656000 9.470000
21.938500 1.861920 86.436200 -10.656000 8.130000
22.044500 1.870910 86.853800 -10.656000 10.290000
22.363800 1.616760 88.111700 -10.656000 11.390000
-56.340900 -17.001600 108.278000 -9.501600 11.780000
-55.698800 -17.061000 109.089000 -9.590400 9.300000
-56.659200 -18.260100 108.889000 -9.412800 5.530000
31.817900 1.679110 141.233000 -10.744800 5.640000
31.912600 1.684100 141.653000 -10.744800 5.930000
32.007300 1.689100 142.074000 -10.744800 11.490000
21.490300 2.221790 149.695000 -10.833600 12.560000
21.552400 1.759060 150.127000 -10.833600 9.030000
21.613600 1.764060 150.554000 -10.833600 6.660000
-6.457520 1.943970 167.484000 -10.833600 7.780000
-6.474320 1.429250 167.920000 -10.833600 5.010000
-6.490720 1.953960 168.345000 -10.833600 6.650000
-4.284550 0.925857 171.011000 -10.833600 5.180000
-5.286290 0.928189 171.414000 -10.833600 4.860000
-5.299570 0.930521 171.845000 -10.833600 7.930000
-48.594200 -11.434700 175.749000 -10.389600 6.650000
-47.349600 -11.461700 176.534000 -10.389600 9.590000
-47.683900 -11.542600 177.780000 -10.300800 9.970000
6.272110 0.512769 5.887920 -7.636800 3.200000
6.466540 0.510469 6.309190 -7.814400 7.840000
6.711610 0.505503 6.675720 -7.814400 8.220000
7.273140 -0.807165 7.905490 -8.169600 8.190000
6.240280 1.947720 9.098430 -9.235200 9.540000
6.979130 -0.770332 8.730090 -8.613600 9.560000
7.564060 -0.839451 8.221710 -8.169600 9.160000
6.099300 1.947720 9.193540 -9.412800 8.990000
6.890450 0.170907 9.372800 -8.880000 10.800000
4.481740 -1.849070 11.048300 -10.212000 5.890000
6.824200 0.027986 9.949800 -9.146400 9.130000
4.575580 -1.915110 11.469500 -10.212000 7.030000
6.988290 0.028985 10.359300 -9.235200 9.060000
-8.983160 0.419712 9.286230 -7.725600 7.410000
5.333710 -1.783380 11.639500 -10.034400 5.740000
6.608380 1.277260 11.036500 -9.590400 4.850000
-8.849970 0.351114 9.999410 -7.992000 6.150000
6.316700 1.319840 11.695800 -9.768000 4.400000
-9.135450 0.362440 10.322000 -7.992000 4.190000
6.427220 1.362410 12.122900 -9.768000 4.820000
6.531520 1.404990 12.552500 -9.856800 4.160000
-8.756040 0.781231 11.720100 -8.613600 6.140000
-7.925680 1.083510 12.785200 -9.146400 5.690000
-8.518140 0.804209 12.419600 -8.880000 6.290000
-9.013570 0.804209 12.064800 -8.613600 6.610000
-8.253240 1.114470 13.087300 -9.057600 7.200000
-8.745650 1.246020 12.751300 -8.880000 6.940000
7.133500 1.341640 13.709400 -9.945600 4.800000
-8.482490 1.145430 13.450800 -9.057600 7.660000
7.247800 0.240535 14.680800 -9.945600 16.400000
7.438530 0.246865 15.067100 -9.945600 18.180000
-7.963440 1.259180 14.744800 -9.590400 5.650000
7.718460 0.253195 15.409100 -9.945600 15.140000
-8.050840 1.291460 15.185400 -9.590400 5.730000
-8.837140 1.078740 14.758800 -9.324000 6.450000
-8.823810 1.105710 15.265600 -9.324000 7.380000
-8.326730 1.453690 16.002600 -9.590400 5.300000
-7.919600 1.488300 16.684700 -9.768000 5.720000
6.811160 -2.847730 17.463200 -10.300800 8.180000
-8.590110 6.003750 16.824200 -9.768000 5.860000
7.199360 -0.582286 18.458500 -10.300800 9.100000
-8.644100 6.134260 17.257100 -9.768000 9.260000
7.351650 -0.907900 18.849000 -10.300800 10.760000
-8.810490 6.386580 17.589200 -9.768000 4.960000
4.697580 -0.799394 20.126800 -10.656000 9.140000
7.491330 1.661360 19.207100 -10.300800 9.610000
-7.395600 0.991115 19.290300 -10.123200 9.140000
6.711080 -0.816048 20.002500 -10.478400 7.920000
7.279910 -0.766115 20.263300 -10.389600 9.270000
4.516600 -2.238970 21.389900 -10.744800 8.940000
7.265990 -0.781437 20.725200 -10.389600 7.530000
4.605160 -2.282870 21.809300 -10.744800 6.700000
4.693730 -2.326770 22.228700 -10.744800 8.900000
4.797880 1.456310 22.722000 -10.744800 5.320000
17.709700 1.537210 16.948800 -7.814400 9.870000
18.020400 1.564180 17.246200 -7.814400 10.200000
18.331100 1.591150 17.543500 -7.814400 11.590000
-7.461000 0.822796 26.983900 -10.567200 7.930000
18.759300 2.103550 27.808400 -9.324000 7.960000
18.593700 1.780320 29.484200 -9.412800 9.370000
18.823200 1.802300 29.848200 -9.412800 6.650000
19.055700 1.713800 30.216800 -9.412800 8.360000
18.641100 2.400210 33.428700 -9.768000 5.110000
18.850500 2.427180 33.804300 -9.768000 12.370000
19.060000 2.454140 34.179900 -9.768000 7.170000
19.273100 2.358740 34.562100 -9.768000 10.850000
19.018500 2.044070 35.213900 -9.856800 7.890000
19.223000 2.066050 35.592600 -9.856800 4.920000
19.427500 2.088030 35.971200 -9.856800 12.050000
19.632000 2.110010 36.349800 -9.856800 16.350000
-5.758150 0.750911 41.827000 -10.744800 15.980000
19.475000 1.762590 37.427800 -9.856800 11.170000
-7.763990 0.758574 41.939800 -10.744800 14.810000
19.673800 1.780580 37.809700 -9.856800 20.470000
19.133100 1.970340 39.519600 -9.945600 7.410000
19.320700 1.989650 39.907100 -9.945600 6.020000
19.508300 2.008970 40.294500 -9.945600 5.900000
19.698500 1.888490 40.687400 -9.945600 11.260000
19.543700 2.999640 41.173900 -10.034400 6.570000
9.870830 0.962440 45.027000 -10.744800 14.250000
19.728100 3.027940 41.562300 -10.034400 16.920000
9.963680 0.827535 45.450500 -10.744800 12.170000
19.912500 3.056240 41.950700 -10.034400 15.480000
10.055900 0.835197 45.871400 -10.744800 8.090000
12.629000 0.989424 45.674900 -10.744800 7.120000
7.068830 0.998419 47.294100 -10.744800 5.820000
6.852920 -1.865250 47.735300 -10.744800 8.910000
7.563050 -1.881910 48.063900 -10.833600 8.890000
9.217640 -1.291190 48.232700 -10.744800 6.780000
9.017090 -1.302520 48.708800 -10.833600 10.290000
19.998300 1.347820 47.197400 -10.212000 10.110000
20.167600 1.239250 47.596800 -10.212000 7.640000
20.335600 1.249580 47.993400 -10.212000 7.260000
20.505100 1.097360 48.393400 -10.212000 7.270000
19.785900 1.899960 49.596800 -10.300800 6.000000
19.945500 1.915290 49.996800 -10.300800 8.260000
20.105000 1.930610 50.396800 -10.300800 9.310000
20.262300 2.115060 50.790900 -10.300800 10.050000
20.334300 2.511210 52.135500 -10.300800 8.220000
18.223000 1.169320 52.957100 -9.412800 7.240000
20.490800 2.530530 52.536600 -10.300800 11.640000
18.364300 1.003770 53.367700 -9.412800 15.760000
-4.959810 1.902700 58.361100 -10.833600 14.780000
-5.334860 2.281600 58.747500 -10.833600 19.350000
20.267600 2.099150 55.405300 -10.389600 19.260000
20.810600 1.118700 59.359200 -10.478400 7.460000
20.951800 1.322230 59.762200 -10.478400 6.560000
21.092900 1.528410 60.164600 -10.478400 8.360000
21.235400 1.538740 60.571100 -10.478400 11.760000
21.158000 2.313670 61.486200 -10.478400 9.240000
-21.526700 0.000000 61.401700 -10.212000 6.730000
21.298100 2.328990 61.893400 -10.478400 7.580000
-21.669200 0.000000 61.808400 -10.212000 10.840000
-11.487600 3.159180 64.842200 -10.922400 13.930000
-11.562700 3.179830 65.266100 -10.922400 12.860000
-20.754700 -0.774588 63.478200 -10.300800 7.840000
21.153200 1.421170 64.697000 -10.567200 8.270000
21.285700 1.642010 65.102000 -10.478400 8.090000
21.419500 1.652330 65.511400 -10.478400 6.390000
21.556200 1.233640 65.929400 -10.478400 10.910000
-7.696030 1.547100 73.697900 -10.833600 9.480000
-7.740230 1.786590 74.121200 -10.833600 7.050000
21.726800 2.476300 73.067200 -10.567200 12.790000
21.844700 2.964420 73.463900 -10.567200 12.040000
21.680600 2.095360 76.683000 -10.567200 8.230000
21.801900 1.425200 77.111900 -10.567200 7.870000
22.516000 1.432860 77.355300 -10.567200 8.210000
-14.423300 -2.941880 81.412700 -10.656000 8.130000
-14.498400 -2.957200 81.836700 -10.656000 7.370000
22.100300 1.253320 82.396600 -10.656000 10.630000
22.211900 1.259650 82.812800 -10.656000 7.950000
22.322400 1.532470 83.224700 -10.656000 6.780000
22.062500 0.471091 84.198000 -10.656000 10.290000
22.171800 0.473423 84.614800 -10.656000 11.170000
22.280500 0.747610 85.029800 -10.656000 11.320000
22.935100 1.049440 87.527900 -10.656000 6.680000
30.910300 0.781265 141.001000 -10.744800 4.910000
31.002600 0.783597 141.422000 -10.744800 5.680000
31.094800 0.785929 141.843000 -10.744800 6.810000
30.089700 0.788261 142.500000 -10.744800 5.240000
21.490300 2.221790 149.695000 -10.833600 6.190000
21.552400 1.759060 150.127000 -10.833600 5.210000
-5.179550 2.468650 167.953000 -10.922400 5.590000
-5.273070 -0.396798 170.986000 -10.922400 5.600000
-5.286350 0.397797 171.416000 -10.922400 7.340000
-5.299630 0.398796 171.847000 -10.922400 8.740000
-48.708800 -11.461700 176.164000 -10.389600 6.880000
-48.803600 -12.621600 176.506000 -10.389600 4.650000
6.213920 0.539372 5.946950 -7.814400 1.960000
6.330080 0.782622 6.418730 -8.080800 7.370000
6.624690 0.705922 6.123540 -7.636800 2.230000
6.566430 0.819890 6.787960 -8.080800 9.150000
6.890500 0.739537 6.468440 -7.725600 5.170000
6.740810 0.857157 7.214480 -8.169600 7.510000
6.045440 -0.505523 7.837030 -8.880000 5.240000
5.907190 -0.527502 8.472040 -9.146400 6.020000
6.510950 -0.316460 8.576370 -8.880000 9.720000
6.650040 0.413702 9.537440 -9.235200 5.920000
6.896340 0.429024 9.890680 -9.235200 7.070000
6.592140 1.319970 12.038800 -9.768000 7.820000
6.339170 1.361220 12.655500 -9.945600 8.340000
-8.659070 0.962150 11.778600 -8.702400 5.160000
-8.453510 0.962150 11.927000 -8.791200 6.140000
-8.705520 0.897346 12.282500 -8.791200 3.990000
-9.202980 0.948623 12.984400 -8.791200 6.320000
6.930990 -1.096240 14.316000 -10.034400 10.350000
7.248090 0.189899 14.681400 -10.034400 11.480000
5.878150 -1.259180 15.693100 -10.389600 8.880000
7.439060 0.142925 15.068200 -10.034400 10.860000
-7.477090 1.918830 14.927200 -9.590400 16.890000
6.028870 -1.291460 16.095500 -10.389600 11.240000
7.629810 0.146590 15.454600 -10.034400 18.160000
-8.946980 1.185130 14.684200 -9.235200 6.700000
5.375750 -1.419080 16.769200 -10.478400 9.090000
-9.174390 1.105710 15.057500 -9.235200 14.890000
5.606070 -1.453690 17.146100 -10.478400 6.420000
7.042430 -1.300220 16.620600 -10.212000 7.620000
6.888230 -0.337144 17.660800 -10.389600 8.820000
6.660390 -0.344806 18.207500 -10.389600 4.910000
-8.567020 1.213590 17.353000 -9.768000 4.750000
6.700700 -0.352469 18.651100 -10.478400 9.190000
-8.623600 1.118170 17.812100 -9.856800 4.180000
6.698890 -0.422754 19.107600 -10.478400 8.640000
-8.672010 1.079940 18.269800 -9.856800 7.640000
5.624210 -0.671540 19.892500 -10.656000 9.230000
7.481100 1.979950 19.180900 -10.300800 10.470000
-8.856520 1.102910 18.658500 -9.856800 8.800000
5.621970 -0.881295 20.332800 -10.656000 10.770000
7.523650 2.021200 19.624300 -10.389600 9.020000
5.575070 -1.032410 20.785600 -10.656000 9.240000
7.799430 1.863390 19.997100 -10.300800 8.180000
4.518010 -2.171340 21.396600 -10.744800 8.890000
-7.243350 1.900650 20.660600 -10.212000 10.190000
4.610650 -2.006950 21.835300 -10.744800 7.250000
-7.379110 2.144950 21.047900 -10.212000 9.150000
5.778510 -1.358840 22.052700 -10.744800 9.630000
-7.396880 2.186200 21.495700 -10.300800 9.490000
5.887540 -1.384480 22.468800 -10.744800 8.500000
4.123590 -1.702660 23.275800 -10.744800 8.280000
-7.517280 1.775760 22.405400 -10.389600 8.240000
18.397400 -3.685660 19.018100 -8.258400 9.640000
-8.038370 -0.069964 29.072100 -10.567200 7.420000
18.114000 1.486670 25.143800 -9.057600 6.410000
18.362800 1.604490 25.489100 -9.057600 7.910000
18.614300 1.626470 25.838300 -9.057600 7.720000
7.693070 8.156620 30.310200 -10.744800 7.850000
8.032140 8.265380 30.653300 -10.744800 6.260000
18.288100 1.746280 27.110000 -9.324000 9.560000
18.525600 1.871720 27.462000 -9.235200 5.820000
18.766200 1.896030 27.818700 -9.235200 7.340000
19.006800 1.920330 28.175300 -9.235200 5.580000
18.595400 1.693160 29.997000 -9.590400 6.390000
7.656810 0.746565 34.927500 -10.744800 6.710000
18.819300 1.824280 30.358200 -9.590400 9.360000
7.266850 1.510790 35.426400 -10.744800 8.540000
9.002680 1.528780 35.469900 -10.744800 7.890000
9.108590 1.546760 35.887200 -10.744800 8.650000
18.772700 1.661260 31.907300 -9.679200 10.140000
18.990900 1.680580 32.278400 -9.679200 7.850000
19.209200 1.699900 32.649400 -9.679200 6.880000
18.644600 2.281820 33.435100 -9.768000 15.670000
18.854100 2.307460 33.810700 -9.768000 6.850000
19.063600 2.333100 34.186400 -9.768000 14.760000
19.273100 2.358740 34.562100 -9.768000 9.670000
19.018500 2.044070 35.213900 -9.856800 11.850000
19.223000 2.066050 35.592600 -9.856800 16.460000
19.427500 2.088030 35.971200 -9.856800 16.510000
19.632000 2.110010 36.349800 -9.856800 11.940000
19.464300 2.251780 37.407100 -9.945600 12.590000
19.662900 2.274760 37.788800 -9.945600 18.580000
19.861500 2.297740 38.170500 -9.945600 11.550000
19.463500 2.320720 38.856900 -10.034400 6.510000
19.130400 2.106120 39.514000 -10.123200 6.800000
19.317900 2.126770 39.901400 -10.123200 5.740000
19.505500 2.147420 40.288700 -10.123200 13.350000
19.693000 2.168060 40.676100 -10.123200 16.540000
8.573170 0.529718 44.860500 -10.833600 5.200000
9.524940 0.534716 45.108500 -10.833600 15.360000
19.426800 2.209360 41.755300 -10.123200 6.800000
9.964180 0.683627 45.452800 -10.833600 9.690000
19.935500 2.086240 41.999200 -10.123200 7.180000
10.056900 0.544710 45.875500 -10.833600 11.370000
9.792630 -0.109944 46.376300 -10.744800 9.370000
8.976750 -0.850522 46.972300 -10.833600 16.030000
19.233300 2.144190 43.739900 -10.212000 9.420000
9.331440 -0.858184 47.342300 -10.833600 15.650000
-24.874300 -2.619420 42.278100 -9.324000 8.810000
20.107100 1.777390 45.727300 -10.212000 9.450000
-23.982600 -2.240770 43.797900 -9.501600 7.780000
19.922100 1.948520 46.271100 -10.212000 7.450000
9.255510 0.000000 49.996700 -10.833600 14.670000
19.635100 1.228920 47.352900 -10.300800 9.290000
20.169000 1.079370 47.600100 -10.300800 9.660000
20.338200 0.927146 47.999600 -10.300800 8.210000
20.130100 1.259900 48.546600 -10.300800 7.990000
20.072300 1.899960 49.481600 -10.300800 6.030000
20.231800 2.081750 49.874900 -10.300800 13.280000
20.396000 1.930610 50.279700 -10.300800 11.460000
20.555500 2.115060 50.672900 -10.300800 6.180000
17.679200 0.816555 52.693400 -9.501600 15.710000
17.816300 0.822885 53.101900 -9.501600 7.170000
17.952400 1.003770 53.507600 -9.501600 5.660000
-21.780100 -1.363180 52.525900 -10.034400 6.670000
20.087500 2.214990 53.628200 -10.389600 9.670000
18.959300 0.664647 54.078700 -9.501600 5.370000
20.236000 2.410070 54.024700 -10.389600 8.550000
19.101800 0.669644 54.485300 -9.501600 6.690000
20.387000 2.428060 54.427900 -10.389600 6.960000
-4.505050 3.305890 58.335400 -10.922400 6.980000
-5.330350 3.330200 58.697800 -10.922400 10.060000
20.265200 2.281600 55.399000 -10.478400 6.920000
20.413200 2.298260 55.803300 -10.478400 7.810000
-4.607750 2.500000 59.665200 -10.922400 8.110000
20.561100 2.314910 56.207700 -10.478400 9.910000
-4.641480 2.331560 60.102000 -10.922400 8.400000
20.706400 2.517990 56.605000 -10.478400 15.520000
20.822700 2.000630 57.959300 -10.478400 16.330000
20.968400 2.014620 58.364600 -10.478400 5.940000
20.806700 1.653630 59.348100 -10.478400 12.660000
20.947400 1.860780 59.749400 -10.478400 6.780000
21.091700 1.676290 60.161100 -10.478400 7.380000
-20.692000 -1.358210 61.673100 -10.300800 12.290000
-20.829100 -1.367200 62.081500 -10.300800 11.250000
20.738000 2.787770 63.427100 -10.567200 7.030000
20.772500 2.210490 64.798200 -10.567200 11.290000
20.904000 2.224480 65.208300 -10.567200 9.940000
21.035400 2.238470 65.618400 -10.567200 5.690000
-17.907300 -1.693640 68.340100 -10.567200 10.490000
-17.486000 -1.703970 68.893600 -10.567200 4.720000
21.911500 2.434330 71.662100 -10.656000 7.600000
21.181400 2.696720 72.770400 -10.656000 6.960000
21.304000 2.476300 73.191600 -10.656000 10.820000
21.426400 2.253190 73.612200 -10.656000 11.790000
21.977500 1.848550 73.910600 -10.656000 9.020000
22.223100 1.869200 74.736400 -10.656000 6.420000
22.344600 2.061380 75.145000 -10.656000 11.280000
22.271000 2.095360 76.513600 -10.656000 6.480000
22.391400 2.106680 76.927200 -10.656000 6.560000
21.696100 2.140660 78.467700 -10.656000 7.040000
21.810900 2.151990 78.882900 -10.656000 8.170000
-13.390100 -3.471220 82.005200 -10.744800 9.620000
22.387800 1.753980 80.969100 -10.656000 11.860000
22.735600 0.989474 82.227200 -10.656000 5.190000
22.212800 0.994471 82.816100 -10.656000 7.360000
22.324400 0.999469 83.232300 -10.656000 8.600000
22.542700 2.086070 84.046100 -10.656000 5.430000
22.654300 2.096400 84.462200 -10.656000 5.830000
-27.311800 1.834930 83.532900 -10.389600 7.210000
-27.447300 1.570780 83.947400 -10.389600 5.570000
-27.581200 1.578450 84.356900 -10.389600 6.900000
-27.715100 1.586110 84.766400 -10.389600 5.100000
30.907400 2.120510 140.988000 -10.744800 8.810000
31.000900 1.679110 141.415000 -10.744800 8.950000
31.093200 1.684100 141.835000 -10.744800 7.080000
31.185500 1.689100 142.256000 -10.744800 5.610000
21.491800 1.286330 149.706000 -10.922400 6.970000
21.553100 1.289990 150.132000 -10.922400 10.670000
21.614800 0.823243 150.562000 -10.922400 10.200000
-60.851200 -13.420600 146.751000 -10.034400 5.440000
-59.879700 -13.456900 147.614000 -10.034400 6.170000
-60.012800 -14.357400 147.942000 -10.034400 7.260000
-5.166810 0.388802 167.540000 -11.011200 8.610000
-6.473860 2.468650 167.908000 -10.922400 9.970000
-6.490460 2.474980 168.339000 -10.922400 9.570000
-5.273080 0.000000 170.986000 -10.922400 5.800000
-5.286350 0.397797 171.416000 -10.922400 4.500000
-5.299650 0.000000 171.847000 -10.922400 6.850000
-48.699100 -12.026900 176.129000 -10.478400 5.380000
-48.792900 -13.187900 176.468000 -10.478400 8.700000
-48.896300 -13.786400 176.842000 -10.478400 10.540000
-46.411800 -22.049200 177.123000 -10.478400 8.290000
6.217260 0.459548 5.950160 -7.903200 3.800000
6.528130 0.482525 6.247660 -7.903200 3.440000
5.727300 -0.352413 8.080580 -9.057600 5.070000
6.983470 -0.707463 8.171740 -8.524800 6.790000
6.654230 0.026986 9.543450 -9.235200 11.830000
4.812130 -1.627530 10.943700 -10.123200 4.190000
6.976310 0.139926 9.842790 -9.235200 11.550000
6.548120 1.597020 11.532800 -9.768000 4.130000
-8.453510 0.962150 11.927000 -8.791200 6.790000
-8.702150 0.990448 12.277800 -8.791200 8.500000
7.057070 0.234206 14.294500 -10.034400 9.870000
7.247440 0.291170 14.680100 -10.034400 15.590000
4.535820 -2.112320 16.042900 -10.567200 5.610000
7.438160 0.298832 15.066400 -10.034400 16.820000
-7.719070 1.660440 14.834800 -9.590400 5.700000
4.556930 -2.166480 16.480900 -10.656000 6.520000
7.509550 0.306494 15.511000 -10.034400 13.620000
-8.034030 1.703010 15.153700 -9.590400 5.580000
-8.823070 1.450870 14.735300 -9.324000 5.070000
6.625290 -1.214750 16.332500 -10.389600 8.720000
-8.143220 0.942073 15.649900 -9.590400 7.400000
-9.043640 1.487150 15.103700 -9.324000 4.190000
6.786880 -1.244380 16.730800 -10.389600 4.800000
-8.338920 1.076810 16.026000 -9.679200 6.490000
-8.801640 0.965050 15.783900 -9.501600 5.950000
6.850770 -1.216840 17.172600 -10.389600 6.720000
-7.608420 1.479070 17.302900 -9.945600 6.500000
-7.937510 0.629569 17.680200 -9.945600 5.520000
7.077270 -1.424050 18.460000 -10.478400 6.490000
-8.495110 0.643559 17.897100 -9.856800 7.040000
7.340030 -1.455000 18.819200 -10.389600 4.440000
-8.676800 0.845324 18.279900 -9.856800 8.160000
7.085570 -1.549760 19.369800 -10.478400 9.260000
-7.906790 1.294490 19.068300 -10.123200 6.240000
6.556710 -0.816048 20.053600 -10.567200 9.700000
-8.073040 1.256280 19.469300 -10.123200 7.550000
5.737420 -0.832702 20.750300 -10.656000 9.410000
-8.085890 1.215400 19.933100 -10.212000 8.110000
4.210970 -2.964420 21.364000 -10.744800 8.690000
-7.241370 1.968350 20.655000 -10.300800 6.540000
6.204880 -3.022550 21.317300 -10.744800 4.890000
-7.259440 2.075960 21.096300 -10.300800 8.230000
6.071800 1.570290 21.959700 -10.656000 5.280000
-7.233100 2.115880 21.558400 -10.300800 8.500000
-7.219120 1.556420 22.519500 -10.389600 4.910000
-7.831340 1.733620 22.758300 -10.389600 9.410000
6.680360 0.588644 23.628000 -10.656000 5.570000
5.150060 -1.795540 24.389800 -10.744800 5.520000
-6.962100 2.007480 23.918800 -10.478400 9.550000
7.004860 -0.060969 25.334200 -10.744800 6.530000
7.268420 -0.061968 25.708000 -10.744800 12.310000
7.586680 -0.146924 26.064600 -10.744800 10.430000
7.502800 -0.149257 26.537000 -10.744800 12.450000
8.317580 4.931180 27.202900 -10.656000 6.700000
7.854690 5.004780 27.781600 -10.744800 4.650000
-7.699790 0.781512 28.707100 -10.567200 4.650000
7.813560 0.349814 29.131300 -10.744800 5.280000
-7.811380 0.792838 29.123200 -10.567200 5.050000
7.925180 0.354811 29.547500 -10.744800 7.530000
-7.922970 0.804164 29.539200 -10.567200 10.520000
6.818550 -0.071963 30.266200 -10.833600 7.750000
18.102700 1.845970 25.128100 -9.146400 10.350000
7.149560 -0.072963 30.632300 -10.833600 9.360000
18.354100 1.871610 25.477100 -9.146400 7.210000
7.843930 -0.369803 30.904600 -10.744800 8.710000
18.605600 1.897250 25.826100 -9.146400 9.710000
7.863810 1.569270 31.751500 -10.744800 6.540000
18.596500 1.672510 29.488700 -9.501600 6.990000
-7.297880 0.846821 34.561600 -10.744800 4.900000
18.826100 1.693160 29.852800 -9.501600 5.390000
-7.388200 0.525380 34.989300 -10.744800 7.100000
19.055700 1.713800 30.216800 -9.501600 9.830000
7.749920 0.531710 35.352200 -10.833600 9.080000
19.285300 1.734450 30.580900 -9.501600 13.400000
9.007420 0.962732 35.488600 -10.744800 7.990000
18.801700 1.415590 31.400500 -9.679200 12.580000
9.111730 1.203180 35.899600 -10.744800 7.240000
19.022900 1.432250 31.769900 -9.679200 7.340000
19.241700 1.564750 32.135300 -9.679200 9.390000
19.462900 1.582730 32.504700 -9.679200 13.540000
18.894400 2.518570 33.277500 -9.768000 5.550000
18.850500 2.427180 33.804300 -9.856800 13.250000
19.060000 2.454140 34.179900 -9.856800 5.980000
19.269400 2.481110 34.555500 -9.856800 8.420000
18.749400 1.920290 35.364900 -9.945600 11.320000
18.948100 2.066050 35.739700 -9.945600 16.720000
19.149700 2.088030 36.119900 -9.945600 17.070000
19.351300 2.110010 36.500100 -9.945600 12.790000
19.180700 2.023530 37.566300 -10.034400 7.530000
19.376400 2.044180 37.949700 -10.034400 14.180000
19.572100 2.064820 38.333000 -10.034400 12.570000
19.127500 2.241880 39.507900 -10.123200 7.120000
19.315000 2.263860 39.895200 -10.123200 12.180000
19.502500 2.285840 40.282600 -10.123200 9.390000
19.695900 2.028290 40.682000 -10.123200 7.200000
8.568330 1.624160 44.835100 -10.833600 12.000000
9.871920 0.677297 45.032000 -10.833600 6.450000
9.964590 0.539713 45.454700 -10.833600 7.140000
10.321900 0.544710 45.816600 -10.833600 6.290000
19.725900 2.124870 43.046900 -10.212000 11.940000
19.905200 2.144190 43.438300 -10.212000 16.020000
19.746100 2.163510 43.983100 -10.212000 7.680000
20.263900 2.182820 44.221000 -10.212000 14.820000
9.212790 2.050360 48.207400 -10.833600 8.490000
9.293600 2.068350 48.630200 -10.833600 16.430000
19.581600 1.915210 45.480100 -10.300800 10.840000
8.053190 1.043390 49.320400 -10.922400 13.600000
19.751800 1.931870 45.875600 -10.300800 10.940000
7.833920 1.325170 49.785300 -10.922400 7.870000
19.922100 1.948520 46.271100 -10.300800 8.980000
7.965550 1.823350 50.621800 -10.833600 6.940000
19.634000 1.347820 47.350100 -10.300800 12.240000
19.799000 1.359150 47.748000 -10.300800 6.540000
19.964000 1.370480 48.145900 -10.300800 11.060000
20.120900 2.031790 48.524300 -10.300800 7.110000
6.927300 2.414630 53.360600 -10.922400 6.900000
19.940700 2.248200 49.984800 -10.389600 10.830000
6.671680 2.433940 53.826900 -10.922400 11.070000
20.102700 2.098410 50.391000 -10.389600 7.270000
20.180600 2.320140 51.741400 -10.389600 5.850000
20.337100 2.338130 52.142500 -10.389600 10.190000
-23.107000 -1.832740 51.469200 -9.945600 7.810000
-22.880500 -2.022540 52.034500 -10.034400 8.320000
20.509700 1.373500 53.496400 -10.478400 9.020000
20.663900 1.383830 53.898700 -10.478400 7.610000
18.787100 0.491077 54.596500 -9.412800 7.600000
20.818100 1.394160 54.300900 -10.478400 7.800000
20.972300 1.404480 54.703100 -10.478400 14.970000
20.267600 2.099150 55.405300 -10.478400 14.080000
-4.226660 3.905200 59.185100 -10.922400 7.690000
20.413200 2.298260 55.803300 -10.478400 8.340000
-4.257290 3.933500 59.614000 -11.011200 8.180000
20.561100 2.314910 56.207700 -10.478400 9.640000
-4.287910 3.961790 60.042900 -11.011200 7.250000
20.709000 2.331560 56.612100 -10.478400 15.150000
20.820600 2.191090 57.953200 -10.478400 4.420000
20.802900 2.042600 59.337300 -10.567200 6.330000
20.945400 2.056590 59.743700 -10.567200 5.840000
21.087800 2.070580 60.150100 -10.567200 6.000000
-31.059500 0.000000 55.698500 -9.501600 6.780000
21.232400 1.886100 60.562300 -10.567200 10.860000
-30.836200 0.000000 56.314200 -9.590400 14.140000
-30.477500 0.150923 57.486300 -9.590400 12.750000
-19.136900 -2.531410 62.587600 -10.389600 6.030000
-20.617700 1.385190 63.059100 -10.389600 5.370000
-20.753900 0.981132 63.475600 -10.389600 7.160000
-20.031800 -0.794577 65.514400 -10.478400 7.020000
-18.186100 -2.280440 67.803100 -10.567200 7.940000
-18.297600 -2.294430 68.219100 -10.567200 5.500000
-18.411000 -2.088640 68.641600 -10.567200 8.510000
-19.984800 -1.714300 68.659500 -10.478400 9.040000
-19.572300 -1.724620 69.226000 -10.478400 7.470000
21.290800 1.069750 69.632000 -10.656000 6.930000
21.118100 1.776260 71.020200 -10.656000 10.140000
21.242300 1.556090 71.438100 -10.656000 9.490000
21.367500 1.101400 71.858900 -10.656000 7.360000
21.194800 0.175910 72.816300 -10.656000 6.020000
21.315200 0.176910 73.230000 -10.656000 11.010000
21.213100 1.869200 75.029400 -10.656000 11.050000
21.330300 1.879530 75.443900 -10.656000 6.280000
21.228400 3.081000 76.776200 -10.744800 5.580000
21.791500 2.849950 77.075400 -10.744800 6.230000
21.906200 3.114300 77.480900 -10.744800 7.640000
-11.674700 -4.896940 81.322300 -10.833600 6.750000
22.542700 2.086070 84.046100 -10.744800 5.410000
22.657300 1.555460 84.473100 -10.744800 6.310000
22.770000 1.291300 84.893500 -10.744800 7.700000
-27.447300 1.570780 83.947400 -10.389600 7.270000
22.490000 2.607630 85.829500 -10.744800 5.500000
-27.581200 1.578450 84.356900 -10.389600 6.550000
-27.715100 1.586110 84.766400 -10.389600 9.710000
19.631700 1.349280 114.667000 -10.922400 8.230000
19.704400 1.354280 115.091000 -10.922400 5.750000
19.775300 2.084160 115.506000 -10.922400 6.330000
-55.665700 -11.308400 112.754000 -9.768000 5.590000
-55.855700 -11.347000 113.139000 -9.768000 5.060000
-55.120700 -12.559700 113.852000 -9.679200 6.030000
30.908700 1.674110 140.994000 -10.833600 6.600000
31.000900 1.679110 141.415000 -10.833600 6.210000
31.093200 1.684100 141.835000 -10.833600 9.890000
22.355200 2.221790 149.568000 -10.922400 9.390000
21.551500 2.228120 150.121000 -10.922400 5.060000
22.482600 2.234450 150.420000 -10.922400 6.630000
-59.909800 -12.471300 147.688000 -10.034400 7.430000
-60.071300 -12.504900 148.086000 -10.034400 6.940000
-60.232800 -12.538500 148.484000 -10.034400 8.500000
-6.457520 1.943970 167.484000 -11.011200 9.320000
-6.474120 1.948960 167.915000 -11.011200 6.160000
-6.490720 1.953960 168.345000 -11.011200 5.590000
-5.273070 0.396798 170.986000 -11.011200 8.580000
-5.286350 0.397797 171.416000 -11.011200 7.260000
-5.299650 0.000000 171.847000 -11.011200 6.530000
-47.340200 -12.026900 176.499000 -10.478400 7.530000
6.027000 0.771904 6.111410 -8.169600 3.230000
6.328350 0.810499 6.416980 -8.169600 6.690000
6.695990 0.819890 6.660190 -8.169600 5.840000
5.070870 -0.887689 8.468780 -9.590400 2.270000
5.597640 -0.528480 8.161440 -9.324000 3.090000
7.067110 0.857157 6.895160 -8.080800 1.150000
5.627880 -0.926285 8.626570 -9.501600 6.820000
5.860720 -0.998057 8.983470 -9.501600 6.930000
6.576860 -0.316460 8.525930 -9.057600 6.690000
7.468870 -1.106960 8.276880 -8.524800 4.230000
7.103620 -0.305809 9.208800 -8.880000 5.010000
-1.953080 1.185330 11.407800 2.752800 10.590000
-2.024770 1.266350 11.826500 2.752800 13.880000
-2.661080 1.311580 12.138800 2.664000 13.950000
-2.750990 1.436300 12.549000 2.664000 11.970000
-2.073060 0.753549 13.174500 2.752800 11.380000
6.664890 1.690870 11.952000 -9.856800 4.400000
-2.035060 0.777857 13.615600 2.752800 7.480000
6.257980 1.536210 12.675900 -10.123200 5.180000
6.447610 1.582760 13.060000 -10.123200 6.680000
-8.447990 1.097740 11.919200 -8.880000 6.160000
-1.515090 1.357360 14.508700 2.752800 5.350000
6.533440 1.629320 13.494900 -10.123200 5.440000
-8.601630 1.130030 12.336400 -8.968800 8.630000
-1.559660 1.397280 14.935400 2.841600 5.690000
-8.847390 1.162320 12.688900 -8.968800 8.130000
-2.685650 1.902230 15.159300 2.752800 6.890000
7.057570 0.135596 14.295500 -10.123200 9.580000
-2.880250 1.955070 15.558600 2.752800 3.850000
7.248320 0.139261 14.681900 -10.123200 16.060000
5.862160 -1.763850 15.650400 -10.478400 10.210000
7.439060 0.142925 15.068200 -10.123200 17.760000
6.136010 -1.809070 16.004900 -10.478400 9.520000
7.629810 0.146590 15.454600 -10.123200 15.390000
-8.460430 1.862070 14.900800 -9.590400 6.950000
7.551250 -1.419080 15.908600 -10.389600 6.200000
6.785400 -1.300220 16.727200 -10.389600 9.200000
-8.326730 1.453690 16.002600 -9.679200 8.490000
-8.656620 1.331170 16.328000 -9.679200 10.160000
-8.857940 1.362130 16.707700 -9.679200 5.910000
-8.812930 0.629569 17.260600 -9.768000 10.380000
5.281220 -0.413759 19.100400 -10.656000 3.660000
-9.008770 0.643559 17.644100 -9.768000 4.700000
5.508750 -0.422754 19.484100 -10.744800 9.130000
7.503060 -0.360131 18.807700 -10.478400 6.320000
-8.675640 0.907900 18.277400 -9.945600 8.280000
-9.341230 0.782740 17.952300 -9.768000 5.140000
5.893830 -0.431749 19.821000 -10.744800 6.870000
-8.607660 0.927217 18.784100 -10.034400 9.050000
5.999590 -1.647150 20.176600 -10.744800 7.980000
-7.806690 1.386630 19.568800 -10.212000 6.130000
-8.786980 0.946534 19.175500 -10.034400 5.550000
6.002910 -1.680770 20.623500 -10.744800 8.030000
7.800980 1.813590 20.001100 -10.478400 9.530000
-7.966010 1.414930 19.968200 -10.212000 8.720000
-7.406200 1.765200 20.614900 -10.300800 10.060000
7.245660 -2.489580 21.056300 -10.656000 5.520000
7.988880 2.006950 20.837800 -10.478400 8.290000
-7.552810 1.748000 21.022900 -10.300800 8.470000
4.269640 -2.045550 22.341600 -10.922400 5.840000
7.961170 -2.537450 21.254200 -10.567200 6.150000
-7.698060 1.781610 21.427200 -10.300800 5.040000
5.397840 -2.084140 22.537700 -10.833600 8.050000
-7.839360 1.958680 21.820500 -10.389600 5.520000
-7.813000 1.994950 22.285500 -10.389600 6.180000
-7.822210 2.086990 22.731800 -10.389600 10.150000
6.673580 -1.252820 23.604100 -10.744800 6.080000
5.998660 -1.409870 24.220600 -10.833600 5.310000
-6.958490 2.161530 23.906400 -10.567200 9.480000
6.102090 -1.434170 24.638200 -10.833600 6.120000
-7.078470 2.198790 24.318600 -10.567200 7.640000
6.020080 -0.619625 25.135700 -10.922400 7.290000
-7.198440 2.236060 24.730800 -10.567200 10.090000
6.120410 -0.629952 25.554600 -10.922400 5.260000
-7.322200 2.111310 25.156000 -10.567200 10.410000
6.070920 -0.557675 26.010900 -10.833600 8.660000
-7.248010 2.001770 25.635800 -10.656000 10.980000
7.935920 -0.566670 25.954600 -10.744800 5.810000
-7.606640 1.666500 26.904200 -10.567200 7.720000
18.362000 1.516570 23.335300 -8.968800 7.800000
18.628100 1.538550 23.673500 -8.968800 5.500000
6.729900 1.312950 30.699300 -10.922400 5.430000
18.591500 2.065790 25.289300 -9.235200 8.840000
6.998010 1.700330 31.062700 -10.922400 6.580000
-17.001600 0.936721 26.959700 -10.656000 5.910000
18.598400 2.094090 25.816100 -9.235200 5.440000
6.910470 1.723300 31.523000 -10.922400 8.920000
-17.020200 0.949380 27.456000 -10.656000 9.680000
18.849700 2.122390 26.165000 -9.235200 8.110000
-17.247200 0.962038 27.822100 -10.656000 8.990000
18.507200 2.383730 27.434800 -9.412800 9.510000
18.747600 2.414690 27.791100 -9.412800 4.750000
18.987900 2.445640 28.147400 -9.412800 10.170000
-6.551400 0.296845 34.281200 -10.833600 5.600000
18.604000 1.348980 29.500600 -9.590400 10.300000
-6.631810 0.519050 34.702000 -10.833600 9.900000
18.833700 1.365630 29.864800 -9.590400 8.340000
19.063300 1.382280 30.229000 -9.590400 6.120000
19.295200 1.287070 30.596700 -9.590400 6.390000
