VERSION .7
FIELDS x y z velocity SNR
SIZE 4 4 4 4 4
TYPE F F F F F
COUNT 1 1 1 1 1
WIDTH 273
HEIGHT 1
VIEWPOINT 0 0 0 1 0 0 0
POINTS 273
DATA ascii
-0.250986805052481 8.08553566017032 1.07609034963552 4.64144121875182 6.95442173202642
4.83637476469349 6.49465822211127 1.01279091730402 4.79615592604354 7.9809208491979
5.07126722511699 6.27954131398459 1.20268921429852 4.79615592604354 7.9809208491979
4.53374837765984 6.73408724199016 -2.43215895766037 4.48672651146009 5.42303015027688
5.20721423614965 6.58051143068691 1.18321246588883 4.79615592604354 11.3908909521606
6.43920302278555 5.77191542478907 1.56787824698026 -3.71315297500145 5.2232747991568
-5.50152262834946 6.81230885713078 0.749854813773167 3.71315297500145 6.13192122549344
-2.14940005436283 8.3885359793156 1.49970962754633 3.71315297500145 6.13192122549344
-1.41590936769648 8.57637646652282 -1.29520376924456 3.71315297500145 6.13192122549344
3.29982400919206 8.03050201886976 1.36337238867849 3.71315297500145 6.13192122549344
3.56919739769753 7.91445709464527 -1.36337238867849 3.71315297500145 6.13192122549344
4.60287107849546 7.11886765790481 2.31773306075342 3.71315297500145 6.13192122549344
7.13481198496009 4.506504448096 2.45407029962127 3.71315297500145 6.13192122549344
7.97356880270785 3.69011698179432 -0.204505858301773 3.71315297500145 6.13192122549344
4.64038270101952 6.89247380795686 -2.86308201622482 4.64144121875182 6.85923073554024
-1.43626844850651 8.69969448780498 2.25930281552435 3.71315297500145 5.85690742135865
4.76725933129887 7.37311293140141 2.40050924149462 3.71315297500145 5.85690742135865
4.49758904536704 8.19974835471009 1.09556709804521 3.55843826770973 7.26647713181867
-0.0751971787825541 9.69427904034503 -0.830196400963149 2.78486473125109 5.37027822145927
4.5419992714737 8.28071455121609 2.33964440271433 3.09429414583454 12.02669283152
4.15048248478319 8.79912709322635 0.150944800175117 3.403723560418 12.333433105358
4.36896331832916 8.67303505076728 0.603779200700473 3.403723560418 12.333433105358
4.65161697420652 8.4805633076418 1.05661360122583 3.403723560418 12.333433105358
4.15048248478319 8.79912709322635 -0.150944800175117 3.55843826770973 13.1732473672453
4.37094194006298 8.67696290604994 0.528306800612912 3.55843826770973 13.1732473672453
4.65543867855235 8.48753082148217 0.981141201138266 3.55843826770973 13.1732473672453
4.85765587307479 8.32055137968822 1.35850320157606 3.55843826770973 13.1732473672453
4.21744551648922 8.74550777884059 2.57093079007943 2.93957943854282 23.9260892822132
4.67907487986358 8.53062299839261 2.49302379644066 3.09429414583454 23.8711184730189
-2.09104946187015 9.76311058714241 1.09069791094279 3.24900885312627 15.1085807437324
-1.29927903206395 9.76723475874257 1.94767484096926 3.24900885312627 15.1085807437324
4.51846969742086 8.96982721213326 0.0779069936387703 3.24900885312627 15.1085807437324
5.2783568074464 8.50205728493883 0.856976930026476 3.24900885312627 15.1085807437324
-1.36118188364664 9.65374708753813 2.41511680280189 3.403723560418 9.48947812369343
4.51194006716179 8.95686493527735 0.545348955471394 3.403723560418 9.48947812369343
4.73623113286319 9.00744960180743 1.92819809255957 2.78486473125109 24.8537889671439
4.38382568409288 9.09052208769972 2.32990602850948 2.93957943854282 21.6404991994172
4.80483378908251 8.75989948376209 2.73161396445939 3.09429414583454 19.7109542725019
4.65855027117913 9.24790776296784 -0.241024761569947 3.24900885312627 15.0879877224163
4.86294825241159 9.05446268807135 1.28546539503971 3.403723560418 10.8801661409182
5.17105302617639 8.85736114611972 1.44614856941968 3.403723560418 10.8801661409182
4.91233862262044 9.34237399506235 1.57274743408268 2.78486473125109 18.274325268524
4.80087405350967 9.53044141289159 -0.0827761807411935 3.24900885312627 6.36298600258218
5.67276553786617 8.95335756175554 1.24164271111791 3.24900885312627 6.36298600258218
5.62797972413223 9.64001890665932 1.75290735687234 3.71315297500145 8.44291535050157
5.87330191723543 9.85530522952465 1.80159922789657 3.71315297500145 7.75859825336017
5.15494934466354 12.2513884737328 3.74927406886583 2.16600590208418 7.89187848838002
4.84387274951917 13.0045516785559 2.62936103530851 1.54714707291727 12.7897925684786
-1.90632302921667 13.5199862797943 3.6153714235492 1.701861780209 5.96826094248941
4.97230150077222 13.0183734071779 2.30069090589494 1.701861780209 5.96826094248941
5.14244607651232 12.5147351750654 4.05359826276728 2.16600590208418 11.4402326629228
5.75365956541154 12.4734920225349 3.28670129413563 2.16600590208418 11.4402326629228
5.36246191717043 13.050169079318 -0.657340258827126 2.32072060937591 6.34374737079944
5.74248607163428 12.4492687462165 3.39625800394016 2.32072060937591 6.34374737079944
4.19883237842987 13.6124475959032 2.35181737047039 1.39243236562554 6.67319252766015
5.26513072004176 13.1247833950818 2.91177388724905 1.54714707291727 28.9562894976761
4.82636982670495 13.2923923716844 2.91177388724905 1.701861780209 15.0570544515177
5.4849319371886 13.3482139872486 -0.447965213422931 2.16600590208418 8.70076533763029
6.13278120771467 13.0016501646436 -1.34389564026879 2.16600590208418 8.70076533763029
6.49471394099797 12.8929628268255 0.223982606711465 2.32072060937591 6.77544890292585
4.30070430392162 13.9427123272066 2.17409204123194 1.39243236562554 10.8388223571573
5.09873060622987 13.6887794317745 2.059666144325 1.39243236562554 10.8388223571573
4.69931165875285 13.637940653852 3.0894992164875 1.54714707291727 16.6421987306051
5.29174087698411 13.5164008157323 2.63179562885972 1.54714707291727 16.6421987306051
4.79140848010961 13.9052161774348 1.14425896906944 1.701861780209 10.8558960319578
4.7494426186854 14.1589931998403 1.98662833778865 1.54714707291727 8.46319908549751
5.32864293803727 13.9513389343179 1.98662833778865 1.54714707291727 8.46319908549751
4.40061984520705 14.6883782689467 1.19295084009367 1.54714707291727 7.38087841668917
5.32140293404537 14.2865973234086 2.02801642815925 1.54714707291727 7.38087841668917
5.3267764016729 14.3010237010342 1.90872134414988 1.701861780209 7.72727175646046
5.31469754361922 14.6373045628882 1.94767484096926 1.701861780209 9.74110530745668
5.46447138054936 14.6706992811482 1.09556709804521 1.85657648750073 7.61079025604704
5.93885927229286 14.4528984706698 1.46075613072695 1.85657648750073 7.61079025604704
6.59693097042162 13.9856593171512 2.67805290633274 2.63015002395936 6.42817661147406
7.25417587962426 13.7961222341912 1.82594516340869 2.63015002395936 6.42817661147406
7.88417549120474 12.9612106832817 4.01707935949911 2.63015002395936 6.42817661147406
-1.44644839893046 15.472454559539 -2.19113419609042 3.403723560418 42.335544042528
-1.44800079837969 15.4890603575434 -2.06940451852984 3.55843826770973 29.6536840614061
5.40357248488249 14.8820766449498 2.35912115112402 1.54714707291727 6.21111228406036
5.40357248488249 14.8820766449498 2.35912115112402 1.701861780209 15.529894170734
5.45402299344759 14.6426480508519 3.47659959113014 1.85657648750073 9.08930557379663
5.90150946763627 14.7111320848908 2.23495688001223 1.85657648750073 9.08930557379663
-1.60165657791797 15.8027927128443 -1.98662833778865 3.24900885312627 7.10189749520051
-1.60165657791797 15.8027927128443 -1.98662833778865 3.403723560418 153.333504729302
-1.60165657791797 15.8027927128443 -1.98662833778865 3.55843826770973 91.8847427024772
-1.47696081434729 15.7988415646943 -2.11079260890044 3.71315297500145 15.1268751742384
5.52728544536399 15.2227967454037 2.02558183460803 1.701861780209 6.33034175429792
5.4959545090661 15.1365076474694 2.65857615792305 1.85657648750073 5.09546437777113
6.00317837240771 14.964569734228 2.53197729326004 1.85657648750073 5.09546437777113
-1.634607631542 16.1279052727211 -1.89898296994503 3.403723560418 93.5120243891
-1.63306160885754 16.1126513934883 -2.02558183460803 3.55843826770973 156.866072602805
-1.62966519612832 16.0791405853243 -2.27877956393404 3.71315297500145 11.9200938427608
-2.17661022127314 16.3625075790548 -2.06453533142742 3.403723560418 11.6392823519576
-1.66278758347268 16.4059436144968 -2.19356878964163 3.403723560418 11.6392823519576
-2.17661022127314 16.3625075790548 -2.06453533142742 3.55843826770973 15.3843791306425
-1.66278758347268 16.4059436144968 -2.19356878964163 3.55843826770973 15.3843791306425
-1.43759650503573 16.7874504340663 -1.84055272471596 3.403723560418 9.5804989416277
-1.43877761449537 16.8012427717921 -1.70908467295053 3.55843826770973 8.72698909708056
-2.38920131732649 16.9446460724938 -2.27634497038283 3.403723560418 5.11803042477252
-1.59591869351734 17.071317223915 -2.00853967974955 3.403723560418 5.11803042477252
4.52333993547692 18.2596217476533 3.56424495897375 1.08300295104209 9.39878210221474
5.92177060621164 17.653926255366 4.45530619871719 1.08300295104209 9.39878210221474
4.1255703340414 18.5421805554233 4.2264544049033 0.928288243750363 7.5738832433623
4.90811664199368 18.5358701217288 3.32078560385259 0.928288243750363 7.5738832433623
5.44182690438803 18.1637166711504 4.37739920507842 1.08300295104209 17.7084178330314
4.82310834765571 18.8233073802732 1.05661360122582 1.23771765833382 7.86494602215231
4.09110833792689 19.101386100852 3.06758787452659 1.08300295104209 15.1574054916099
4.74960912663666 19.1730153688843 0.920276362357977 1.08300295104209 15.1574054916099
5.28937310726982 18.188641909437 5.67503756787419 1.08300295104209 15.1574054916099
5.20720669389038 19.045799419792 -1.07365575608431 1.23771765833382 17.7382216202322
6.70878369016673 18.4767824158505 2.14731151216861 1.23771765833382 17.7382216202322
-6.55631133357204 18.5314340713665 2.14731151216861 1.39243236562554 5.74054880597414
5.19588248233005 19.0043801570962 -1.68717333098963 1.39243236562554 5.74054880597414
6.73222874083682 18.5413528536475 1.38041454353697 1.39243236562554 5.74054880597414
5.15598077891057 18.2787096127879 6.54418746565673 1.08300295104209 5.15405445089285
5.2936898665414 19.3621189470025 -0.779069936387706 1.23771765833382 16.3700379332141
5.2936898665414 19.3621189470025 -0.779069936387706 1.39243236562554 12.4714347457148
6.18437532348418 18.9488808824015 2.49302379644066 1.39243236562554 12.4714347457148
6.99050477341219 18.7677061900635 1.55813987277541 1.39243236562554 12.4714347457148
-0.403704615986525 26.0200716761404 1.21242758850337 4.79615592604354 7.22823522065657
-10.3845196418378 24.109511809763 2.45407029962127 4.79615592604354 14.4585791568367
-1.83916798672119 26.2811941109404 -1.02252929150886 4.79615592604354 14.4585791568367
-0.408703997049151 26.3422979981456 1.02252929150886 4.79615592604354 14.4585791568367
13.333982731021 22.3742064670289 -4.09011716603546 4.79615592604354 14.4585791568367
14.8744871062782 21.6522137917077 -2.2495644413195 4.79615592604354 14.4585791568367
16.7649395338986 20.3393625156323 -0.61351757490532 4.79615592604354 14.4585791568367
-10.3021028192835 24.4842490772561 2.48328542223581 4.79615592604354 6.21044172867373
13.492720620676 22.6405660678269 -4.13880903705969 4.79615592604354 6.21044172867373
14.8116003549136 22.0000319106734 -2.89716632594178 4.79615592604354 6.21044172867373
18.0038193112096 19.6886000536811 -0 4.79615592604354 6.21044172867373
-2.03278335356436 29.0479033379415 2.03775480236409 3.71315297500145 5.53242509364966
1.8006259254993 28.9616159197521 3.16984080367748 3.71315297500145 5.53242509364966
4.88662665368171 28.2160548839798 5.66043000656692 3.71315297500145 5.53242509364966
14.2432418391708 25.429971104156 -1.58492040183874 3.71315297500145 5.53242509364966
15.1585393191266 24.9199199060431 1.13208600131339 3.71315297500145 5.53242509364966
1.80210529492349 28.9854103839216 2.9434236034148 3.86786768229318 13.4543659478365
15.1585393191266 24.9199199060431 1.13208600131339 3.86786768229318 13.4543659478365
5.2477330972629 28.9432518214132 2.28851793813889 0.618858829166909 10.2752115695036
15.3289182904316 25.2000148564344 0.686555381441667 3.71315297500145 13.1875066398359
17.1592368922742 23.9911874235949 0.686555381441667 3.71315297500145 13.1875066398359
15.3256882610531 25.1947048412864 0.915407175255555 3.86786768229318 33.4324542644896
16.9329948176844 24.1568217475142 0.457703587627776 3.86786768229318 33.4324542644896
15.3215343655688 25.187876034065 1.14425896906944 4.02258238958491 7.21440265750636
5.5079592724781 29.0701815104417 3.7005821978416 0.464144121875182 15.6907202711518
5.51317366851444 29.0977023092975 3.4692958104765 0.618858829166909 41.8524052658414
14.5706040619956 26.0144456192298 0.231286387365099 3.71315297500145 5.625802560771
15.4887274978729 25.4627336161937 0.925145549460402 3.71315297500145 5.625802560771
17.1069527588446 24.4049923175415 0.925145549460402 3.71315297500145 5.625802560771
15.4887274978729 25.4627336161937 0.925145549460402 3.86786768229318 13.4367517599417
17.110558206055 24.4101358935314 0.693859162095302 3.86786768229318 13.4367517599417
6.77280909395738 29.3374736923452 1.16860490458156 0.464144121875182 9.38949437965979
5.5761318983204 29.4299863872101 3.27209373282837 0.618858829166909 24.6922497587445
3.69026482692807 29.5048894245977 7.87347554461825 0.464144121875182 6.51539566839264
3.81560482587033 30.5070242259499 0.954360672074941 0.618858829166909 6.06193038625649
4.76016173594523 30.313001915344 2.14731151216861 0.618858829166909 6.06193038625649
-3.09569480953913 30.5437657809066 1.90872134414988 3.403723560418 7.32804927186354
2.14317332968094 30.6253451002863 1.90872134414988 3.403723560418 7.32804927186354
15.0198718915564 26.8165711502544 1.19295084009367 3.403723560418 7.32804927186354
15.1841031803954 27.1097906979342 0.241024761569946 3.403723560418 20.664437631663
15.1827327024004 27.1073438381389 0.482049523139891 3.55843826770973 8.30754329252775
15.3374779599954 27.3836269676103 -0.243459355121157 3.403723560418 12.337109903915
15.3374779599954 27.3836269676103 0.243459355121157 3.55843826770973 5.45677401293123
-6.63148937157434 30.962425936226 -6.51984153014461 3.09429414583454 8.86573310190951
16.6544225160304 27.3790809551953 4.26297330817148 3.09429414583454 8.86573310190951
16.7105474154616 28.0400271691358 -0.253197729326004 2.93957943854282 16.8305885872314
14.9166294461771 28.9810705152378 1.77238410528203 3.09429414583454 34.2039582533011
16.7105474154616 28.0400271691358 -0.253197729326004 3.09429414583454 34.2039582533011
14.9274269398429 29.0020486407884 1.26598864663002 3.24900885312627 5.52983873502714
16.7090391645465 28.0374963485955 -0.506395458652007 3.24900885312627 5.52983873502714
16.6156011233283 28.4604275114179 -0.255632322877215 2.93957943854282 19.0748409829656
16.8717333098963 28.3104944821962 -0 3.09429414583454 38.9373796669427
14.8262286946622 29.4322455398123 0.255632322877215 3.24900885312627 5.92254893857986
16.8712257559949 28.3096428149929 0.255632322877215 3.24900885312627 5.92254893857986
16.7743495678478 28.7323435597307 -0 3.09429414583454 6.17880028638314
-5.56456401602012 33.7054030167875 1.85759487957443 2.78486473125109 5.14603835311741
2.87626190310383 33.5873828049885 -5.83815533580537 2.78486473125109 5.14603835311741
16.4524882624839 29.9952401609828 -0.265370697082061 2.78486473125109 5.14603835311741
16.6034285217728 30.2704258505331 0.267805290633273 2.78486473125109 10.2272045275143
14.8050744603684 36.905711514576 2.78274042903484 2.01129119479245 13.461576437636
16.694433361081 36.192249295043 0.618386762007739 2.01129119479245 13.461576437636
14.8050744603684 36.905711514576 2.78274042903484 2.16600590208418 7.23644448424521
16.694433361081 36.192249295043 0.618386762007739 2.16600590208418 7.23644448424521
14.9216498498201 37.1963076682341 2.80465177099574 2.01129119479245 17.5086743623748
16.8198090283263 36.464054112034 1.24651189822033 2.01129119479245 17.5086743623748
14.9216498498201 37.1963076682341 2.80465177099574 2.16600590208418 9.29739513025793
16.8198090283263 36.464054112034 1.24651189822033 2.16600590208418 9.29739513025793
14.5429618799778 39.0441097665527 2.59040753848912 1.85657648750073 11.9993469998898
16.8128111554369 38.1423955004184 2.26660659617798 1.85657648750073 11.9993469998898
14.6523074580227 39.3376745016396 2.60988428689882 1.85657648750073 11.1311879970215
15.6022017396577 38.8927700389084 3.58859089448587 1.85657648750073 11.1311879970215
16.9315552848263 38.4117844505855 2.60988428689882 1.85657648750073 11.1311879970215
14.5301000977511 41.0693724431675 2.36885952532887 1.701861780209 9.66028008449121
14.6280084406794 41.3461106744229 2.72674477735697 1.701861780209 5.28249488543744
-12.1501665510159 43.0741260792585 6.31046648474041 1.54714707291727 13.8587380200942
14.3721106100645 42.8459995694359 0.701162942748933 1.54714707291727 13.8587380200942
-15.3791105015068 42.355886194715 3.50581471374468 1.701861780209 5.15219474859259
-12.136366008827 43.0252011289947 6.66104795611489 1.701861780209 5.15219474859259
-4.52660574888553 44.6618915244583 5.25872207061702 1.701861780209 5.15219474859259
14.3721106100645 42.8459995694359 0.701162942748933 1.701861780209 5.15219474859259
15.7742677427537 42.34984911038 0.701162942748933 1.701861780209 5.15219474859259
14.4732232495512 43.1474356093784 0.353016064925678 1.39243236562554 9.69114391414064
15.521020840319 42.7467240237295 1.7650803246284 1.39243236562554 9.69114391414064
14.4732232495512 43.1474356093784 0.353016064925678 1.54714707291727 38.7067437102374
14.4719169337455 43.1435412331126 0.706032129851356 1.701861780209 13.2419499344294
16.9034314704994 42.1364422804214 3.17714458433111 1.701861780209 13.2419499344294
14.5730385823067 43.4450041308224 0.35545065847689 1.54714707291727 14.5145438319407
15.6167580772884 43.0103956784248 2.48815460933823 1.54714707291727 14.5145438319407
14.2111812392109 43.542955660769 1.42180263390756 1.701861780209 5.10802749845901
15.6167580772884 43.0103956784248 2.48815460933823 1.701861780209 5.10802749845901
16.9994138357465 42.3757046692584 3.9099572432458 1.701861780209 5.10802749845901
14.2406583788749 44.869604255166 0.730378065363472 1.39243236562554 8.4843450491328
15.6955683207038 44.3635719460692 1.46075613072695 1.39243236562554 8.4843450491328
17.1592368922742 43.8288890026417 1.09556709804521 1.39243236562554 8.4843450491328
15.4104367991343 44.7228525746062 2.94098900986359 1.39243236562554 6.25769737930892
16.8979640684727 44.2418879929722 1.83811813116474 1.39243236562554 6.25769737930892
13.7379981155959 51.8825788744503 0.416315497257179 1.08300295104209 5.20681004741302
16.6280549888937 50.9482392011509 2.91420848080026 1.08300295104209 5.20681004741302
16.7374017839177 51.2832769835303 2.09375045404196 1.08300295104209 10.3707850067725
13.3531294694597 57.8411526275361 8.37013262906541 0.928288243750363 5.00253178131776
16.2438930940103 57.5869883109458 3.7200589462513 0.928288243750363 5.00253178131776
13.5798172466566 63.4041709437695 7.59593187978013 0.773573536458636 8.46431288568354
-49.754616853057 40.4847361165979 13.7384114094869 0.928288243750363 8.87424413365865
-25.4292541009853 60.435835496802 2.03532020881288 0.928288243750363 8.87424413365865
-25.5255230092666 60.6646307214374 3.57885252028102 0.928288243750363 36.4042047040526
-25.486215319732 60.5712110305161 5.11264645754432 1.08300295104209 21.5315240629734
-25.6354632972039 60.9259177072792 4.10959391444515 0.928288243750363 29.1241795256206
-25.6222991399092 60.8946314241049 4.62329315375079 1.08300295104209 18.0607122947329
-32.7243934500885 64.9627361751939 3.38895422328652 1.85657648750073 5.69503808064198
-35.1023604541619 63.9966256314476 4.53808237945839 1.701861780209 5.03351931520497
-32.8763441435848 65.2643806603175 2.83630148716149 1.701861780209 5.03351931520497
-35.1023604541619 63.9966256314476 4.53808237945839 1.85657648750073 5.44730193132304
-32.8525636140218 65.2171728099882 3.97082208202608 1.85657648750073 5.44730193132304
5.2464566355717 7.04534788617139 -0.272674477735697 0.10382171147208 5.30926226327924
5.31699235946507 6.99725165515984 0.068168619433924 0.20764342294416 7.19930722639142
4.57801268992691 7.84155790337827 -0.635428916866223 -0.20764342294416 6.77720638383154
5.355503422468 7.33836190615621 -0.564825703881087 0.10382171147208 7.25162180265738
5.5749685306562 7.18971274202299 -0.282412851940544 0.20764342294416 5.91769111689448
5.79200319351878 8.09808938743267 -1.3244188918591 0 6.69366761811578
7.07665350290315 7.90332592412464 1.15886653037671 0.20764342294416 6.27949496246988
7.27835646588967 8.12859119332147 1.27816161438608 0.20764342294416 5.30095857092359
6.30219073924754 11.4897954490631 1.43154100811241 -0.830573691776641 9.60959980371478
6.17582056533428 11.9988159482824 -0.209375045404195 -0.934395403248721 5.22127976808933
6.15365526703084 11.2189940304276 -4.29218843078602 -0.934395403248721 5.22127976808933
6.9015416326805 11.3458072109635 2.40781302214825 -0.726751980304561 8.400752259732
-1.06193202577236 15.1747104687825 -2.26660659617798 1.45350396060912 5.27456204687487
12.4141716466884 8.34369222018718 -3.57885252028102 1.45350396060912 5.27456204687487
-11.6264857736999 10.4216457123415 -1.58248580828753 1.34968224913704 14.0472804497403
-7.85125773489203 13.448213518055 -1.94767484096926 1.34968224913704 14.0472804497403
-11.6353161253085 10.4295609842277 -1.46075613072695 1.45350396060912 40.8694285448126
-7.84333765789001 13.4346474258187 -2.06940451852984 1.45350396060912 40.8694285448126
-7.83492882753999 13.4202441607874 -2.19113419609042 1.5573256720812 8.78102195473822
-1.47537736690907 15.7819036507298 -2.23495688001223 1.34968224913704 77.3807300828231
-1.47537736690907 15.7819036507298 -2.23495688001223 1.45350396060912 213.820938246387
-1.47696081434729 15.7988415646943 -2.11079260890044 1.5573256720812 46.6159933607291
-1.50592083031488 16.1086227718452 -2.15218069927104 1.34968224913704 128.027100849315
-1.50744148509927 16.1248890016461 -2.02558183460803 1.45350396060912 298.161738490064
-1.50592083031488 16.1086227718452 -2.15218069927104 1.5573256720812 68.8952367736455
-2.16701270574493 16.2903589605122 -2.58066916428428 1.34968224913704 58.0884362919368
-1.2889364245353 16.5671617532395 -0.774200749285282 1.34968224913704 58.0884362919368
-2.16701270574493 16.2903589605122 -2.58066916428428 1.45350396060912 105.239000498352
-1.28784791919603 16.5531708040494 -1.03226766571371 1.45350396060912 105.239000498352
-1.28644705899599 16.5351650459019 -1.29033458214214 1.5573256720812 19.4246111276556
-1.30988634008321 16.8364385251517 -1.44614856941968 1.34968224913704 14.5863093836683
-1.30988634008321 16.8364385251517 -1.44614856941968 1.45350396060912 27.6595154270643
-1.32733406518139 17.0607003882081 -2.27634497038283 1.34968224913704 5.76430537561939
-1.32993224459778 17.0940957193013 -2.00853967974955 1.45350396060912 9.2050886715801
7.04761114926606 27.5049493805701 -3.10167218424355 -1.45350396060912 5.23072880497854
16.6729139467989 22.8460084739197 -5.8235477744981 0.10382171147208 9.90076965560858
16.7944842342588 32.6294980790612 -6.95319918226027 -0.62293026883248 23.1049155823784
16.9097344614206 32.853414277578 -7.30378065363474 -0.726751980304561 5.62985357188782
16.9097344614206 32.853414277578 -7.30378065363474 -0.62293026883248 13.2869026124488
21.1995678484693 34.8510843759199 -0.949491484972519 -0.830573691776641 5.23018545757627
-21.1562751213649 59.7982764484833 12.5381567887396 -1.24586053766496 7.84451739483712
