VERSION .7
FIELDS x y z velocity intensity
SIZE 4 4 4 4 4
TYPE F F F F F
COUNT 1 1 1 1 1
WIDTH 977
HEIGHT 1
VIEWPOINT 0 0 0 1 0 0 0
POINTS 977
DATA ascii
7.711780 0.316494 20.115100 -10.389600 18.130000
6.522560 -1.900650 20.899400 -10.567200 5.900000
7.127260 -0.051973 21.243000 -10.478400 7.860000
-7.543320 2.075960 20.996500 -10.212000 6.400000
-8.140200 2.115880 21.232500 -10.123200 3.430000
4.789290 -2.012460 22.681300 -10.744800 5.340000
-8.300060 1.958680 21.649500 -10.123200 8.250000
4.877980 -2.049720 23.101300 -10.656000 7.020000
7.034190 -1.882460 23.005500 -10.567200 9.530000
7.311870 -0.949280 23.428500 -10.567200 4.070000
7.299280 -1.197600 23.872500 -10.567200 9.270000
-7.441790 0.811444 23.844700 -10.300800 7.380000
7.426200 -1.139700 24.287600 -10.567200 7.900000
-7.429750 0.825434 24.299200 -10.212000 9.110000
7.361480 -1.159020 24.756700 -10.567200 8.860000
-7.554890 0.919338 24.708500 -10.212000 9.260000
4.184600 -3.495480 26.593500 -10.744800 8.680000
18.343900 1.699020 19.938800 -8.347200 9.410000
5.691000 -1.321490 26.951600 -10.744800 6.300000
5.621590 -1.342140 27.405700 -10.744800 8.440000
18.120000 1.362780 21.877100 -8.613600 7.060000
4.717750 -1.223020 28.893000 -10.744800 9.500000
6.137310 -1.241010 29.065300 -10.744800 8.230000
18.141700 1.332870 23.518100 -8.968800 7.320000
7.414890 -1.165780 29.214200 -10.656000 6.850000
7.122730 -0.898746 29.739600 -10.744800 7.260000
6.817490 -0.551690 30.261500 -10.744800 7.110000
7.972680 -0.364806 30.426400 -10.744800 7.100000
6.498320 -0.364806 30.775000 -10.744800 7.100000
-7.844350 -0.172578 30.906200 -10.567200 9.220000
18.223300 9.470050 24.392300 -9.235200 7.130000
18.469600 9.598030 24.721900 -9.146400 9.200000
8.128890 0.404785 33.940700 -10.656000 7.890000
6.551200 0.404785 34.280200 -10.656000 6.900000
8.494270 -0.191235 34.297100 -10.656000 6.220000
-14.087000 0.985385 34.726900 -13.852800 8.240000
-14.247700 1.113940 35.123000 -13.852800 6.140000
-14.681600 1.245150 35.406700 -13.852800 6.450000
18.607200 1.738530 33.981100 -9.768000 5.760000
18.813900 1.757850 34.358700 -9.768000 8.110000
19.020700 1.777170 34.736200 -9.768000 9.660000
19.227400 1.796480 35.113800 -9.768000 6.630000
18.672100 2.066050 35.884600 -9.856800 7.890000
19.149700 2.088030 36.119900 -9.856800 13.980000
-27.113100 1.455620 30.634600 -7.992000 6.420000
-27.401400 1.343080 30.960300 -7.992000 7.980000
19.552800 2.131990 36.880300 -9.856800 15.270000
19.754400 2.153970 37.260500 -9.856800 12.100000
19.371100 2.274760 37.939200 -9.945600 10.080000
19.569100 2.197930 38.327100 -9.945600 8.400000
19.764800 2.219910 38.710400 -9.945600 17.840000
-8.076640 1.063690 43.628700 -10.744800 12.390000
19.317900 2.126770 39.901400 -10.034400 17.770000
-6.051150 1.063690 43.955400 -10.744800 12.390000
19.502500 2.285840 40.282600 -10.034400 8.270000
19.690000 2.307820 40.669900 -10.034400 10.040000
19.877600 2.329800 41.057200 -10.034400 7.870000
19.603000 2.481560 42.134000 -10.123200 11.330000
19.786900 2.395740 42.529300 -10.123200 5.250000
19.717600 2.527510 43.029000 -10.123200 6.410000
-12.113100 1.996400 46.227600 -12.787200 15.510000
19.748800 2.014390 43.989000 -10.123200 20.290000
-12.222200 2.014390 46.644000 -12.787200 20.290000
19.582400 2.032370 44.534000 -10.123200 15.700000
-13.237400 1.881910 46.820000 -12.698400 13.490000
20.101400 2.050360 44.774500 -10.123200 5.530000
-13.357500 1.594910 47.244700 -12.698400 14.730000
20.277800 2.068350 45.167300 -10.123200 5.180000
19.481300 2.240770 45.977100 -10.212000 11.560000
9.749210 0.428776 49.461800 -10.833600 7.170000
19.651900 2.104320 46.379700 -10.212000 5.710000
9.832240 0.589686 49.883000 -10.833600 10.430000
19.819800 2.122300 46.776100 -10.212000 14.700000
9.915160 0.753256 50.303700 -10.744800 11.080000
19.987800 2.140290 47.172500 -10.212000 17.450000
9.998480 0.759586 50.726400 -10.744800 9.520000
19.420100 2.158270 47.874000 -10.212000 15.680000
19.576500 2.498440 48.259500 -10.212000 8.750000
19.738300 2.519080 48.658400 -10.212000 9.060000
19.900100 2.539730 49.057200 -10.212000 13.020000
-24.451600 -1.720820 46.991800 -9.501600 16.140000
19.940700 2.248200 49.984800 -10.300800 8.450000
-24.855100 -1.290890 47.767400 -9.590400 10.870000
20.100200 2.266190 50.384700 -10.300800 7.330000
20.259800 2.284170 50.784600 -10.300800 15.030000
20.354500 0.303177 52.187200 -10.300800 7.220000
20.511100 0.305510 52.588700 -10.300800 6.900000
20.090300 2.298260 55.920400 -10.389600 12.530000
20.235800 2.314910 56.325600 -10.389600 11.160000
20.381400 2.331560 56.730800 -10.389600 5.550000
20.527000 2.348220 57.136100 -10.389600 6.530000
20.672600 2.364870 57.541300 -10.389600 9.420000
20.373300 2.191090 58.111900 -10.478400 9.960000
20.515700 2.206410 58.518300 -10.478400 14.500000
20.658200 2.221730 58.924700 -10.478400 14.400000
20.800700 2.237060 59.331000 -10.478400 9.270000
-9.362650 2.344310 65.217400 -10.833600 7.520000
21.557600 2.126610 69.074100 -10.567200 10.140000
21.685900 2.139270 69.485300 -10.567200 6.430000
21.816100 1.925460 69.902500 -10.567200 5.560000
21.945700 1.765930 70.317700 -10.567200 6.690000
-17.916000 -1.786590 72.338700 -10.567200 6.280000
-18.018500 -1.970770 72.752600 -10.567200 6.490000
-17.704300 -1.931160 78.585600 -10.567200 7.500000
22.043300 1.726990 79.723400 -10.656000 12.140000
-15.259000 -0.473423 86.130200 -10.744800 7.770000
22.389700 0.751275 85.446600 -10.656000 6.640000
22.994200 1.029450 85.729200 -10.656000 5.930000
22.047800 1.039450 86.866800 -10.656000 12.710000
22.153800 1.044440 87.284500 -10.656000 10.770000
22.259800 1.049440 87.702100 -10.656000 8.010000
22.055200 2.696240 89.051600 -10.744800 10.790000
22.677500 2.423820 89.347700 -10.656000 4.840000
22.786400 1.933870 89.776700 -10.656000 8.980000
22.893700 1.655070 90.199700 -10.656000 8.280000
22.999700 1.662730 90.617300 -10.656000 6.590000
23.105700 1.670390 91.034900 -10.656000 9.640000
22.777800 3.077890 91.969300 -10.656000 10.840000
-55.108400 -19.613400 113.827000 -9.501600 6.260000
-55.294000 -19.679400 114.210000 -9.501600 8.700000
22.101400 2.766110 153.952000 -10.833600 5.020000
22.162700 2.773770 154.378000 -10.833600 6.230000
22.225000 2.297750 154.813000 -10.922400 5.420000
-59.382000 -10.248100 152.250000 -10.034400 5.150000
-59.514000 -11.288300 152.589000 -10.034400 9.420000
-60.847600 -11.318000 152.525000 -10.034400 9.240000
-5.299460 1.462240 171.841000 -10.922400 5.140000
-5.312740 1.465900 172.272000 -10.922400 4.110000
-5.405710 1.491560 175.287000 -10.922400 9.640000
-5.418990 1.495220 175.717000 -10.922400 10.470000
-5.432110 2.043910 176.143000 -10.922400 6.490000
-5.445560 1.502550 176.579000 -10.922400 4.620000
-48.377000 -16.211500 180.364000 -10.389600 7.500000
-48.488200 -16.248700 180.779000 -10.389600 6.520000
-48.624600 -15.125300 181.287000 -10.389600 4.350000
-47.684700 -15.159900 181.981000 -10.389600 4.420000
6.099780 -0.215193 4.050480 -5.949600 11.710000
6.458590 -0.227851 4.288740 -6.038400 10.370000
6.547070 0.069630 4.915250 -6.571200 7.290000
6.817400 -0.240510 4.527000 -6.038400 7.060000
6.499170 0.977589 6.219950 -7.636800 5.690000
6.434100 1.024140 6.886220 -8.080800 7.000000
6.712430 0.483544 6.676530 -7.725600 7.920000
6.630930 0.505523 7.348280 -8.169600 6.920000
7.017540 0.505523 6.980010 -7.725600 7.520000
-8.520120 1.356800 9.626730 -7.903200 3.480000
-8.445680 1.356800 9.692110 -7.903200 6.310000
7.001450 1.360940 11.294300 -9.235200 5.450000
-8.727200 1.402030 10.015200 -7.992000 5.850000
7.241630 1.107570 11.681700 -9.235200 4.760000
-9.039200 0.905553 10.373200 -7.903200 9.970000
-9.323530 0.889964 10.699500 -7.903200 11.310000
-10.087600 0.850781 11.178900 -7.814400 9.150000
5.986190 -1.007360 13.333800 -9.856800 4.890000
7.510380 1.490140 12.993300 -9.412800 6.070000
-8.202600 1.443720 12.573200 -8.791200 6.330000
7.410020 1.490140 13.050800 -9.412800 6.110000
-8.434410 1.532710 12.928500 -8.791200 9.130000
5.428400 -1.066610 14.492400 -10.034400 5.170000
7.644190 -0.970870 13.463200 -9.501600 8.880000
-8.668700 1.575290 13.287600 -8.880000 9.840000
6.408410 -0.850163 14.573900 -9.768000 4.260000
6.570910 1.277380 14.943400 -9.856800 11.350000
6.763710 0.246865 15.381900 -9.945600 10.930000
6.434920 -2.007740 15.863200 -10.123200 8.380000
7.390150 0.253195 15.569200 -9.856800 6.850000
5.940310 -1.854300 16.534600 -10.123200 8.690000
5.593180 -1.899530 17.106700 -10.300800 10.150000
7.021670 -1.899530 16.571600 -10.034400 5.170000
7.064490 1.773710 17.037000 -10.034400 7.230000
6.857680 1.814960 17.582500 -10.034400 4.440000
-7.469590 1.639780 17.348900 -9.679200 7.170000
7.027690 1.393090 18.018400 -10.034400 6.440000
-7.781340 1.512690 17.696200 -9.679200 7.550000
7.183860 1.424050 18.418800 -10.034400 9.590000
-8.852240 1.485180 17.672600 -9.501600 4.230000
-8.940150 1.517470 18.108700 -9.501600 9.340000
-8.700340 1.549760 18.700200 -9.590400 5.260000
7.251990 0.440743 19.824700 -10.212000 4.300000
7.555690 0.449738 20.171700 -10.212000 9.950000
7.706800 0.458733 20.575100 -10.212000 16.920000
7.857910 0.467728 20.978500 -10.212000 18.300000
6.367430 -1.570290 21.875800 -10.300800 15.170000
7.185490 -2.760640 22.414600 -10.300800 8.620000
6.830810 -2.810840 22.972100 -10.300800 4.880000
-8.612880 0.588644 22.994100 -9.945600 8.060000
-8.583400 0.598971 23.464400 -9.945600 8.410000
6.549180 -0.919338 24.993800 -10.478400 5.080000
6.658330 -0.934660 25.410400 -10.478400 9.830000
4.931820 1.699020 26.640800 -10.478400 5.380000
5.151270 -2.724820 26.954800 -10.478400 6.840000
5.231760 -2.767400 27.376000 -10.567200 5.890000
5.492600 -1.450630 27.866200 -10.478400 5.770000
6.012920 -3.791340 29.313400 -10.478400 8.230000
5.738500 -1.182440 30.027600 -10.478400 6.880000
7.046370 -1.199090 30.190200 -10.478400 4.240000
7.145810 -1.021300 30.616300 -10.478400 7.840000
7.245010 -0.838143 31.041300 -10.478400 6.730000
18.480000 0.674607 26.503900 -9.057600 5.310000
7.524660 -0.849469 31.417800 -10.478400 7.490000
18.726400 0.683602 26.857300 -9.057600 10.030000
19.037000 2.076710 29.180400 -9.146400 7.000000
19.272000 2.102350 29.540600 -9.146400 6.700000
18.806400 1.930100 30.866100 -9.324000 5.690000
8.698570 0.951406 35.121900 -10.478400 6.610000
19.030300 1.953080 31.233500 -9.324000 6.710000
7.080570 0.962732 35.922700 -10.478400 5.280000
19.254200 1.976060 31.601000 -9.324000 6.550000
7.446340 0.085956 36.301500 -10.478400 7.640000
18.949100 2.022010 32.782700 -9.501600 8.050000
7.619510 0.087955 37.145700 -10.478400 6.930000
19.164400 2.044990 33.155300 -9.412800 5.240000
19.382100 1.978130 33.531900 -9.412800 8.700000
19.597500 2.000110 33.904400 -9.412800 8.440000
-22.562800 -3.916930 32.359400 -8.524800 7.520000
18.811700 2.113920 34.831100 -9.590400 12.930000
19.016200 2.136900 35.209700 -9.590400 12.600000
19.220700 2.159870 35.588200 -9.590400 5.480000
-26.854500 1.598790 31.423900 -7.992000 6.700000
19.425100 2.182850 35.966900 -9.590400 6.250000
-27.134200 1.615440 31.751200 -7.992000 6.220000
19.362000 1.598790 36.520300 -9.590400 9.390000
-27.417100 1.501590 32.082200 -7.992000 8.010000
9.185140 0.613998 40.771000 -10.478400 6.230000
19.278700 1.615440 37.050500 -9.590400 14.670000
-27.449100 1.385050 32.625500 -7.992000 10.010000
9.279830 0.620328 41.191300 -10.478400 8.390000
19.477400 1.632100 37.432400 -9.590400 5.890000
19.676200 1.648750 37.814400 -9.590400 13.040000
19.478900 1.547550 38.887600 -9.679200 6.440000
19.442200 1.698710 39.381200 -9.768000 13.250000
19.632800 1.715370 39.767300 -9.768000 9.040000
19.259100 1.341790 41.394800 -9.856800 9.600000
19.440800 1.354450 41.785300 -9.856800 10.980000
19.390700 2.271310 43.191500 -9.856800 7.080000
19.567000 2.291950 43.584100 -9.856800 6.620000
19.927600 1.881910 44.387300 -9.945600 8.230000
19.755700 2.050360 44.928100 -9.945600 6.510000
19.929000 2.068350 45.322200 -9.945600 8.220000
20.102300 2.086330 45.716300 -9.945600 5.360000
19.973400 2.892660 47.138500 -9.945600 6.360000
9.999410 0.279856 50.731200 -10.567200 6.600000
10.082500 0.443435 51.152800 -10.567200 8.850000
10.563300 0.284520 51.496800 -10.567200 8.590000
20.202600 1.178310 52.695600 -10.123200 13.180000
20.356900 1.187310 53.097900 -10.123200 9.380000
20.511100 1.196300 53.500200 -10.123200 16.290000
20.665300 1.205300 53.902400 -10.123200 11.780000
20.540600 2.264950 54.837900 -10.212000 7.180000
20.691600 2.281600 55.241100 -10.212000 9.670000
20.840100 2.482010 55.637400 -10.212000 8.320000
20.991100 2.500000 56.040600 -10.212000 11.820000
20.697500 3.077100 56.580700 -10.212000 6.690000
20.845400 3.099080 56.984800 -10.212000 8.850000
20.661100 3.121050 57.509300 -10.212000 9.820000
20.806600 3.143030 57.914300 -10.212000 7.260000
20.502000 3.165010 58.479100 -10.212000 15.000000
20.655800 2.414830 58.917900 -10.212000 14.690000
20.940800 2.448140 59.730500 -10.212000 7.290000
20.735200 2.464800 60.257700 -10.212000 10.000000
21.010000 2.897550 61.056300 -10.212000 7.590000
21.150100 2.916870 61.463300 -10.212000 6.280000
21.290100 2.936190 61.870300 -10.212000 14.180000
-9.545130 2.598030 66.488500 -10.567200 18.440000
-9.606320 2.614680 66.914700 -10.567200 18.190000
21.938100 2.620110 70.293500 -10.300800 16.630000
21.659600 2.406350 70.838400 -10.300800 19.970000
22.395600 1.425200 76.941600 -10.389600 9.620000
22.270100 2.197290 80.543600 -10.389600 6.000000
22.852500 2.208620 80.828000 -10.389600 5.300000
21.983500 2.231270 81.961000 -10.389600 5.470000
22.095000 2.242600 82.377000 -10.389600 6.630000
22.206600 2.253930 82.793100 -10.389600 7.580000
-10.588500 -4.129650 85.427300 -10.478400 6.690000
-13.514400 -4.170940 85.885000 -10.478400 11.570000
22.965800 -4.527730 85.623400 -10.389600 9.250000
22.601200 2.344540 86.253500 -10.389600 8.490000
22.710300 2.355860 86.670200 -10.389600 6.760000
22.267000 1.933870 89.906900 -10.478400 7.630000
22.371900 1.655070 90.330500 -10.478400 11.370000
-26.645000 1.951860 89.607300 -10.123200 10.660000
-27.460800 1.960860 89.811300 -10.123200 7.040000
-27.586800 1.969850 90.223300 -10.123200 7.520000
-56.332900 -14.814200 99.215500 -9.146400 8.850000
-56.543900 -14.869700 99.587100 -9.146400 5.270000
-57.523600 -14.925200 99.518300 -9.057600 7.660000
19.581100 1.033460 119.921000 -10.567200 6.260000
19.650600 1.037130 120.347000 -10.567200 4.830000
19.719400 1.419250 120.768000 -10.567200 5.430000
-56.513600 -17.379600 114.471000 -9.324000 5.090000
-56.702600 -17.437800 114.854000 -9.324000 4.800000
-55.381800 -12.216200 119.036000 -9.590400 5.130000
-55.562800 -12.256100 119.425000 -9.590400 4.810000
-55.727500 -12.704700 119.779000 -9.501600 4.890000
22.282200 3.759060 155.211000 -10.656000 5.410000
22.343400 3.769390 155.638000 -10.567200 4.980000
-59.908300 -18.432500 153.600000 -9.768000 11.660000
-60.063900 -18.480300 153.999000 -9.768000 13.560000
-6.689650 2.550940 173.505000 -10.656000 11.370000
-6.706250 2.557270 173.936000 -10.656000 5.780000
-5.378760 2.563600 174.413000 -10.656000 6.880000
-4.424910 0.000000 176.614000 -10.656000 7.340000
-4.435710 0.000000 177.044000 -10.656000 8.780000
-4.446500 0.000000 177.475000 -10.656000 8.070000
5.043080 -0.249810 4.035070 -6.837600 3.950000
6.455750 -0.323741 4.286850 -5.416800 2.140000
6.455260 0.681066 6.908860 -7.992000 7.500000
6.728790 1.040220 7.201620 -8.080800 6.370000
6.179860 1.354050 8.719090 -8.880000 3.800000
6.356980 1.408210 9.117120 -8.880000 3.710000
6.398150 1.303450 10.145600 -9.235200 6.440000
6.626650 1.350000 10.508000 -9.235200 5.210000
-8.632330 1.038350 9.566200 -7.814400 5.500000
6.366180 0.928726 11.212300 -9.412800 4.390000
-8.824420 1.072960 9.970550 -7.903200 5.790000
7.019880 0.959683 11.324000 -9.324000 10.110000
-9.029490 1.107570 10.362100 -7.992000 4.940000
7.076470 0.618144 11.818300 -9.412800 12.260000
7.262200 1.536210 12.128500 -9.412800 11.460000
5.979100 -1.233240 13.318000 -9.856800 7.580000
7.482270 1.582760 12.496000 -9.412800 7.950000
6.150310 -1.397280 13.699400 -9.856800 12.060000
6.272940 2.460310 13.972500 -9.945600 12.510000
6.750100 2.528650 14.220800 -9.856800 11.680000
-8.052230 1.466620 14.181900 -9.146400 5.160000
4.877450 -0.291170 15.628200 -10.212000 9.030000
6.906440 -0.240535 14.844400 -9.856800 11.560000
-7.639030 1.466620 14.408600 -9.324000 6.190000
-8.930580 1.453440 14.161300 -8.968800 6.780000
5.893790 -0.298832 15.734800 -10.212000 6.140000
7.000000 -0.246865 15.275800 -9.945600 9.910000
-7.840050 1.505210 14.787800 -9.324000 10.810000
-9.492930 1.490710 14.308800 -8.791200 8.130000
6.010480 -1.862070 16.046400 -10.212000 6.530000
7.837320 -0.199894 15.349800 -9.768000 6.080000
14.305800 1.676740 10.957300 -6.926400 6.610000
5.810780 -1.908630 16.574400 -10.123200 9.750000
14.515800 1.716660 11.386700 -6.926400 6.570000
6.900200 -1.732460 16.640800 -10.034400 10.280000
14.853400 1.756580 11.651500 -6.926400 6.750000
7.070490 1.602510 17.051500 -10.034400 7.720000
7.367160 1.698190 17.387000 -9.945600 9.260000
-7.866550 1.698190 17.166800 -9.679200 6.520000
-8.279060 1.796500 17.441900 -9.590400 3.370000
6.818620 1.741050 19.449200 -10.212000 10.640000
-8.164800 1.230650 18.963600 -9.768000 11.770000
7.405390 0.310164 19.770400 -10.212000 4.360000
-7.922750 1.256280 19.530900 -9.856800 4.550000
7.400810 0.316494 20.231500 -10.212000 4.520000
7.548820 0.322824 20.636200 -10.212000 5.650000
7.697150 0.259862 21.041600 -10.212000 6.020000
6.937550 -2.256490 21.641100 -10.300800 11.650000
5.696330 -2.299070 22.443100 -10.478400 12.250000
6.849990 -2.161330 23.036500 -10.478400 9.060000
6.836650 -2.199930 23.487800 -10.478400 8.950000
5.186860 -1.458480 25.286300 -10.478400 6.440000
-7.550980 1.238890 24.695700 -10.212000 8.470000
7.486110 -1.015900 25.175800 -10.478400 8.490000
-7.678970 1.097120 25.114300 -10.212000 7.520000
7.607880 -1.115110 25.585400 -10.478400 6.640000
-7.952270 1.115110 25.480400 -10.123200 5.480000
2.951990 -9.136330 26.769600 -10.567200 8.160000
5.244950 -1.806900 28.332300 -10.567200 6.640000
5.747260 -0.873429 29.158300 -10.567200 9.950000
5.329380 -1.631390 30.081900 -10.567200 9.780000
18.371200 0.743550 24.989700 -8.880000 7.820000
6.631730 -1.845970 30.251500 -10.567200 8.520000
6.735050 0.462081 30.722700 -10.567200 7.350000
7.007720 0.271192 31.105800 -10.567200 8.580000
18.566900 2.025440 28.459900 -9.235200 6.080000
18.801900 2.051080 28.820100 -9.235200 5.800000
19.040400 1.968950 29.185600 -9.235200 7.990000
-7.011010 0.917427 34.179200 -10.478400 9.370000
19.272000 2.102350 29.540600 -9.235200 8.640000
-7.097560 0.928753 34.601100 -10.478400 8.220000
18.595100 1.382280 30.519200 -9.324000 6.880000
8.221710 1.287070 35.226000 -10.567200 6.550000
18.819200 1.398940 30.886900 -9.324000 12.260000
8.036880 2.066180 35.674100 -10.567200 12.870000
19.043200 1.415590 31.254700 -9.324000 4.570000
7.643880 2.090490 36.200200 -10.567200 9.120000
7.732760 2.114800 36.621100 -10.567200 9.840000
18.485700 1.912200 32.557600 -9.501600 11.460000
18.698100 1.934170 32.931800 -9.501600 13.570000
18.910600 1.956150 33.306000 -9.501600 11.400000
19.123100 1.978130 33.680300 -9.501600 4.630000
18.816900 1.899640 34.840600 -9.679200 10.140000
19.018500 2.044070 35.213900 -9.679200 11.220000
19.223000 2.066050 35.592600 -9.679200 6.150000
-26.876200 1.455620 30.842600 -7.903200 6.470000
-7.138970 0.981073 40.296200 -10.478400 6.840000
-26.857600 1.470940 31.427500 -7.992000 6.330000
-27.442000 1.486260 31.491900 -7.992000 12.260000
19.273700 1.873750 37.040900 -9.679200 5.330000
-27.724900 1.501590 31.816600 -7.992000 6.190000
19.472400 1.893070 37.422700 -9.679200 11.780000
19.671100 1.912380 37.804600 -9.679200 7.850000
19.071400 1.748670 40.991300 -9.856800 6.610000
19.253000 1.765330 41.381700 -9.856800 13.730000
19.434700 1.781980 41.772100 -9.856800 7.020000
19.725900 2.124870 43.046900 -9.856800 10.840000
-6.149620 2.439700 47.370100 -10.567200 7.100000
19.905200 2.144190 43.438300 -9.856800 8.260000
19.746100 2.163510 43.983100 -9.945600 7.990000
19.753100 2.202140 44.922100 -9.945600 10.030000
19.926400 2.221460 45.316200 -9.945600 5.380000
20.099600 2.240770 45.710200 -9.945600 10.290000
9.703350 1.239250 50.774300 -10.567200 17.250000
10.081800 0.765916 51.149200 -10.567200 15.160000
10.165800 0.447100 51.575600 -10.567200 14.670000
20.115700 2.356680 48.511800 -10.034400 14.840000
19.905600 2.212230 49.070800 -10.123200 5.420000
9.725480 -0.619670 52.535400 -10.567200 6.110000
20.067500 2.230220 49.469800 -10.123200 5.490000
20.229300 2.248200 49.868700 -10.123200 7.310000
20.185500 1.976580 51.753800 -10.123200 7.340000
20.203800 1.003770 52.698800 -10.212000 14.570000
20.356900 1.187310 53.097900 -10.212000 6.050000
20.511100 1.196300 53.500200 -10.212000 11.090000
20.665300 1.205300 53.902400 -10.212000 8.670000
20.119600 2.083830 55.000900 -10.212000 10.880000
20.267600 2.099150 55.405300 -10.212000 6.950000
20.415500 2.114480 55.809700 -10.212000 7.140000
20.563400 2.129800 56.214200 -10.212000 8.810000
20.381400 2.331560 56.730800 -10.212000 6.370000
20.524400 2.535970 57.128900 -10.212000 7.640000
20.670000 2.553960 57.534100 -10.212000 5.390000
20.815600 2.571940 57.939300 -10.212000 12.410000
-23.155900 -1.476770 57.083200 -9.856800 17.140000
20.966200 2.206410 58.358400 -10.300800 17.020000
-23.317800 -1.487100 57.482400 -9.856800 11.960000
21.109300 2.414830 58.756900 -10.300800 7.240000
21.257300 2.237060 59.169000 -10.212000 14.500000
21.402900 2.252380 59.574200 -10.212000 18.820000
20.692000 1.358210 61.673100 -10.300800 9.860000
21.092000 2.564720 62.865100 -10.300800 19.660000
-9.488310 1.600700 66.092700 -10.567200 17.090000
21.228900 2.581380 63.273300 -10.300800 10.350000
-9.933880 1.611030 66.462800 -10.567200 8.440000
21.365900 2.598030 63.681500 -10.300800 9.360000
-9.997560 1.621350 66.888800 -10.567200 7.620000
21.148700 2.000030 64.683200 -10.300800 11.770000
21.282600 2.012690 65.092600 -10.300800 11.290000
21.418300 1.812200 65.507600 -10.300800 6.640000
21.552100 1.823530 65.917000 -10.300800 8.440000
20.789500 1.834850 66.612900 -10.300800 6.370000
20.914000 2.280440 67.011900 -10.300800 7.550000
21.042300 2.294430 67.423000 -10.300800 7.410000
21.170600 2.308420 67.834200 -10.300800 11.070000
21.566200 1.655040 76.278200 -10.389600 8.210000
21.683400 1.664030 76.692800 -10.389600 5.430000
21.803900 0.929506 77.119000 -10.389600 6.420000
-16.277000 -0.939500 79.351500 -10.478400 6.460000
-16.363600 -0.944498 79.773600 -10.478400 4.410000
21.541100 1.478840 80.311900 -10.478400 6.350000
21.652700 1.486500 80.728000 -10.478400 6.470000
21.764400 1.494160 81.144100 -10.478400 10.020000
21.876000 1.501820 81.560200 -10.478400 8.820000
-11.741400 -3.863400 85.289000 -10.567200 6.820000
-11.800100 -3.882720 85.715400 -10.567200 5.880000
-19.004800 1.578450 86.692700 -10.478400 5.440000
-15.482300 1.578450 87.390500 -10.478400 4.510000
23.368400 1.924880 89.181700 -10.478400 11.780000
23.477600 1.933870 89.598400 -10.478400 5.440000
23.586800 1.942870 90.015200 -10.478400 5.300000
23.698600 1.373580 90.441900 -10.478400 8.800000
-26.646600 1.662730 89.612700 -10.212000 9.690000
23.105700 1.670390 91.034900 -10.478400 9.090000
-26.767800 1.960860 90.020300 -10.212000 10.810000
23.211700 1.678060 91.452500 -10.478400 10.810000
-26.890600 1.969850 90.433200 -10.212000 8.560000
23.318900 1.392570 91.874700 -10.478400 5.950000
22.992000 1.996840 92.834100 -10.478400 5.670000
23.095600 2.005830 93.252300 -10.478400 10.060000
22.473600 2.537080 93.834500 -10.478400 14.360000
-57.309800 -14.869700 99.148300 -9.146400 14.080000
18.888000 0.657662 120.035000 -10.656000 5.920000
18.955000 0.659994 120.461000 -10.656000 10.880000
19.021600 1.040790 120.884000 -10.656000 7.290000
-54.151800 -14.514200 114.084000 -9.501600 10.930000
-54.609300 -12.644900 115.048000 -9.501600 12.080000
-54.572600 -10.556600 119.092000 -9.590400 5.460000
-54.676800 -12.622200 119.319000 -9.590400 6.520000
-52.954200 -13.884600 120.427000 -9.590400 5.540000
-54.056300 -13.929900 120.407000 -9.590400 6.830000
22.287800 1.333970 155.250000 -10.656000 5.520000
22.348400 1.824030 155.672000 -10.656000 6.410000
-59.538300 -10.275000 152.651000 -9.856800 5.130000
-4.424440 2.595250 176.595000 -10.656000 5.350000
5.422210 -0.202534 4.253390 -6.837600 5.570000
5.717290 -0.215193 4.574520 -7.015200 7.420000
5.548660 -0.251827 5.413650 -7.636800 2.940000
5.991980 -0.395627 4.909000 -7.104000 6.070000
5.965930 -0.265818 5.600500 -7.548000 5.460000
6.029480 1.552120 8.791080 -9.057600 7.550000
6.200010 1.614200 9.190780 -9.146400 6.690000
6.457250 1.426670 9.572120 -9.146400 6.900000
6.703210 1.377620 9.936710 -9.057600 4.040000
7.021720 1.426820 10.237800 -9.057600 4.880000
6.535220 1.008460 11.107700 -9.501600 6.320000
6.748320 1.155300 11.469900 -9.501600 4.490000
6.960090 1.319970 11.829900 -9.501600 7.440000
6.653010 0.681392 12.548800 -9.679200 3.440000
7.112240 1.176800 12.754300 -9.590400 9.440000
5.773040 -0.536280 13.922500 -9.945600 9.660000
7.321420 1.211410 13.129400 -9.590400 5.100000
-7.937070 1.624350 13.731500 -9.146400 6.890000
-8.563360 1.624350 13.349900 -8.880000 5.480000
6.907170 0.037981 14.846000 -9.856800 10.390000
-8.807680 1.416170 13.730800 -8.880000 9.810000
5.093290 -2.009160 15.888100 -10.212000 4.760000
7.206160 0.038980 15.181600 -9.856800 4.060000
-8.274150 1.259180 14.572700 -9.235200 11.870000
5.223890 -2.060670 16.295500 -10.212000 10.180000
7.510720 0.039980 15.513500 -9.856800 12.030000
-8.486310 1.291460 14.946400 -9.235200 7.240000
5.606290 -1.214750 16.709700 -10.212000 9.410000
-8.580130 1.323750 15.386600 -9.235200 8.950000
14.169800 1.788170 11.115300 -7.104000 8.400000
5.733510 -1.621000 17.088900 -10.212000 4.000000
14.507200 1.830740 11.380000 -7.104000 8.470000
6.829860 -1.887760 17.120200 -10.123200 6.150000
14.839900 1.931660 11.641000 -7.104000 5.450000
6.751780 -1.931660 17.611000 -10.123200 8.060000
-8.661770 1.393090 17.292300 -9.501600 7.880000
-8.458000 1.958470 17.818900 -9.679200 7.050000
-9.000700 1.056960 17.628300 -9.501600 9.300000
-8.674390 0.970467 18.274800 -9.590400 8.240000
-7.374350 1.852570 19.234900 -9.856800 5.330000
7.405390 0.310164 19.770400 -10.212000 5.890000
-7.527980 1.891160 19.635600 -9.856800 6.780000
7.556520 0.316494 20.173900 -10.212000 4.360000
7.707960 0.254864 20.578200 -10.212000 5.250000
17.305100 1.264020 14.177400 -7.104000 5.820000
7.859100 0.259862 20.981700 -10.212000 6.030000
17.634800 1.358840 14.447500 -7.104000 6.990000
17.967500 1.384480 14.720100 -7.104000 10.430000
-8.118870 1.025180 23.157900 -10.123200 7.500000
17.648000 1.434170 18.243500 -7.992000 5.460000
6.573240 -1.591150 24.507000 -10.478400 8.390000
17.947200 1.458480 18.552700 -7.992000 5.170000
6.536390 -1.857450 24.945000 -10.478400 7.800000
18.246300 1.482790 18.861900 -7.992000 5.900000
6.618030 1.640860 26.721400 -10.389600 6.220000
6.820400 1.041920 28.477300 -10.567200 4.860000
6.922090 -0.873429 28.901900 -10.567200 9.570000
7.248180 -0.886088 29.265800 -10.567200 9.750000
8.669250 -0.551690 29.783900 -10.478400 5.420000
6.912180 -0.559352 30.681800 -10.478400 8.840000
6.827310 -0.468411 31.143600 -10.567200 6.110000
18.000100 1.995680 26.244400 -9.057600 4.450000
7.102570 -0.174910 31.526900 -10.567200 5.750000
18.246800 1.922880 26.604100 -9.057600 5.590000
18.490100 1.948520 26.958800 -9.057600 6.310000
18.736700 1.871720 27.318500 -9.057600 6.510000
7.859770 0.414779 34.887900 -10.567200 7.990000
18.349200 1.824280 30.644600 -9.412800 7.690000
18.573100 1.734450 31.018600 -9.412800 5.520000
18.794200 1.755100 31.387900 -9.412800 10.560000
19.259500 1.775750 31.609600 -9.412800 10.430000
7.744820 -0.318834 36.678200 -10.567200 7.820000
18.720000 2.461970 32.386300 -9.501600 13.340000
18.682100 2.490270 32.903500 -9.501600 8.700000
19.154100 2.400210 33.137400 -9.501600 7.100000
19.224700 1.920290 35.108800 -9.590400 14.200000
19.428400 2.066050 35.480900 -9.590400 7.620000
-6.595680 0.727924 40.394100 -10.567200 7.750000
-26.857600 1.470940 31.427500 -7.992000 4.860000
-27.137300 1.486260 31.754900 -7.992000 4.910000
-27.417100 1.501590 32.082200 -7.992000 5.670000
-27.702400 1.253180 32.416100 -7.992000 8.220000
18.937600 2.320720 39.115800 -9.856800 8.710000
19.121900 2.479420 39.496400 -9.856800 6.860000
19.312600 2.366670 39.890400 -9.856800 10.880000
19.071400 1.748670 40.991300 -9.945600 5.950000
19.255200 1.624160 41.386500 -9.945600 9.580000
19.436900 1.639490 41.776900 -9.945600 9.580000
19.942900 1.654810 42.014900 -9.945600 8.760000
23.799400 -1.815290 40.451100 -9.501600 6.700000
19.725900 2.124870 43.046900 -9.945600 11.070000
19.905200 2.144190 43.438300 -9.945600 14.050000
20.084500 2.163510 43.829600 -9.945600 12.480000
-25.735900 -1.156630 40.809700 -8.968800 8.330000
-25.965700 -1.166960 41.174100 -8.968800 5.890000
19.411300 1.898560 45.084700 -10.034400 5.730000
-26.195400 -1.177290 41.538500 -8.968800 6.660000
19.579100 2.068350 45.474500 -10.034400 9.010000
19.749400 2.086330 45.869900 -10.034400 9.180000
19.819800 2.122300 46.776100 -10.123200 18.140000
8.942500 -1.228920 50.476400 -10.656000 11.080000
19.987800 2.140290 47.172500 -10.123200 6.740000
9.999410 0.279856 50.731200 -10.567200 12.560000
20.155800 2.158270 47.568900 -10.123200 5.890000
10.082200 0.604678 51.151200 -10.567200 13.190000
20.323700 2.176260 47.965300 -10.123200 7.340000
10.164600 0.934808 51.569300 -10.567200 9.000000
10.247900 0.942470 51.992000 -10.567200 8.930000
19.900100 2.539730 49.057200 -10.123200 8.440000
7.898320 -0.289185 52.843800 -10.656000 6.750000
20.064800 2.395310 49.463100 -10.123200 11.480000
20.226600 2.414630 49.862000 -10.123200 9.220000
20.508100 1.003770 52.581100 -10.212000 7.260000
19.948200 1.011430 53.256400 -10.212000 15.120000
20.821200 1.019090 53.383900 -10.212000 14.780000
20.667600 0.848204 53.908300 -10.212000 17.510000
20.117300 2.264950 54.994600 -10.212000 9.290000
20.265200 2.281600 55.399000 -10.212000 16.030000
20.413200 2.298260 55.803300 -10.212000 11.510000
20.561100 2.314910 56.207700 -10.212000 12.950000
20.529400 2.160440 57.142600 -10.212000 5.290000
20.675000 2.175770 57.547900 -10.300800 14.370000
20.820600 2.191090 57.953200 -10.300800 11.120000
19.861600 2.221730 59.197900 -10.212000 8.430000
20.457400 2.237060 59.450300 -10.300800 6.670000
20.597500 2.252380 59.857500 -10.300800 6.950000
20.739800 2.070580 60.271000 -10.300800 5.750000
-4.570550 2.283020 64.000500 -10.656000 12.790000
20.411600 2.084570 60.837400 -10.300800 17.410000
-4.601220 2.298340 64.430000 -10.656000 17.340000
20.548600 2.098560 61.245700 -10.300800 5.360000
20.685600 2.112550 61.654000 -10.300800 12.740000
20.822600 2.126540 62.062300 -10.300800 14.070000
-9.867830 2.168510 66.020900 -10.567200 18.410000
20.740600 2.581380 63.435000 -10.300800 18.230000
-9.930450 2.390280 66.439900 -10.567200 13.600000
20.874400 2.598030 63.844300 -10.300800 11.650000
-9.994110 2.405600 66.865800 -10.567200 6.400000
20.776300 1.789550 64.810000 -10.389600 13.780000
20.907800 1.800880 65.220100 -10.389600 7.250000
21.039300 1.812200 65.630300 -10.389600 11.500000
21.168900 2.038000 66.034800 -10.389600 8.530000
22.155900 1.164700 76.118100 -10.478400 7.100000
22.276300 1.171030 76.531800 -10.478400 7.590000
22.396700 1.177360 76.945500 -10.478400 8.650000
21.588800 0.000000 78.079500 -10.478400 15.670000
21.703600 0.000000 78.494900 -10.478400 12.860000
21.818500 0.000000 78.910200 -10.478400 8.400000
22.161500 0.964487 80.150700 -10.478400 7.440000
22.274300 1.486500 80.558700 -10.478400 8.360000
22.389100 1.494160 80.973900 -10.478400 7.140000
-9.967200 -5.955260 85.829100 -10.567200 7.980000
-9.082470 -2.096400 86.974600 -10.478400 5.910000
-14.893500 -3.687050 86.991800 -10.478400 5.520000
23.369800 1.639740 89.187000 -10.478400 5.790000
23.479000 1.647410 89.603800 -10.478400 6.300000
23.588200 1.655070 90.020600 -10.478400 10.660000
23.697400 1.662730 90.437300 -10.478400 10.960000
23.104300 1.960860 91.029400 -10.478400 6.620000
23.208700 2.261630 91.440600 -10.478400 4.920000
23.313300 2.491780 91.852800 -10.478400 8.800000
19.581600 0.657662 119.924000 -10.656000 7.430000
19.650600 1.037130 120.347000 -10.656000 6.520000
19.720000 1.040790 120.772000 -10.656000 10.180000
-55.324200 -12.209700 114.273000 -9.412800 14.400000
-55.511200 -12.251000 114.659000 -9.412800 13.780000
-55.681200 -12.687500 115.010000 -9.412800 8.850000
-55.868100 -12.730000 115.396000 -9.412800 10.130000
22.286200 2.304080 155.239000 -10.656000 12.760000
22.347500 2.310410 155.666000 -10.656000 11.100000
-4.424750 1.502550 176.607000 -10.744800 8.330000
-4.435540 1.506210 177.038000 -10.744800 7.980000
-4.446340 1.509880 177.469000 -10.744800 4.780000
5.194460 -0.431498 4.512670 -7.370400 1.380000
5.655360 -0.458466 4.633220 -7.104000 3.390000
5.988030 -0.485435 4.905760 -7.192800 2.760000
5.848520 -0.371668 5.080880 -7.370400 4.140000
5.797980 -0.392316 5.766980 -7.636800 2.740000
6.121480 -0.392316 5.422380 -7.459200 2.760000
6.185380 1.118030 11.295900 -9.590400 8.130000
6.396040 1.042080 11.680700 -9.590400 4.800000
6.691730 1.160700 12.000200 -9.590400 4.860000
6.633890 1.273640 12.512800 -9.768000 6.620000
7.293320 0.802165 12.180500 -9.501600 6.000000
6.635390 1.312240 12.995800 -9.768000 6.280000
6.171490 -0.629496 13.746600 -9.945600 6.670000
6.847190 -0.850781 13.410600 -9.679200 9.500000
6.754620 -0.599545 13.951700 -9.856800 8.860000
7.757150 -0.599545 13.420200 -9.590400 10.430000
6.527020 -0.468361 14.538500 -10.034400 8.500000
7.052560 -0.616199 14.285300 -9.768000 10.180000
-8.244230 1.771430 13.530800 -9.057600 12.290000
6.821240 -0.037981 14.885700 -10.034400 6.870000
-7.745390 1.567460 14.341100 -9.324000 9.890000
-8.680240 1.819310 13.764400 -9.057600 5.740000
5.006600 0.000000 16.042000 -10.212000 7.810000
-8.935210 1.349860 14.168700 -8.968800 5.680000
7.250280 -1.291460 15.583500 -9.856800 7.330000
-9.164310 1.384470 14.532000 -8.968800 7.000000
7.431540 -1.323750 15.973100 -9.856800 6.740000
-9.299060 0.791998 15.000700 -9.057600 6.330000
5.596720 -1.788170 17.117500 -10.300800 4.640000
14.498000 1.944750 11.372800 -7.015200 6.860000
5.729980 -1.830740 17.525100 -10.300800 4.780000
-8.369500 1.420610 16.952900 -9.501600 6.590000
-8.659800 1.452900 17.288400 -9.501600 7.770000
-9.046740 1.455000 18.060900 -9.501600 9.400000
7.406080 0.114275 19.772300 -10.300800 3.150000
7.557060 0.183238 20.175300 -10.300800 11.550000
7.549130 0.254864 20.637000 -10.300800 16.910000
17.279900 1.748000 14.156800 -7.104000 17.880000
5.970970 0.259862 21.595000 -10.478400 5.200000
7.697150 0.259862 21.041600 -10.300800 12.330000
17.612200 1.781610 14.429000 -7.104000 14.240000
17.944500 1.815230 14.701200 -7.104000 10.600000
17.557100 1.410110 15.856500 -7.636800 5.750000
4.653340 -1.808050 23.608300 -10.567200 6.870000
17.872900 1.510240 16.141700 -7.636800 7.500000
4.736440 -1.840340 24.029900 -10.567200 8.040000
18.195500 1.461390 16.433100 -7.636800 6.050000
5.021780 -0.212556 24.481600 -10.478400 7.270000
-8.760960 0.888693 23.389400 -10.034400 9.490000
6.566080 -1.983300 24.480300 -10.478400 8.600000
-8.728370 0.904015 23.860700 -10.034400 6.810000
6.883120 -1.159020 24.893900 -10.478400 7.610000
-8.020400 1.538310 24.530300 -10.212000 7.220000
8.017990 -1.015900 25.011500 -10.478400 8.950000
7.955010 -0.867406 25.489200 -10.478400 8.580000
4.915790 -2.765780 26.554300 -10.567200 8.960000
6.877360 -0.881396 26.246300 -10.389600 8.720000
4.782640 -2.979320 26.995800 -10.567200 5.690000
5.055930 -3.606450 27.311300 -10.567200 6.100000
4.919830 -3.661930 27.770200 -10.567200 9.830000
7.582100 1.404080 28.268400 -10.478400 9.410000
7.693600 1.424730 28.684100 -10.478400 6.920000
7.802960 1.608420 29.091800 -10.567200 4.860000
5.553340 -2.292350 29.998200 -10.656000 9.250000
18.274800 1.914770 24.461200 -8.880000 7.850000
7.031820 -2.324630 30.127900 -10.567200 5.460000
18.532200 1.941740 24.805700 -8.880000 3.920000
6.734310 -0.656618 30.719400 -10.567200 7.860000
18.789600 1.968710 25.150300 -8.880000 9.950000
6.826560 -0.665613 31.140200 -10.567200 9.660000
18.208500 1.798790 26.114500 -9.057600 12.730000
7.949930 -0.374801 31.322200 -10.567200 7.700000
18.246800 1.922880 26.604100 -9.057600 17.590000
8.055930 -0.379798 31.739800 -10.567200 7.820000
18.490100 1.948520 26.958800 -9.057600 17.750000
8.161930 -0.384795 32.157400 -10.567200 8.640000
18.733400 1.974160 27.313500 -9.057600 13.460000
18.335200 1.896030 28.104700 -9.235200 6.910000
18.350300 1.920330 28.607300 -9.235200 9.700000
18.579300 2.051080 28.964200 -9.235200 12.730000
18.811500 2.076710 29.326200 -9.235200 13.780000
19.043700 2.102350 29.688300 -9.235200 10.350000
8.125470 1.050650 34.813600 -10.567200 5.120000
18.572500 2.238400 30.482200 -9.324000 5.040000
18.796300 2.265360 30.849400 -9.324000 14.970000
19.012300 2.518390 31.204000 -9.324000 4.300000
-7.615510 1.231160 37.126200 -10.478400 12.770000
18.752100 1.796480 35.369900 -9.679200 11.310000
18.953700 1.815800 35.750300 -9.679200 10.590000
-6.593240 1.329090 40.379200 -10.567200 5.930000
-26.876200 1.455620 30.842600 -7.992000 10.070000
9.939410 1.343080 40.132100 -10.567200 5.910000
-27.159100 1.470940 31.167300 -7.992000 5.760000
10.281900 0.484742 40.510000 -10.567200 7.080000
-27.444900 1.357070 31.495300 -7.992000 8.140000
-27.727800 1.371060 31.820000 -7.992000 9.060000
19.050400 2.197930 38.587600 -9.856800 6.870000
19.240900 2.219910 38.973400 -9.856800 8.230000
19.431400 2.241880 39.359300 -9.856800 8.770000
19.621900 2.263860 39.745200 -9.856800 8.010000
19.505500 2.147420 40.288700 -9.856800 9.890000
19.069000 1.888490 40.986200 -9.945600 6.030000
19.250600 1.906470 41.376600 -9.945600 14.960000
19.432200 1.924460 41.766900 -9.945600 4.900000
19.613800 1.942450 42.157300 -9.945600 15.730000
19.582400 2.032370 44.534000 -10.034400 6.570000
19.755700 2.050360 44.928100 -10.034400 15.120000
19.929000 2.068350 45.322200 -10.034400 17.740000
20.102300 2.086330 45.716300 -10.034400 16.100000
-6.199590 1.208270 50.018100 -10.656000 19.580000
20.278200 1.948520 46.116200 -10.034400 14.170000
-6.252570 1.218600 50.445600 -10.656000 5.660000
19.458700 2.122300 46.927500 -10.034400 7.680000
9.915160 0.753256 50.303700 -10.656000 5.920000
19.985100 2.298720 47.166200 -10.034400 15.670000
9.998480 0.759586 50.726400 -10.656000 12.500000
20.155800 2.158270 47.568900 -10.034400 17.830000
9.785470 0.927146 51.204000 -10.656000 14.500000
20.323700 2.176260 47.965300 -10.034400 6.060000
9.865750 1.097360 51.624100 -10.656000 15.500000
8.715390 -11.904400 50.905800 -10.656000 13.480000
19.905600 2.212230 49.070800 -10.123200 8.760000
20.064800 2.395310 49.463100 -10.123200 8.030000
20.031100 1.790770 51.358000 -10.123200 15.370000
20.204900 0.829214 52.701400 -10.212000 9.500000
20.358100 1.011430 53.101100 -10.212000 8.510000
20.512300 1.019090 53.503400 -10.212000 9.850000
20.667600 0.848204 53.908300 -10.212000 9.620000
20.689000 2.464030 55.234200 -10.212000 6.480000
20.840100 2.482010 55.637400 -10.212000 7.800000
20.527000 2.348220 57.136100 -10.300800 16.090000
20.675000 2.175770 57.547900 -10.300800 16.050000
17.099200 0.709623 58.745700 -9.235200 6.690000
20.820600 2.191090 57.953200 -10.300800 11.470000
17.219700 0.714620 59.159400 -9.235200 6.280000
20.187700 0.911503 58.666700 -9.235200 6.490000
20.660400 2.028610 58.930900 -10.300800 9.340000
20.324300 1.497430 59.063500 -9.235200 4.760000
21.087800 2.070580 60.150100 -10.300800 6.460000
-4.570020 2.481450 63.993200 -10.656000 5.920000
21.230300 2.084570 60.556500 -10.300800 10.970000
21.023900 1.698940 61.096600 -10.300800 8.150000
21.164000 1.710270 61.503900 -10.300800 10.760000
21.305400 1.569720 61.914800 -10.300800 10.290000
21.094400 2.359630 62.872300 -10.300800 16.200000
21.231400 2.374960 63.280500 -10.300800 13.830000
-9.932450 1.974710 66.453200 -10.567200 7.520000
20.876800 2.390280 63.851600 -10.300800 6.590000
-9.996120 1.987370 66.879200 -10.567200 6.780000
-20.017500 -0.814567 67.318900 -10.212000 10.760000
21.124900 1.655040 76.401600 -10.478400 10.920000
21.242000 1.171030 76.825300 -10.478400 12.020000
21.357700 0.929506 77.243700 -10.478400 8.800000
21.700200 1.448190 78.482400 -10.478400 7.210000
21.815000 1.455850 78.897700 -10.478400 6.850000
-17.082500 -0.204895 86.666800 -10.478400 8.110000
21.854100 1.616760 88.239500 -10.567200 9.900000
22.470900 1.341930 88.533800 -10.478400 10.210000
22.163500 1.924880 89.488800 -10.567200 6.950000
22.267000 1.933870 89.906900 -10.567200 6.880000
22.370600 1.942870 90.325100 -10.567200 6.860000
22.580200 1.379910 91.171500 -10.478400 8.050000
22.683800 1.386240 91.589700 -10.478400 11.740000
22.787400 1.392570 92.007900 -10.567200 12.490000
22.177900 1.398900 92.599800 -10.567200 9.330000
22.274300 2.292610 93.002100 -10.567200 10.640000
22.373300 2.525760 93.415600 -10.567200 12.910000
19.581600 0.657662 119.924000 -10.656000 6.480000
19.650600 1.037130 120.347000 -10.656000 11.630000
19.719400 1.419250 120.768000 -10.656000 13.980000
22.222600 3.265100 154.796000 -10.656000 5.590000
22.283800 3.274090 155.222000 -10.656000 6.880000
22.346300 2.796760 155.658000 -10.656000 5.220000
-59.813400 -11.856700 153.357000 -9.856800 4.260000
-59.955900 -12.398000 153.722000 -9.856800 8.610000
-4.414060 0.953843 176.180000 -10.744800 7.010000
-4.424850 0.956175 176.611000 -10.744800 5.880000
-4.435640 0.958507 177.042000 -10.744800 6.370000
-4.446340 1.509880 177.469000 -10.744800 5.720000
-2.527510 1.180820 9.958220 2.575200 2.760000
-2.572120 1.254840 10.385400 2.575200 3.460000
-2.674030 1.339440 10.796800 2.575200 6.320000
-2.230260 1.533740 11.315100 2.575200 10.910000
-2.307830 1.775290 11.708600 2.575200 10.150000
-2.904260 0.820657 12.126200 2.575200 7.810000
6.667450 1.704150 10.943000 -9.501600 10.290000
-3.101000 0.848956 12.520800 2.575200 7.420000
6.976650 1.760960 11.254300 -9.501600 2.780000
-3.200920 1.072960 12.924300 2.575200 8.080000
6.251970 1.656390 12.663700 -9.856800 8.830000
5.991860 -0.781231 13.346400 -10.123200 7.280000
6.516740 1.706580 13.010000 -9.856800 6.450000
5.768470 -0.804209 13.911500 -10.212000 4.860000
6.168840 -0.769274 13.740600 -10.034400 4.570000
6.914040 1.756770 13.287600 -9.768000 10.390000
-8.480350 1.629320 12.364500 -8.791200 9.360000
5.822830 -0.827186 14.354300 -10.212000 5.950000
7.151010 -0.791253 13.743100 -9.856800 3.710000
-8.525580 1.675870 12.850700 -8.880000 12.170000
5.985300 -0.813233 14.754800 -10.212000 7.910000
6.836380 -0.135596 14.402600 -9.945600 5.010000
-8.353880 1.673390 13.476000 -9.057600 10.690000
5.532100 -0.632853 15.398400 -10.389600 10.230000
-8.472740 1.718620 13.905900 -9.057600 5.260000
5.768940 -0.649507 15.770500 -10.389600 8.600000
-8.151700 1.505210 14.618300 -9.324000 8.300000
-8.598430 1.505210 14.360100 -9.146400 7.960000
5.003630 -2.060670 16.364500 -10.389600 5.940000
-8.590830 1.543810 14.862500 -9.235200 6.200000
5.456340 -1.962940 16.688200 -10.300800 8.300000
-8.814200 1.378230 15.248900 -9.235200 9.270000
6.760860 -2.010810 16.666700 -10.212000 6.390000
14.057600 1.843850 11.247800 -7.192800 9.290000
6.932970 1.773710 17.091000 -10.212000 8.610000
-8.262550 1.716660 16.495300 -9.590400 4.340000
14.392400 1.887760 11.515600 -7.192800 2.670000
7.228780 1.814960 17.433200 -10.212000 7.870000
-8.356990 1.756580 16.927500 -9.590400 3.760000
6.385770 1.856210 18.214500 -10.300800 5.090000
-7.798320 0.809352 17.734800 -9.768000 5.430000
-8.546930 1.796500 17.312300 -9.590400 3.010000
6.529580 1.836430 18.624700 -10.389600 3.490000
-8.111100 0.827338 18.066900 -9.768000 6.400000
-8.839010 1.836430 17.646200 -9.590400 7.250000
6.671530 1.876350 19.029600 -10.389600 4.850000
-8.258990 1.876350 18.396300 -9.768000 8.440000
6.729720 0.175908 19.557000 -10.389600 8.790000
-7.624030 2.107260 19.110900 -9.945600 5.290000
-8.574160 2.043620 18.711000 -9.768000 8.570000
7.405920 0.179573 19.771800 -10.300800 5.810000
-7.367650 2.151160 19.669700 -10.034400 7.990000
7.401110 0.249867 20.232400 -10.389600 6.600000
-7.537800 1.547880 20.123900 -10.034400 9.510000
7.549130 0.254864 20.637000 -10.389600 6.080000
7.549130 0.254864 20.637000 -10.300800 15.880000
7.697150 0.259862 21.041600 -10.300800 16.930000
4.970840 1.599920 22.675100 -10.656000 7.970000
4.884740 1.629550 23.133300 -10.656000 5.660000
7.529810 -1.135650 22.442800 -10.478400 6.620000
5.161970 -1.081750 23.547000 -10.656000 6.930000
17.869400 1.584720 16.138500 -7.725600 7.180000
5.254150 -1.101070 23.967500 -10.656000 6.950000
-7.487160 1.309710 23.355600 -10.300800 4.580000
-8.425830 1.309710 23.033600 -10.123200 7.720000
17.997300 1.613020 16.635900 -7.725600 5.530000
6.653680 -1.120390 24.064100 -10.567200 9.430000
-7.755760 1.332690 23.720900 -10.212000 5.710000
7.755110 -0.982588 24.191500 -10.478400 8.080000
-8.075220 1.355670 24.068400 -10.212000 6.220000
7.696700 -0.999242 24.661500 -10.478400 9.900000
6.117600 -1.015900 25.542900 -10.656000 9.760000
7.824980 -1.015900 25.072600 -10.478400 7.550000
7.263010 -1.032550 25.688800 -10.656000 11.210000
7.383120 -0.713554 26.113700 -10.567200 5.690000
5.165430 -1.811110 27.028900 -10.744800 7.030000
7.704550 -0.724881 26.469600 -10.567200 9.530000
6.568840 -3.661930 27.427000 -10.656000 6.130000
18.174700 1.539480 22.378700 -8.702400 7.570000
18.446000 1.562460 22.712700 -8.702400 4.540000
7.635230 -3.919550 28.466400 -10.567200 5.240000
18.717200 1.585440 23.046700 -8.702400 7.270000
7.401260 -2.167030 29.160500 -10.656000 4.130000
18.002100 2.260060 24.096100 -8.968800 6.730000
5.905920 -1.820330 29.963200 -10.656000 8.840000
18.267400 2.103600 24.451300 -8.968800 9.260000
18.528500 2.037490 24.800800 -8.968800 8.930000
6.320730 -0.072963 30.814000 -10.744800 10.180000
18.785900 2.065790 25.145300 -8.968800 4.550000
6.407310 -0.073962 31.236100 -10.744800 6.410000
6.493900 -0.074962 31.658200 -10.744800 6.920000
18.343500 2.130520 28.596700 -9.412800 8.410000
18.575700 2.157490 28.958700 -9.324000 5.600000
-8.127100 0.836494 33.933200 -10.567200 6.770000
18.807900 2.184460 29.320700 -9.324000 9.710000
-7.097970 0.846821 34.603200 -10.567200 8.660000
19.040100 2.211430 29.682700 -9.412800 7.790000
-7.386880 0.857148 34.983000 -10.656000 6.760000
9.166660 1.510790 34.983000 -10.656000 9.250000
7.566540 -0.424774 35.833900 -10.656000 12.740000
7.655560 -0.429771 36.255500 -10.656000 5.680000
-13.929200 1.126600 35.713300 -13.764000 6.190000
-14.085700 1.139260 36.114600 -13.764000 5.040000
19.016200 2.136900 35.209700 -9.768000 6.800000
19.220700 2.159870 35.588200 -9.768000 10.400000
-26.577800 1.455620 31.100100 -8.080800 5.580000
18.786300 2.110010 36.794000 -9.856800 9.650000
-27.159100 1.470940 31.167300 -8.080800 6.310000
-27.442000 1.486260 31.491900 -8.080800 9.100000
19.177700 2.153970 37.560600 -9.856800 4.910000
-27.721700 1.632100 31.813000 -8.080800 8.090000
19.367800 2.406500 37.932800 -9.856800 9.030000
19.858100 2.430800 38.164000 -9.856800 9.620000
19.240900 2.219910 38.973400 -9.945600 6.390000
19.431400 2.241880 39.359300 -9.945600 10.430000
19.621900 2.263860 39.745200 -9.945600 13.350000
19.815400 2.147420 40.137200 -9.945600 17.700000
19.693000 2.168060 40.676100 -9.945600 15.720000
19.877600 2.329800 41.057200 -10.034400 19.620000
20.065100 2.351780 41.444600 -10.034400 17.110000
19.731000 1.831940 43.058100 -10.034400 11.950000
19.907900 1.996400 43.444100 -10.034400 6.650000
20.084500 2.163510 43.829600 -10.034400 10.960000
19.238600 2.032370 44.683600 -10.123200 5.780000
19.755700 2.050360 44.928100 -10.123200 7.240000
19.929000 2.068350 45.322200 -10.123200 7.130000
-11.530200 2.221460 48.142200 -12.698400 7.500000
20.102300 2.086330 45.716300 -10.123200 9.860000
-13.309100 2.086330 48.134800 -12.609600 9.290000
20.275600 2.104320 46.110400 -10.123200 10.700000
19.461200 1.965180 46.933300 -10.212000 11.710000
10.303000 0.594684 50.227800 -10.744800 8.330000
19.990300 1.981830 47.178400 -10.212000 6.390000
9.998880 0.599681 50.728500 -10.744800 7.200000
20.155800 2.158270 47.568900 -10.212000 6.840000
10.082200 0.604678 51.151200 -10.744800 7.310000
