VERSION .7
FIELDS x y z velocity SNR
SIZE 4 4 4 4 4
TYPE F F F F F
COUNT 1 1 1 1 1
WIDTH 192
HEIGHT 1
VIEWPOINT 0 0 0 1 0 0 0
POINTS 192
DATA ascii
-0.558658117866639 8.98556530314242 -1.34146104671758 4.48672651146009 10.9462341244619
0.949126364971756 8.68854654465492 2.54171566746489 4.48672651146009 10.9462341244619
1.64796175206849 8.69769453348606 2.11809638955408 4.48672651146009 10.9462341244619
5.25430325335082 7.34630420472252 1.12965140776217 4.48672651146009 10.9462341244619
-0.486973449816577 8.95556851828842 1.55327068567299 4.64144121875182 8.88582226581786
1.64144965543601 8.66332466585367 2.25930281552435 4.64144121875182 8.88582226581786
5.25927751272759 7.35325896557528 1.05904819477704 4.64144121875182 8.88582226581786
5.44451707101893 7.02147707998972 1.9768899635838 4.64144121875182 8.88582226581786
5.9063974708023 6.18998142764354 3.10654137134598 4.64144121875182 8.88582226581786
5.08658752599372 7.86699058269841 0.949491484972516 4.02258238958491 5.57777936122954
5.72296817395844 7.23228501426854 1.89898296994503 4.17729709687663 5.06763933068332
6.02793053273497 7.01824884559104 1.75290735687234 4.33201180416836 6.62414447189465
5.59736406611105 7.36622555163276 1.75290735687234 4.48672651146009 22.2400607680147
5.6347413612411 7.41541470266634 1.3877183241906 4.64144121875182 25.7586980938584
5.58344130141521 7.05596075757008 2.7754366483812 4.79615592604354 9.04978636992075
5.28306800612913 8.17087016385383 -0 4.02258238958491 7.14059826283713
6.00208641833099 7.58501503733072 1.05661360122583 4.02258238958491 7.14059826283713
-0.829971600037661 9.69194558313748 -0.226417200262678 4.33201180416836 6.53386740419587
0.226246855509353 9.720099643159 0.377362000437795 4.33201180416836 6.53386740419587
2.25591536347663 9.4284434876919 0.830196400963149 4.33201180416836 6.53386740419587
5.7986470270341 7.47817789239676 2.26417200262677 4.48672651146009 12.9763835162718
5.84914402486144 7.54330093420707 1.88681000218897 4.64144121875182 25.570235940955
5.556401419838 7.61364176215221 -2.41511680280189 4.79615592604354 11.5197205792174
6.27314838561045 7.76778124826341 1.09069791094279 4.02258238958491 8.94596664929192
-0.152612484638891 9.83636954280048 2.02558183460803 4.17729709687663 11.1750564994566
5.84185374390243 8.00478192129206 1.63604686641418 4.48672651146009 10.2980290989475
5.80334070369941 8.11394092753135 -1.16860490458156 4.64144121875182 12.6055524037548
6.03782609017955 7.7866332224073 1.94767484096926 4.64144121875182 12.6055524037548
7.945198677277 6.62762610540081 0.482049523139893 -4.48672651146009 5.81131919516926
6.30945132765681 8.13693249678103 1.12478222065975 4.02258238958491 5.94594710287205
5.89931427341733 8.41603537176286 -1.28546539503971 4.17729709687663 6.90555258750207
6.21819612603449 8.18325101738172 1.28546539503971 4.17729709687663 6.90555258750207
6.43660840111002 7.97018705236505 1.52649015660966 4.17729709687663 6.90555258750207
6.88886893214596 7.37556806565998 2.32990602850948 4.17729709687663 6.90555258750207
6.65550085033569 7.91044781715128 -0.642732697519858 4.33201180416836 5.87729631898645
6.07483881675821 8.32402899266448 1.04444063346977 4.48672651146009 5.09053665264615
6.19244926617242 7.51273037577448 3.53502983635921 4.48672651146009 5.09053665264615
6.42888453102797 7.96062290219685 1.60683174379964 4.79615592604354 7.31772693702634
5.65040039335293 10.0882594252322 -1.08095953673794 2.63015002395936 5.08774338653922
6.93427885192756 9.31188614431904 0.270239884184486 2.63015002395936 5.08774338653922
5.75661318913746 10.066393364751 -0.630559729763799 2.78486473125109 5.4554858396654
-8.96544428323616 12.0394922358111 -1.28546539503971 2.01129119479245 5.51825681194642
-8.97630498778243 12.0540768301635 -1.0517444141234 2.16600590208418 5.51782244039469
-9.49377225258325 12.4939644665546 0.243459355121157 2.32072060937591 5.05914821872912
-12.2562537531087 12.031838912109 -1.74073438911628 2.63015002395936 12.358919689965
-12.2562537531087 12.031838912109 -1.74073438911628 2.78486473125109 43.6386803651911
-8.11258669204646 15.1050576099492 -2.00853967974955 2.78486473125109 43.6386803651911
-12.2461924503044 12.0219618340861 -1.87463703443292 2.93957943854282 18.9800927422787
-8.1197580377018 15.1184101439038 -1.87463703443292 2.93957943854282 18.9800927422787
-1.08117392945684 17.3898107563321 -2.31773306075342 2.63015002395936 56.0879756540814
-1.08226568160973 17.4073707092817 -2.18139582188558 2.78486473125109 219.043177172079
-1.08226568160973 17.4073707092817 -2.18139582188558 2.93957943854282 81.5287132578161
-1.10048060676857 17.7003430912666 -2.35912115112402 2.63015002395936 78.9284985806184
-1.10159185449562 17.7182166148046 -2.22034931870496 2.78486473125109 331.947114756911
-1.10159185449562 17.7182166148046 -2.22034931870496 2.93957943854282 116.671003298868
-1.68137704107226 17.9854531172207 -2.25930281552435 2.63015002395936 21.672089374954
-0.977651706266617 17.9792693950565 -2.68292209343516 2.63015002395936 21.672089374954
-1.68296880407283 18.0024799815831 -2.11809638955408 2.78486473125109 88.1737774796069
-0.97876341660961 17.9997140376811 -2.54171566746489 2.78486473125109 88.1737774796069
-0.979813873570258 18.019032214658 -2.40050924149462 2.93957943854282 25.915572261801
4.49406106710767 16.9721582299618 -5.88928180038081 0.309429414583454 6.72354412052766
5.65346693964803 17.3221814667664 3.30374344899411 0.309429414583454 6.72354412052766
-5.51983205925096 17.3919402786163 3.16010242947263 0.464144121875182 19.2367874463804
-4.95369543778933 17.5615783495367 3.16010242947263 0.464144121875182 19.2367874463804
-1.84904320329944 18.2436402795026 2.5855383513867 0.464144121875182 19.2367874463804
-1.13069338792961 18.1862913115283 3.30374344899411 0.464144121875182 19.2367874463804
-5.53418006206335 17.4371481047516 2.87282039042967 0.618858829166909 22.6646971750857
-4.96029111067373 17.5849609792486 3.01646140995115 0.618858829166909 22.6646971750857
-1.85629043663704 18.3151453248131 2.01097427330077 0.618858829166909 22.6646971750857
-1.12904095692496 18.1597132914006 3.4473844685156 0.618858829166909 22.6646971750857
-1.86457868077214 18.3969215344114 -1.00548713665038 2.78486473125109 12.2632913490642
-0.707670776827047 18.2331383664172 -3.16010242947263 2.78486473125109 12.2632913490642
4.57023159366882 17.2598219287747 5.98910013598049 0.309429414583454 8.26423370006053
5.16468320380907 17.2386670981014 5.5508732967624 0.309429414583454 8.26423370006053
-5.64114875582879 17.7741861004153 2.62936103530851 0.464144121875182 110.150544216656
-5.05681917034457 17.9271671370811 2.7754366483812 0.464144121875182 110.150544216656
5.98026539074246 17.8283103511207 1.02252929150886 0.464144121875182 110.150544216656
6.56073468269674 17.6138841052117 1.16860490458156 0.464144121875182 110.150544216656
-5.63474136124109 17.7539976195313 2.7754366483812 0.618858829166909 171.434077603823
-4.90644386206399 17.9457338943319 2.9215122614539 0.618858829166909 171.434077603823
5.98026539074246 17.8283103511207 1.02252929150886 0.618858829166909 171.434077603823
6.56370591666855 17.6218611037279 1.02252929150886 0.618858829166909 171.434077603823
5.98891996533153 17.8541112866393 -0.146075613072694 0.773573536458636 19.1154313986607
5.23742443561358 17.4814626055701 5.79189805833235 0.309429414583454 7.463170758654
5.49487764508454 18.3407893050537 -0 0.464144121875182 206.294246090023
6.0823207504958 18.1325568197631 0.891061239743438 0.464144121875182 206.294246090023
6.67008026074168 17.9074488402986 1.18808165299125 0.464144121875182 206.294246090023
7.25924664731646 17.6662133175465 1.33659185961516 0.464144121875182 206.294246090023
6.07993648058817 18.1254488569727 1.03957144636734 0.618858829166909 352.715813669896
6.67008026074168 17.9074488402986 1.18808165299125 0.618858829166909 352.715813669896
7.25924664731646 17.6662133175465 1.33659185961516 0.618858829166909 352.715813669896
6.07718423756465 18.1172438962261 1.18808165299125 0.773573536458636 44.0398496075067
6.67008026074168 17.9074488402986 1.18808165299125 0.773573536458636 44.0398496075067
3.61733126074178 19.09173091722 -1.05661360122582 0.309429414583454 9.28949027608155
6.60229506016409 18.1835001552814 2.11322720245165 0.309429414583454 9.28949027608155
6.77594451188121 18.1916671086237 1.35850320157606 0.464144121875182 107.946230389176
6.17960757043388 18.4225873628247 1.05661360122582 0.618858829166909 114.823969869605
6.77942583878663 18.2010135753855 1.20755840140095 0.618858829166909 114.823969869605
6.89630320289613 18.0557534997577 2.26417200262677 0.773573536458636 19.1968195423826
-13.4078197525884 12.8722850215367 -6.7486933239585 0.154714707291727 5.38008790643973
13.5998228608791 13.6480880131992 4.44800241806356 0.154714707291727 5.38008790643973
-6.42621834352605 18.6496216386215 1.38041454353697 0.309429414583454 9.85881830408041
6.64970641818499 18.3140766333211 3.37434666197925 0.309429414583454 9.85881830408041
4.48345808600409 18.7383054691283 4.44800241806356 0.618858829166909 8.55552160898143
5.01904613466786 18.3575862413383 5.36827878042153 0.618858829166909 8.55552160898143
6.91048407005482 18.0928815427537 -3.98786423688457 0.618858829166909 8.55552160898143
-14.6447522747541 13.7461220459932 0.311627974555081 -0.773573536458636 8.10418189891362
-7.87122006451097 17.4539053298845 -6.0767455038241 0 6.40315895413642
4.57837453916675 19.1350022730888 4.05116366921607 0 6.40315895413642
-8.41167697868081 18.2358696229554 -0.467441961832625 0.154714707291727 5.95968219112393
-8.56951149510853 18.1675795642499 -0.155813987277541 0.309429414583454 11.3305434985588
-8.53851836498682 18.1018733501031 1.71395386005295 0.618858829166909 6.62950181769796
5.1211838414512 18.7311635527354 5.14186158015886 0.618858829166909 6.62950181769796
-7.9732682899731 17.6801904612493 -6.32994323315011 0 7.134606384162
4.78860842344092 19.3304460325594 4.43096026320508 0 7.134606384162
6.03336443624072 18.4861846253589 6.17169465232135 0 7.134606384162
-8.70262456486797 18.4497826148294 0.316497161657504 0.154714707291727 5.86389446830378
5.94987734369856 18.2303807827635 6.96293755646512 0.154714707291727 5.86389446830378
-8.69948166612654 18.4431195905742 -0.632994323315012 0.309429414583454 5.76280426354537
-9.31388788640303 18.0956725231277 1.42423722745878 0.464144121875182 5.90608023113328
-8.69083283410744 18.4247838495072 -1.10774006580127 0.464144121875182 5.90608023113328
5.62228795014058 18.7660591129112 5.6969489098351 0.464144121875182 5.90608023113328
6.32421725452152 19.3773555390946 3.69571301073918 0 9.75448107139747
6.21819612603449 19.5923525396877 2.57093079007943 0.154714707291727 6.28396120131773
6.34242672671044 19.9837795187226 -1.63117767931176 0 8.0617220310742
15.4293154955143 23.8632047675185 2.8801241710833 3.24900885312627 12.573406075606
15.1900356041332 26.0186137112018 0.467441961832622 2.63015002395936 5.64177540815104
15.1877501003959 26.0146989317749 0.701162942748937 2.78486473125109 18.9270549268648
15.3496505615509 26.2920139867384 0.236155574467522 2.63015002395936 5.21565628781465
15.3459558306084 26.2856853789809 0.708466723402572 2.78486473125109 15.9078706502792
15.396369617862 28.0697847600413 -0 2.32072060937591 8.81970489630314
15.384786174636 28.0486664856555 1.24164271111791 2.47543531666763 5.0154873564815
0.772708751517618 33.1973942487866 2.06453533142742 2.01129119479245 9.96461875495229
16.5162826514194 28.8814607877991 -0 2.01129119479245 9.96461875495229
16.6675821614601 29.1460330864622 -0.781504529938919 1.85657648750073 8.01190318023407
16.6720966386969 29.1539273990047 -0 2.01129119479245 22.2805354547182
16.5629811298914 29.5716478234242 -0.525872207061699 2.01129119479245 9.18490250418206
-4.86417158159853 34.4975809649642 -0.270239884184485 1.701861780209 6.19254506859507
2.43186627700786 34.7506862556012 -0.540479768368969 1.701861780209 6.19254506859507
14.6645186514273 31.0891477913652 -7.36221089886382 1.54714707291727 8.08089625990996
16.0084608739733 29.8066119878944 -9.54360672074939 1.54714707291727 8.08089625990996
16.0442934736128 29.8733297318661 -9.27093224301369 1.701861780209 21.1334909893302
16.2225736301117 30.2052746634707 -9.07859935246798 1.54714707291727 9.99315014104433
16.2564834409777 30.2684123119318 -8.80349028118107 1.701861780209 27.3000241536602
16.2892825069033 30.3294818325627 -8.52838120989417 1.85657648750073 5.38676288949436
-14.405194609214 36.7943912396802 5.2562874770658 -0.309429414583454 6.62019243364889
-12.2248356254249 38.5181304124935 2.51250054485035 -0.309429414583454 8.61863127788
14.5600798948761 39.0900672309392 1.6190047115557 0.773573536458636 16.188324165986
14.549548115282 39.0617921132636 2.26660659617798 0.928288243750363 13.0187524160639
14.6646917734865 39.3709232013433 1.95741321517411 0.773573536458636 11.4406585140704
14.6589432138931 39.3554897983257 2.28364875103646 0.928288243750363 8.25074980214831
15.9619603884614 38.8452701621633 2.28364875103646 0.928288243750363 8.25074980214831
14.436009038629 40.8034237762856 1.67986955033599 0.618858829166909 6.85322057254322
14.4312240437593 40.7898989736264 2.01584346040319 0.773573536458636 5.78856425560797
-22.7092054620376 50.35614796725 -0.428488465013237 0.309429414583454 7.21803790400313
-25.204653321914 48.9693625406586 4.28488465013238 0.464144121875182 7.53439605519646
-22.7092054620376 50.35614796725 0.428488465013237 0.464144121875182 7.53439605519646
-25.3317463879424 49.216287834463 4.74015364420895 0.464144121875182 6.72453502977018
-22.8279265762051 50.6194041169135 1.7236922342578 0.464144121875182 6.72453502977018
0.0726058840927138 3.11932038335736 -0.340843097169621 0 5.25480141585374
6.78515589519523 6.95920450019542 0.452834400525354 1.0382171147208 6.27880419269379
7.2235215991926 6.47495592111964 -0.75472400087559 1.0382171147208 6.27880419269379
-8.1197580377018 15.1184101439038 -1.87463703443292 1.14203882619288 23.3462433246427
-0.946027188274732 17.3976862762215 -2.31773306075342 1.0382171147208 55.8447400464825
-0.946982471408515 17.4152541817452 -2.18139582188558 1.14203882619288 162.936736880417
-0.947878981604236 17.4317412376374 -2.04505858301773 1.24586053766496 26.3813444314676
-0.962920530922495 17.7083592454397 -2.35912115112402 1.0382171147208 152.865285642303
-0.962920530922495 17.7083592454397 -2.35912115112402 1.14203882619288 468.293996499845
-0.963892872683667 17.7262408635621 -2.22034931870496 1.24586053766496 88.8702352136022
-0.986540104138842 18.1427293458865 -1.12965140776217 1.0382171147208 92.7082734814523
-0.986033502445795 18.1334128088653 -1.27085783373245 1.14203882619288 275.406793528567
-0.985466992362968 18.1229945409597 -1.41206425970272 1.24586053766496 50.4420099448842
5.16967647648092 17.777039416848 -0.430923058564451 -1.45350396060912 5.5696299799368
6.86297993298954 16.3107389859279 5.45835874181636 -1.45350396060912 5.5696299799368
-2.00224398323017 18.3290557338677 -1.7236922342578 1.0382171147208 15.6429894746274
-2.00224398323017 18.3290557338677 -1.7236922342578 1.14203882619288 37.4628926064453
-2.00364095723838 18.3418439927761 -1.58005121473632 1.24586053766496 6.70968066572165
-1.00545688848859 18.4906139347765 0.143641019521483 1.24586053766496 6.70968066572165
5.54820089476042 17.9870466655093 0.58430245229078 -1.45350396060912 12.2805020906074
5.39438185021732 18.005354684166 1.16860490458156 -1.34968224913704 8.66906290495032
2.87464420660069 18.3059106337941 3.35973910067198 -1.24586053766496 7.63458798987116
-1.73376657268957 18.5458565494784 -2.7754366483812 1.0382171147208 5.59685598947361
-1.73573807871655 18.5669454714468 -2.62936103530851 1.14203882619288 13.6118370226942
-0.87516078888914 18.7842039414286 -1.02252929150886 1.14203882619288 13.6118370226942
5.48892360410597 18.3209159214854 0.891061239743438 -1.34968224913704 6.26990911470906
-1.91172263391976 18.8620687635536 -2.67318371923031 1.14203882619288 8.16836514716974
-0.890390850714225 19.1110976859782 -0.742551033119532 1.14203882619288 8.16836514716974
7.2313875613724 18.0262182337894 -1.20755840140095 -1.45350396060912 8.31605800875919
7.29009993060952 18.1725749283945 -2.76082908707393 -1.45350396060912 12.2865188503449
-0.48029165803051 20.6344647899056 -1.76751491817961 1.14203882619288 6.69008844656565
16.9553120359782 23.2329635772084 -4.98117840577889 -0.41528684588832 5.39880219077723
16.7544941873846 23.4252964021993 -4.75476120551622 -0.31146513441624 5.00502940275833
