VERSION .7
FIELDS x y z velocity intensity
SIZE 4 4 4 4 4
TYPE F F F F F
COUNT 1 1 1 1 1
WIDTH 971
HEIGHT 1
VIEWPOINT 0 0 0 1 0 0 0
POINTS 971
DATA ascii
7.253790 -0.908522 17.493500 -11.011200 10.850000
-7.737660 1.595960 17.235100 -10.478400 9.000000
-8.049130 1.632230 17.565300 -10.478400 8.910000
-7.338180 0.827338 18.394400 -10.656000 8.620000
-8.751920 1.424050 17.727500 -10.300800 7.750000
7.377830 1.741050 19.244000 -11.100000 6.430000
8.323650 -0.431749 18.929500 -10.833600 5.350000
7.531530 1.777320 19.644900 -11.100000 5.970000
-7.670520 -0.440743 19.666600 -10.744800 6.250000
5.832960 -2.128770 20.630800 -11.277600 5.710000
8.375730 1.813590 19.767300 -10.922400 5.940000
6.111630 -2.171340 20.997000 -11.366400 4.590000
7.552810 1.748000 21.022900 -11.188800 5.120000
-8.122650 1.540660 20.825800 -10.744800 7.980000
7.242210 1.781610 21.585600 -11.188800 5.300000
6.502530 -0.269856 22.339900 -11.366400 9.150000
7.548140 1.815230 21.935300 -11.188800 6.690000
7.233170 -0.494712 22.563300 -11.277600 4.440000
7.497350 -0.503707 22.930600 -11.277600 6.820000
-7.660490 1.510240 22.832300 -11.011200 4.300000
7.608240 1.972870 23.269700 -11.277600 7.620000
-7.617930 1.537210 23.299400 -11.011200 9.050000
-7.751580 1.564180 23.708100 -11.011200 9.210000
-8.394590 1.591150 23.944400 -10.922400 8.750000
18.390300 1.672050 19.306300 -8.791200 4.370000
-7.233770 -0.398783 26.162100 -11.188800 6.910000
-8.086710 -0.398783 25.911200 -11.011200 9.600000
18.686900 1.699020 19.617700 -8.791200 8.190000
6.962120 2.470090 26.569700 -11.366400 11.310000
8.669200 2.508690 26.514700 -11.277600 7.140000
-16.407800 1.769050 24.731600 -11.544000 5.310000
-17.217900 1.887800 24.693800 -11.366400 10.250000
-16.441900 2.073970 25.202600 -11.544000 6.400000
-17.270400 1.914770 25.180500 -11.366400 6.450000
18.340500 1.941740 24.947800 -9.679200 8.590000
18.595200 1.968710 25.294300 -9.679200 7.710000
-16.352700 1.312950 26.838900 -11.899200 10.460000
-7.421340 1.232400 30.986500 -11.277600 6.690000
18.849900 1.995680 25.640800 -9.679200 10.510000
-16.576700 1.330940 27.206500 -11.899200 15.230000
19.104700 2.022650 25.987300 -9.679200 7.200000
-13.613200 1.723300 29.259700 -14.208000 9.670000
18.713900 2.486070 27.285100 -9.945600 6.860000
-13.973900 1.871720 30.034900 -14.119200 9.850000
18.956900 2.518350 27.639500 -9.945600 6.260000
-15.486600 1.999800 29.762600 -13.675200 14.190000
-12.611700 1.999800 31.090000 -13.675200 14.120000
19.199900 2.550640 27.993800 -9.945600 8.230000
-12.773400 2.025440 31.488600 -13.675200 6.300000
18.593500 1.545360 28.986400 -10.123200 14.080000
-16.993400 1.944640 29.929300 -13.320000 6.810000
18.825900 1.564680 29.348700 -10.123200 7.600000
19.058400 1.584000 29.711100 -10.123200 9.470000
19.290800 1.603310 30.073400 -10.034400 6.490000
18.811600 1.734450 30.874500 -10.212000 5.730000
19.035500 1.755100 31.242100 -10.212000 7.680000
19.259500 1.775750 31.609600 -10.212000 5.680000
-6.461710 1.088620 36.473400 -11.455200 12.240000
19.483400 1.796400 31.977200 -10.212000 11.930000
9.218560 1.101280 36.320500 -11.455200 5.100000
18.682100 2.490270 32.903500 -10.389600 7.050000
9.326520 0.791539 36.745800 -11.455200 9.910000
18.898100 2.400210 33.284100 -10.389600 14.630000
9.433060 0.681950 37.165600 -11.455200 14.570000
19.110500 2.427180 33.658000 -10.389600 6.050000
9.321080 0.809529 37.635500 -11.455200 9.730000
19.322800 2.454140 34.032000 -10.389600 11.790000
9.121180 -2.000110 38.083800 -11.455200 8.440000
8.701280 -2.022090 38.623200 -11.455200 17.450000
19.227400 1.796480 35.113800 -10.478400 13.400000
8.277440 -0.836513 39.200600 -11.544000 17.990000
19.431400 1.940930 35.486300 -10.478400 13.690000
19.433300 1.835120 35.981900 -10.478400 9.280000
19.276300 1.744600 37.045800 -10.567200 5.370000
19.472400 1.893070 37.422700 -10.567200 7.880000
19.671100 1.912380 37.804600 -10.567200 5.780000
19.379000 2.168060 40.826700 -10.744800 8.350000
19.563500 2.188710 41.215500 -10.744800 9.800000
19.750900 2.066920 41.610300 -10.744800 10.390000
19.935500 2.086240 41.999200 -10.744800 6.190000
20.120100 2.105550 42.388100 -10.744800 7.760000
19.723100 2.271310 43.040800 -10.833600 7.660000
19.902400 2.291950 43.432000 -10.833600 7.880000
20.084500 2.163510 43.829600 -10.833600 5.230000
20.263900 2.182820 44.221000 -10.833600 7.440000
19.744800 2.619420 44.903300 -10.922400 17.760000
19.920500 2.527610 45.302700 -10.922400 17.430000
20.093700 2.549590 45.696700 -10.922400 11.170000
20.270000 2.415840 46.097600 -10.922400 7.360000
19.985100 2.298720 47.166200 -10.922400 9.930000
20.153100 2.318040 47.562600 -10.922400 13.750000
20.321000 2.337360 47.958900 -10.922400 10.330000
20.115700 2.356680 48.511800 -11.011200 14.030000
19.908100 2.048450 49.076900 -11.011200 7.620000
20.070000 2.065100 49.475900 -11.011200 6.200000
20.231800 2.081750 49.874900 -11.011200 9.700000
20.393700 2.098410 50.273900 -11.011200 9.260000
20.264600 1.945930 50.796700 -11.011200 14.280000
20.424200 1.961250 51.196700 -11.011200 13.720000
20.583700 1.976580 51.596700 -11.011200 7.020000
20.743300 1.991900 51.996700 -11.011200 13.670000
20.194300 2.007220 52.673800 -11.100000 17.100000
20.350600 1.846730 53.081500 -11.100000 16.120000
20.504700 1.860720 53.483600 -11.100000 6.780000
-31.312600 0.487413 47.996700 -9.590400 12.700000
-31.538200 -1.517720 48.342700 -9.590400 7.010000
20.715600 1.772180 56.630000 -11.188800 8.560000
20.861500 1.972650 57.029000 -11.188800 6.690000
20.883700 1.687610 60.689300 -11.188800 6.870000
21.025100 1.549060 61.100200 -11.188800 8.600000
21.165300 1.559390 61.507500 -11.188800 6.930000
21.448400 1.172340 62.330200 -11.188800 4.440000
21.585800 1.590370 62.729500 -11.188800 8.110000
21.725900 1.600700 63.136800 -11.188800 6.140000
21.019400 1.412180 64.287600 -11.277600 8.890000
21.150500 1.789550 64.688800 -11.277600 6.240000
-16.842400 -2.647990 66.357900 -11.188800 16.600000
-16.953700 -2.025340 66.796300 -11.188800 15.100000
12.251700 0.814567 69.155100 -11.544000 8.960000
11.924800 0.601020 69.651600 -11.632800 10.320000
11.997900 -0.164916 70.078700 -11.544000 9.860000
12.070600 -0.165915 70.503400 -11.544000 5.400000
12.550400 1.502130 70.841500 -11.632800 5.670000
-13.158600 -3.860200 71.080500 -11.366400 7.400000
12.625600 1.511120 71.265700 -11.632800 5.490000
12.699900 1.745280 71.684900 -11.632800 7.600000
21.537600 1.936790 70.439300 -11.277600 7.170000
-17.812400 1.776260 71.920600 -11.277600 7.690000
-17.916000 1.786590 72.338700 -11.277600 7.570000
21.362400 1.970770 71.841900 -11.366400 8.900000
21.486400 1.807240 72.259000 -11.366400 8.420000
21.609200 1.817570 72.671900 -11.366400 10.460000
21.734800 1.356240 73.094200 -11.366400 5.490000
21.548700 2.027400 74.032100 -11.366400 10.680000
21.670300 1.858880 74.450000 -11.366400 7.760000
21.792200 1.628050 74.868800 -11.366400 7.320000
21.907900 2.303830 75.266400 -11.366400 12.230000
22.033000 1.646040 75.696100 -11.366400 13.210000
22.153400 1.655040 76.109700 -11.366400 14.120000
22.275100 1.417540 76.528000 -11.366400 12.530000
21.799100 1.920840 77.102000 -11.366400 11.040000
21.915000 2.118010 77.512000 -11.366400 15.160000
-28.256300 1.931160 75.436800 -10.833600 14.400000
22.032200 2.129340 77.926500 -11.366400 8.500000
-28.407400 1.941490 75.840200 -10.833600 6.240000
22.149400 2.140660 78.341000 -11.366400 11.650000
21.810900 2.151990 78.882900 -11.366400 12.680000
21.925700 2.163320 79.298100 -11.366400 9.420000
22.040500 2.174640 79.713200 -11.366400 10.320000
-61.823800 -9.465980 137.708000 -10.478400 4.970000
-63.074400 -9.024730 137.645000 -10.478400 7.820000
-62.163700 -9.989380 138.465000 -10.478400 8.040000
-60.349500 -10.518000 140.168000 -10.478400 4.490000
-6.986730 1.341300 157.549000 -11.721600 5.920000
-7.005820 1.344970 157.979000 -11.632800 8.800000
-7.024410 2.329400 158.398000 -11.721600 10.080000
-6.125270 2.335730 158.867000 -11.632800 9.490000
-6.141870 2.342060 159.297000 -11.632800 5.360000
-6.258650 0.879215 162.326000 -11.632800 6.430000
-6.275320 0.377807 162.759000 -11.632800 6.070000
-6.291920 0.378807 163.189000 -11.632800 5.500000
5.743370 0.037314 3.813800 -3.463200 6.130000
6.102330 0.039646 4.052170 -3.907200 3.720000
6.471280 0.139257 6.926020 -8.524800 5.940000
7.025930 0.145587 6.988360 -8.169600 13.390000
7.260810 0.151917 7.362490 -8.258400 16.820000
7.489100 0.158247 7.741770 -8.347200 15.540000
6.840520 0.294483 8.867730 -9.235200 7.520000
6.639820 -0.229871 11.089100 -9.856800 9.980000
7.392440 -0.229871 10.602200 -9.679200 9.980000
5.110620 -0.640095 12.325000 -10.567200 8.500000
6.414580 -0.237533 11.714500 -10.123200 9.410000
4.380980 -0.660744 13.057600 -10.656000 9.290000
6.621500 -0.245196 12.092400 -10.034400 8.870000
5.275480 -0.660744 12.722600 -10.567200 7.490000
4.493500 -1.623620 13.393000 -10.656000 6.660000
4.444690 -1.627800 13.864900 -10.833600 5.240000
4.576980 -1.629320 14.277500 -10.744800 9.450000
3.925030 -0.922984 14.979200 -10.833600 10.090000
4.034780 -0.899397 15.398100 -10.833600 8.910000
5.372210 -2.108390 15.323500 -10.744800 10.590000
5.513580 -2.163870 15.726700 -10.744800 10.290000
-7.289340 1.608710 15.056200 -10.123200 6.030000
6.567610 -0.923129 16.838800 -10.744800 7.060000
-7.119640 1.843850 16.536100 -10.300800 8.820000
6.624210 -0.945108 17.278300 -10.744800 8.190000
-7.289150 1.887760 16.929800 -10.300800 12.360000
16.381500 -2.491450 10.877900 -5.594400 5.340000
6.503040 -1.069550 17.777300 -10.744800 8.010000
16.737600 -2.545620 11.114400 -5.594400 11.160000
6.169050 -0.102614 17.927600 -10.833600 8.370000
17.093700 -2.599780 11.350800 -5.772000 9.950000
6.309250 -0.104946 18.335000 -10.833600 4.690000
-7.961350 1.301730 18.105500 -10.212000 6.960000
7.358780 -0.172244 18.867300 -10.744800 9.570000
-8.282860 1.079940 18.449500 -10.212000 7.420000
8.069050 -0.175908 19.043500 -10.567200 7.170000
7.531530 1.777320 19.644900 -10.744800 6.060000
7.557060 -0.183238 20.175300 -10.744800 5.610000
17.861000 1.799810 13.409300 -7.104000 6.090000
9.136890 1.375400 19.939000 -10.478400 3.970000
18.075300 1.781610 13.844400 -7.192800 10.710000
6.425490 -0.186903 21.014700 -10.922400 5.660000
-8.286290 1.402370 20.771000 -10.478400 12.800000
18.416400 1.815230 14.105700 -7.192800 4.970000
-8.447240 1.358840 21.174500 -10.478400 4.830000
6.674190 -0.741492 21.828100 -10.922400 7.110000
-8.313290 1.456310 21.684000 -10.478400 10.470000
6.628500 -0.755482 22.291700 -11.011200 8.280000
6.752480 -0.622944 22.708600 -11.011200 6.940000
6.876540 -0.429092 23.125900 -11.011200 8.370000
6.863150 -0.436754 23.578900 -11.011200 8.110000
18.220900 1.197650 19.501300 -8.613600 9.260000
18.361500 1.216970 19.957900 -8.613600 9.100000
18.650300 1.321490 20.271800 -8.613600 9.200000
-7.330390 1.981280 26.511600 -10.833600 7.180000
-7.502640 0.234544 26.536400 -10.833600 5.290000
18.269500 1.867700 21.714900 -8.968800 7.420000
-7.737090 0.241874 27.365600 -10.833600 5.540000
18.375900 1.896000 22.186200 -8.968800 4.780000
18.650200 1.924300 22.517300 -8.968800 9.150000
7.440290 5.806330 27.739700 -11.100000 8.500000
18.924400 1.952600 22.848400 -8.968800 4.560000
19.202500 1.887800 23.184200 -8.968800 6.550000
18.462800 1.914770 24.319600 -9.235200 6.690000
18.528500 2.037490 24.800800 -9.324000 14.990000
18.789600 1.968710 25.150300 -9.324000 17.420000
19.050600 1.897250 25.499600 -9.324000 6.730000
18.409300 1.798790 25.973400 -9.501600 15.510000
18.658000 1.823100 26.324400 -9.501600 5.680000
18.906800 1.847410 26.675400 -9.501600 13.470000
18.525600 1.871720 27.462000 -9.590400 15.700000
18.551200 1.896030 27.962500 -9.679200 13.500000
18.785700 2.025440 28.315900 -9.679200 5.360000
19.026900 1.944640 28.679500 -9.679200 7.150000
19.261300 2.076710 29.032800 -9.679200 5.760000
18.820900 1.884150 29.844600 -9.856800 7.670000
19.050500 1.907120 30.208600 -9.856800 18.070000
19.280000 1.930100 30.572500 -9.856800 11.210000
19.509500 1.953080 30.936500 -9.856800 12.310000
-6.249510 1.317720 36.502800 -11.100000 5.360000
19.233500 1.912200 32.121500 -10.034400 15.620000
-6.322180 1.333040 36.927300 -11.100000 7.150000
19.454500 1.934170 32.490700 -10.034400 14.490000
-6.394850 1.348360 37.351800 -11.100000 6.060000
9.433920 0.444763 37.169000 -11.100000 8.630000
9.539530 0.569689 37.585100 -11.100000 5.060000
19.610600 1.394330 33.927200 -10.123200 5.410000
9.645040 0.697275 38.000800 -11.100000 5.460000
19.826100 1.409650 34.300000 -10.123200 7.010000
9.750450 0.827518 38.416100 -11.100000 7.430000
8.027920 -3.126230 39.136700 -11.188800 9.860000
19.220700 2.159870 35.588200 -10.212000 5.260000
19.147400 2.182850 36.115500 -10.212000 9.400000
19.348900 2.205830 36.495700 -10.212000 11.660000
19.552800 2.131990 36.880300 -10.212000 8.760000
19.640700 1.166600 39.783200 -10.300800 10.610000
19.831400 1.177930 40.169500 -10.300800 12.720000
20.022100 1.189260 40.555700 -10.300800 9.010000
20.212700 1.200580 40.942000 -10.300800 14.140000
19.611200 2.086240 42.151600 -10.478400 7.460000
19.792800 2.105550 42.541900 -10.478400 11.330000
9.688180 2.649580 45.881600 -11.188800 9.350000
19.974400 2.124870 42.932200 -10.478400 9.420000
20.156000 2.144190 43.322500 -10.478400 8.580000
19.925100 2.032370 44.381800 -10.567200 7.320000
20.101400 2.050360 44.774500 -10.567200 5.650000
20.280300 1.915210 45.172900 -10.478400 6.240000
-23.203400 -1.302520 43.765900 -9.856800 11.340000
19.746700 2.240770 45.863800 -10.567200 15.780000
19.917000 2.260090 46.259100 -10.567200 10.040000
20.087200 2.279410 46.654500 -10.567200 12.960000
20.257400 2.298720 47.049900 -10.567200 16.880000
20.430400 2.158270 47.451600 -10.567200 16.190000
-5.178470 1.748800 53.584500 -11.188800 12.380000
20.259800 2.284170 50.784600 -10.744800 8.350000
20.185500 1.976580 51.753800 -10.744800 17.140000
20.341900 1.991900 52.155000 -10.744800 17.450000
20.496100 2.181680 52.550100 -10.744800 7.510000
21.060000 2.198330 52.790500 -10.744800 10.040000
20.654400 2.231640 53.873900 -10.744800 5.980000
20.808500 2.248290 54.275900 -10.744800 6.450000
-19.978600 -1.394160 54.615300 -10.567200 5.180000
-12.442300 2.787510 56.756900 -11.011200 6.880000
20.960000 2.446040 54.671200 -10.744800 6.920000
-19.808200 -1.404480 55.135300 -10.656000 8.500000
-12.534400 2.808160 57.177300 -11.011200 6.490000
-19.527700 -1.049740 55.700100 -10.656000 6.760000
20.563400 2.129800 56.214200 -10.744800 6.280000
-20.575100 -0.694631 56.245900 -10.567200 6.420000
20.675000 2.175770 57.547900 -10.833600 12.660000
20.820600 2.191090 57.953200 -10.833600 14.230000
20.966200 2.206410 58.358400 -10.833600 9.870000
-18.736200 -1.653630 60.033900 -10.744800 9.250000
-18.514800 -1.664960 60.553100 -10.833600 8.420000
-19.591100 -1.886100 61.113000 -10.744800 9.270000
-20.077900 -1.898760 61.408100 -10.744800 6.590000
21.238700 1.600700 63.302400 -10.922400 7.830000
21.379500 0.987462 63.722200 -10.922400 6.660000
21.566500 1.693640 67.275000 -11.011200 8.060000
-18.441100 1.565090 72.656500 -10.922400 8.810000
22.752500 2.140660 78.168000 -11.011200 8.380000
22.267900 1.962150 78.760100 -11.011200 5.610000
22.386600 1.718000 79.180100 -11.011200 7.520000
22.041800 1.982800 79.717900 -11.011200 9.600000
22.618100 2.185970 79.999000 -11.011200 8.630000
22.736700 2.003450 80.418200 -11.011200 11.830000
-0.985827 2.770100 85.267500 -11.277600 13.290000
-1.651280 2.784090 85.688000 -11.277600 13.170000
-55.940000 -9.345060 105.513000 -9.856800 10.060000
-55.323500 -9.378680 106.322000 -9.856800 10.080000
-55.534900 -9.040240 106.729000 -9.856800 15.140000
-61.329800 -7.309470 139.475000 -10.212000 15.630000
-60.396300 -8.629350 140.276000 -10.212000 11.650000
-49.690500 -14.048600 148.104000 -10.567200 5.400000
-49.827000 -14.087200 148.510000 -10.567200 6.400000
-6.141870 2.342060 159.297000 -11.277600 5.940000
-6.158460 2.348390 159.728000 -11.277600 4.620000
-7.101050 1.859010 160.127000 -11.277600 9.100000
-5.033930 0.883879 163.231000 -11.277600 9.310000
-5.047210 0.886211 163.662000 -11.277600 5.820000
-5.060550 0.380806 164.094000 -11.277600 4.750000
-49.115500 -13.205200 168.740000 -10.744800 7.560000
-49.235600 -13.237500 169.152000 -10.744800 7.610000
-48.047300 -13.269800 169.940000 -10.744800 6.470000
6.538180 0.080625 6.863840 -8.436000 7.130000
6.890470 0.084289 7.122940 -8.436000 13.410000
7.132560 0.087954 7.487830 -8.436000 16.370000
7.429750 0.091619 7.799820 -8.436000 15.200000
5.649670 2.682680 10.317600 -10.300800 5.590000
5.789580 2.778490 10.719800 -10.300800 8.160000
4.405740 -1.624860 12.043900 -10.744800 3.950000
6.539990 -3.020270 10.733800 -10.034400 9.790000
4.557760 -1.556000 12.459500 -10.744800 6.960000
6.757990 -3.120950 11.091600 -10.034400 8.560000
4.709300 -1.489660 12.873800 -10.744800 6.910000
5.710590 -1.489660 12.462000 -10.478400 7.070000
6.529700 -3.221620 11.709600 -10.212000 8.690000
5.889050 -1.536210 12.851400 -10.478400 7.650000
4.258740 -1.582760 13.928300 -10.922400 7.120000
3.887920 -1.490140 14.495400 -10.833600 7.120000
4.204570 -1.341640 14.871300 -10.922400 9.490000
4.439920 -1.342060 15.253700 -10.922400 9.870000
6.044530 -1.416170 15.151700 -10.744800 7.150000
-7.102440 1.567460 14.670100 -10.123200 4.090000
6.313720 -0.545626 15.564400 -10.656000 7.120000
8.482620 1.608710 14.417700 -10.034400 6.290000
-7.835540 1.608710 14.779300 -9.945600 5.930000
6.473380 -0.719424 15.958000 -10.744800 10.070000
8.717670 1.238300 14.817200 -10.034400 6.980000
-8.036460 1.649960 15.158300 -9.945600 5.410000
6.412220 -0.846578 16.440400 -10.656000 10.390000
-7.319120 1.854300 15.972200 -10.300800 6.260000
6.568610 -0.867226 16.841400 -10.656000 8.930000
-7.244540 1.899530 16.475400 -10.300800 9.600000
6.839860 -1.602510 17.145300 -10.744800 8.310000
-7.191170 1.887760 16.971600 -10.300800 11.820000
6.008180 -1.639780 17.907500 -10.922400 9.800000
-7.360700 1.873320 17.371700 -10.389600 11.480000
6.915340 -1.677050 18.037700 -10.744800 11.130000
-7.536660 1.677050 17.787000 -10.389600 8.940000
7.838470 -0.045976 18.205600 -10.656000 4.420000
-7.704140 1.714310 18.182300 -10.389600 10.070000
7.901210 -0.046976 18.647400 -10.656000 8.370000
-7.989930 1.392520 18.557400 -10.389600 9.080000
7.404110 0.000000 19.312500 -10.744800 9.690000
-8.159930 1.422150 18.952200 -10.389600 6.640000
8.349690 0.000000 19.393000 -10.567200 8.150000
-7.127280 0.000000 21.243000 -10.744800 3.930000
6.493780 1.570290 21.838600 -11.011200 6.720000
8.144300 1.528120 21.743100 -10.833600 5.820000
-8.254390 1.669610 23.987700 -10.656000 8.900000
18.287100 1.777690 18.189300 -8.347200 9.960000
18.587800 1.888410 18.488400 -8.347200 8.560000
18.328300 2.034050 19.921800 -8.613600 9.950000
-6.870030 1.531410 26.218300 -11.011200 7.100000
18.619200 2.066340 20.238000 -8.613600 6.870000
-7.337680 1.555710 26.537900 -10.922400 4.840000
18.910200 2.098630 20.554300 -8.613600 6.180000
-7.606640 1.666500 26.904200 -10.922400 10.880000
-7.722200 1.779930 27.313000 -10.922400 5.950000
18.386300 1.628640 22.198700 -9.057600 12.030000
7.310520 -1.294240 27.899400 -11.100000 7.240000
-7.839210 1.806900 27.726800 -10.922400 8.690000
18.657400 1.743410 22.526000 -9.057600 10.270000
18.931800 1.769050 22.857300 -9.057600 9.960000
7.692420 -1.516570 28.679700 -11.100000 12.550000
19.206200 1.794690 23.188600 -9.057600 6.080000
18.528800 1.769260 27.466700 -9.679200 5.920000
18.769400 1.792240 27.823400 -9.679200 5.000000
19.010000 1.815210 28.180100 -9.679200 7.450000
19.250700 1.838190 28.536800 -9.679200 6.040000
18.590300 1.884150 29.988800 -9.945600 10.340000
19.050500 1.907120 30.208600 -9.945600 5.360000
19.280000 1.930100 30.572500 -9.945600 8.260000
19.509500 1.953080 30.936500 -9.945600 6.540000
9.433060 0.681950 37.165600 -11.188800 17.000000
19.128800 1.738530 33.690300 -10.123200 5.860000
9.539530 0.569689 37.585100 -11.188800 10.420000
19.338500 1.878990 34.059700 -10.123200 5.680000
9.645520 0.576019 38.002700 -11.188800 10.960000
19.285100 1.899640 34.583600 -10.212000 7.480000
9.751520 0.582349 38.420300 -11.188800 5.970000
19.494700 1.920290 34.959600 -10.212000 14.590000
7.748820 -0.588679 39.313000 -11.188800 4.780000
9.303240 -0.601339 39.859800 -11.100000 5.450000
19.421800 2.309260 35.960700 -10.300800 13.770000
9.258720 -4.044660 39.669000 -11.188800 6.650000
19.626300 2.333570 36.339300 -10.300800 7.940000
9.453640 -4.129810 40.504200 -11.100000 6.300000
19.830700 2.357880 36.717800 -10.300800 10.370000
19.388400 1.385050 37.973300 -10.389600 4.720000
19.584300 1.399040 38.356800 -10.389600 7.420000
19.782000 1.278500 38.744100 -10.389600 17.320000
19.640700 1.166600 39.783200 -10.478400 9.880000
19.831400 1.177930 40.169500 -10.478400 8.820000
20.022100 1.189260 40.555700 -10.478400 6.250000
20.212700 1.200580 40.942000 -10.478400 11.590000
19.613800 1.942450 42.157300 -10.478400 9.100000
19.795500 1.960430 42.547600 -10.478400 8.580000
10.037800 2.939580 45.788700 -11.188800 10.420000
19.977100 1.978420 42.938000 -10.478400 4.950000
19.753500 1.716100 43.999500 -10.567200 7.500000
19.922400 2.182820 44.375800 -10.567200 9.540000
20.098700 2.202140 44.768500 -10.567200 6.830000
-22.999600 -1.443060 43.381600 -9.945600 8.980000
20.272100 2.374550 45.154800 -10.567200 12.210000
-22.863400 -1.455720 43.939700 -9.945600 6.660000
-22.721900 -1.313850 44.502000 -10.034400 11.780000
20.266900 2.571570 46.090600 -10.567200 5.510000
-22.571100 -1.325170 45.061000 -10.034400 10.900000
9.739770 2.260090 49.413900 -11.277600 15.480000
20.081200 2.593550 46.640700 -10.567200 14.760000
-5.012760 1.692840 51.869800 -11.277600 13.270000
20.498800 1.706830 48.378400 -10.656000 4.470000
20.666800 1.720820 48.775000 -10.656000 11.750000
-5.095620 1.720820 52.727100 -11.277600 5.200000
-22.892000 2.230220 48.227800 -10.123200 6.450000
20.388400 2.433940 50.260900 -10.656000 11.390000
20.550200 2.453260 50.659800 -10.656000 16.510000
20.709100 2.642970 51.051400 -10.656000 16.890000
19.878500 2.491890 51.850300 -10.833600 7.510000
20.740900 2.165020 51.990700 -10.744800 12.720000
20.496100 2.181680 52.550100 -10.833600 8.050000
-22.322600 -0.130933 51.846400 -10.300800 9.000000
20.652500 2.198330 52.951300 -10.833600 7.340000
20.244900 1.696230 54.048500 -10.833600 8.450000
20.396000 1.708880 54.451900 -10.833600 9.550000
20.861500 1.972650 57.029000 -10.922400 8.150000
20.677100 1.986640 57.553900 -10.922400 6.640000
20.822700 2.000630 57.959300 -10.922400 6.800000
20.968400 2.014620 58.364600 -10.922400 8.450000
-9.295750 1.848130 62.193400 -11.277600 8.140000
-10.203100 1.860780 62.487400 -11.277600 6.540000
-7.303590 1.860780 62.892300 -11.277600 6.330000
-19.861300 -0.754599 61.955900 -10.744800 4.510000
-17.077500 0.968472 63.670100 -10.922400 14.690000
-8.156390 2.564720 65.805500 -11.277600 5.830000
-7.700320 2.168510 66.308700 -11.277600 12.880000
20.881000 1.974710 63.864400 -11.011200 6.240000
-7.750000 2.182500 66.736500 -11.277600 14.090000
-17.680800 -2.697950 67.475600 -10.922400 6.730000
-15.952200 -2.714610 68.347300 -11.011200 6.080000
21.700800 1.264290 67.694000 -11.011200 5.900000
21.557600 2.126610 69.074100 -11.011200 10.740000
12.627500 0.839554 71.276400 -11.277600 6.250000
21.685900 2.139270 69.485300 -11.011200 6.540000
12.702600 0.844551 71.700700 -11.277600 8.800000
21.814200 2.151930 69.896400 -11.011200 8.070000
12.778200 0.623008 72.127200 -11.277600 9.950000
-13.882100 -4.867350 72.640200 -11.100000 7.820000
-13.962800 -4.895650 73.062500 -11.100000 5.360000
-17.662100 1.114060 73.744700 -11.011200 5.540000
-19.980400 0.894524 74.492900 -11.011200 7.140000
-17.045300 0.899522 75.660500 -11.011200 5.970000
22.392700 1.920840 76.931700 -11.100000 5.960000
22.513100 1.931160 77.345300 -11.100000 7.080000
22.033500 1.941490 77.931000 -11.100000 6.430000
22.147500 2.392440 78.334300 -11.100000 6.530000
22.264600 2.405100 78.748700 -11.100000 6.230000
22.374800 3.180920 79.138200 -11.100000 5.250000
22.041800 1.982800 79.717900 -11.100000 5.790000
-0.975654 3.264190 84.387700 -11.366400 11.950000
-0.980632 3.280840 84.818200 -11.366400 11.960000
-0.495459 2.519020 85.710700 -11.366400 10.320000
-0.497948 2.531680 86.141400 -11.366400 10.220000
-4.502320 2.276580 86.463800 -11.366400 10.530000
-55.733300 -9.072530 107.110000 -9.945600 7.390000
-55.101500 -9.104820 107.919000 -9.945600 6.600000
-55.321500 -8.384770 108.350000 -9.945600 5.050000
-61.379100 -4.009500 139.587000 -10.212000 12.720000
-6.142120 1.849020 159.304000 -11.366400 7.610000
-6.158720 1.854010 159.734000 -11.366400 5.850000
-4.940850 1.363290 160.213000 -11.366400 7.050000
-7.139680 0.373809 160.998000 -11.366400 6.890000
-6.275110 1.385280 162.753000 -11.366400 6.760000
-6.291710 1.388940 163.184000 -11.366400 5.590000
-6.308310 1.392610 163.615000 -11.366400 6.090000
-6.324910 1.396270 164.045000 -11.366400 6.060000
-5.073660 1.399940 164.520000 -11.366400 7.290000
-47.793300 -14.156200 169.042000 -10.833600 4.770000
-47.941300 -12.692600 169.566000 -10.833600 5.030000
6.591030 0.051307 6.813390 -8.524800 12.060000
6.890620 0.053639 7.123090 -8.524800 16.170000
7.132800 0.023988 7.488080 -8.613600 6.290000
7.430000 0.024987 7.800080 -8.613600 15.720000
5.514410 -0.835853 10.210300 -10.212000 4.620000
6.261520 -0.866811 10.276700 -10.034400 8.260000
6.402920 -0.897768 10.693400 -9.945600 5.760000
5.220780 -1.918150 13.086800 -10.744800 4.340000
3.760720 -1.976280 14.021100 -11.011200 4.760000
3.877550 -1.849390 14.456700 -11.011200 8.240000
4.651500 -1.849390 14.226600 -10.922400 8.240000
5.712340 -1.723550 14.319000 -10.833600 7.870000
5.871020 -1.771430 14.716700 -10.833600 5.330000
-7.443890 1.280630 14.040600 -10.034400 6.880000
6.042880 -1.466620 15.147500 -10.833600 4.740000
-7.225160 1.315240 14.634900 -10.123200 9.360000
6.739090 -1.453440 15.325900 -10.656000 11.190000
-7.731960 1.349860 14.859500 -10.123200 12.040000
6.794050 -1.384470 15.779900 -10.656000 6.760000
7.500060 -0.919096 15.491400 -10.478400 9.100000
-7.808470 1.490710 15.293300 -10.123200 6.070000
-8.715690 1.291460 14.813800 -9.768000 7.000000
6.976540 -0.942073 16.203700 -10.656000 7.420000
-7.408870 1.908630 15.924400 -10.212000 8.660000
7.050630 -0.965050 16.639900 -10.656000 8.560000
-7.114990 1.955180 16.525300 -10.389600 7.940000
6.485280 -1.216840 17.314000 -10.922400 3.510000
7.218500 -0.988028 17.036100 -10.656000 9.360000
-7.286810 1.944750 16.924300 -10.389600 5.650000
6.260370 -1.186620 17.856800 -10.922400 9.070000
-7.589520 1.989980 17.259900 -10.389600 8.680000
6.413010 -0.509682 18.292200 -10.922400 8.300000
-7.266690 1.512690 17.913600 -10.478400 7.490000
7.448310 -0.521008 18.361400 -10.833600 10.800000
-8.473690 1.546310 17.852000 -10.300800 9.640000
8.145930 -0.782740 18.525300 -10.656000 8.830000
-8.684370 0.000000 18.295800 -10.300800 9.490000
-8.869010 -0.111942 18.684800 -10.300800 5.740000
6.239890 1.886140 21.437600 -11.100000 5.760000
-7.282420 1.073710 21.163100 -10.744800 5.560000
6.359890 1.922410 21.849900 -11.188800 7.830000
-7.547030 1.094360 21.526800 -10.744800 5.960000
-7.860430 0.971223 21.879200 -10.656000 5.360000
6.433890 1.556420 22.756300 -11.188800 6.910000
7.354600 1.263760 22.494000 -11.011200 7.210000
6.550870 1.584720 23.170000 -11.188800 6.740000
-7.045650 1.286730 23.043000 -10.922400 4.760000
18.493700 1.764580 16.066300 -7.903200 9.190000
7.486180 4.792600 22.896400 -11.100000 7.200000
8.753240 4.792600 22.442600 -10.833600 4.160000
18.149800 1.826490 17.708200 -8.258400 7.890000
-7.564230 1.296780 24.237100 -10.833600 5.130000
18.457500 1.857450 18.008400 -8.258400 7.180000
-7.882170 1.318760 24.587800 -10.922400 8.720000
18.765100 1.888410 18.308500 -8.258400 6.500000
-7.813930 1.726210 25.037100 -10.922400 10.500000
18.343900 1.699020 19.938800 -8.791200 8.060000
18.635100 1.725990 20.255300 -8.791200 5.990000
18.926300 1.752960 20.571800 -8.791200 8.940000
-6.886050 0.995949 27.130500 -11.011200 6.960000
-7.205550 0.835454 27.498800 -11.011200 9.100000
7.298970 -2.074150 27.855300 -11.100000 4.700000
8.567620 0.000000 28.020600 -11.100000 7.400000
-7.399580 2.260060 29.153800 -11.100000 5.010000
18.371400 2.260060 23.815800 -9.324000 10.770000
18.638100 2.197980 24.161500 -9.324000 12.780000
18.711200 2.228940 24.646800 -9.412800 10.330000
18.554400 1.792240 27.967300 -9.768000 15.920000
18.792300 1.815210 28.325800 -9.768000 7.220000
19.030200 1.838190 28.684400 -9.768000 8.540000
19.015300 1.775750 31.757100 -10.123200 17.700000
19.236400 1.796400 32.126400 -10.123200 5.990000
19.457500 1.817040 32.495700 -10.123200 16.410000
8.427600 0.563359 37.408400 -11.277600 10.060000
19.675600 1.956150 32.859900 -10.123200 7.180000
9.322110 0.569689 37.639600 -11.277600 5.580000
9.645520 0.576019 38.002700 -11.277600 7.830000
19.338500 1.878990 34.059700 -10.212000 5.780000
9.751520 0.582349 38.420300 -11.277600 8.390000
19.548100 2.022090 34.428700 -10.212000 7.990000
9.837300 -2.631760 38.758300 -11.188800 4.700000
6.821790 -2.535050 39.845400 -11.277600 7.040000
19.220700 2.159870 35.588200 -10.300800 6.310000
8.744990 -2.814680 39.891300 -11.277600 6.420000
19.425100 2.182850 35.966900 -10.300800 10.390000
8.837040 -2.844300 40.311200 -11.277600 14.910000
19.626300 2.333570 36.339300 -10.300800 14.660000
7.039500 -2.615960 41.117100 -11.277600 6.600000
19.547100 2.357880 36.869600 -10.300800 7.850000
7.112080 -2.642920 41.541000 -11.188800 9.420000
19.386400 1.516910 37.969300 -10.389600 9.890000
9.789720 1.265840 41.944100 -11.277600 12.450000
19.577500 1.798560 38.343600 -10.389600 8.920000
8.987550 1.278500 42.563600 -11.277600 8.230000
19.770700 1.951020 38.721900 -10.389600 14.650000
8.827910 1.291160 43.036700 -11.277600 16.090000
19.641800 1.063690 39.785600 -10.478400 10.840000
19.522300 1.074020 40.323500 -10.567200 13.360000
19.710000 1.084340 40.711200 -10.567200 6.740000
19.899100 0.953445 41.101800 -10.567200 6.410000
19.795500 1.960430 42.547600 -10.656000 10.320000
19.977100 1.978420 42.938000 -10.656000 10.350000
19.927600 1.881910 44.387300 -10.656000 7.410000
20.448500 1.898560 44.623800 -10.656000 10.080000
-23.207700 -0.881171 43.774100 -10.034400 5.610000
19.924400 1.792710 46.276400 -10.744800 13.480000
20.094700 1.808030 46.671900 -10.744800 8.150000
20.265000 1.823350 47.067500 -10.744800 6.980000
-24.571600 -0.279856 45.495900 -10.034400 5.420000
19.950800 2.337360 48.114100 -10.744800 8.230000
-5.412910 1.531670 51.834500 -11.366400 6.480000
20.118400 2.194240 48.518300 -10.744800 5.920000
-5.457640 1.544320 52.262900 -11.366400 9.790000
20.283300 2.212230 48.915900 -10.744800 6.890000
20.824800 2.395310 49.148000 -10.744800 8.740000
20.231800 2.081750 49.874900 -10.833600 11.110000
20.393700 2.098410 50.273900 -10.833600 12.500000
20.555500 2.115060 50.672900 -10.833600 8.300000
20.717400 2.131720 51.071900 -10.833600 9.350000
20.583700 1.976580 51.596700 -10.833600 7.660000
20.341900 1.991900 52.155000 -10.833600 6.850000
20.498400 2.007220 52.556200 -10.833600 8.250000
20.654900 2.022540 52.957400 -10.833600 6.570000
20.660900 1.696230 53.890900 -10.922400 10.870000
-21.387700 -1.517720 53.611900 -10.567200 7.130000
20.815100 1.708880 54.293100 -10.922400 6.130000
-21.130400 -1.529040 54.176500 -10.567200 13.780000
-22.813800 -3.848600 53.842000 -10.478400 8.460000
-20.662400 -3.876900 55.163100 -10.567200 10.460000
20.524400 2.535970 57.128900 -10.922400 9.070000
20.670000 2.553960 57.534100 -10.922400 9.480000
20.818200 2.381530 57.946500 -10.922400 8.050000
20.963700 2.398180 58.351700 -10.922400 6.240000
-8.156390 2.564720 65.805500 -11.366400 5.200000
21.241400 1.187670 63.310600 -11.011200 5.780000
-20.384400 1.394190 63.587500 -10.833600 6.690000
-8.210290 2.374960 66.240400 -11.366400 12.230000
21.378500 1.195330 63.719000 -11.011200 13.020000
21.515500 1.202990 64.127500 -11.011200 9.400000
21.284400 1.800880 65.098200 -11.100000 7.990000
21.047300 1.693640 67.439200 -11.100000 6.670000
21.178400 1.264290 67.859200 -11.100000 9.100000
21.562200 1.511120 69.088900 -11.100000 5.650000
21.690500 1.520120 69.500100 -11.100000 6.790000
13.332800 1.076080 72.021400 -11.366400 7.020000
13.411200 1.082410 72.445000 -11.366400 7.330000
-14.666000 0.000000 74.406800 -11.188800 8.780000
-16.516400 0.178909 75.341800 -11.100000 7.700000
-16.608700 0.179908 75.762700 -11.100000 4.930000
-16.701000 0.180908 76.183600 -11.100000 6.240000
22.347400 1.637050 75.154500 -11.100000 6.690000
22.471600 1.402210 75.572000 -11.100000 8.230000
21.680600 2.095360 76.683000 -11.100000 10.760000
21.797800 2.106680 77.097500 -11.100000 9.680000
21.915000 2.118010 77.512000 -11.100000 11.080000
22.140500 3.147610 78.309500 -11.188800 11.420000
22.257600 3.164270 78.723900 -11.188800 7.790000
21.542200 1.221670 80.315900 -11.188800 5.590000
23.824500 0.969484 80.121900 -11.188800 6.540000
24.568600 0.454766 80.352100 -11.188800 6.460000
21.187700 0.969484 80.859100 -11.188800 6.260000
22.506300 1.215340 79.603400 -11.188800 10.280000
22.374800 3.180920 79.138200 -11.188800 9.520000
-0.996024 2.065420 86.149500 -11.455200 9.750000
-1.668030 2.544340 86.557400 -11.455200 8.180000
30.113300 1.589150 133.667000 -11.277600 10.820000
30.208000 1.594150 134.087000 -11.277600 10.570000
30.302700 1.599150 134.508000 -11.277600 7.800000
-62.604400 -5.912180 139.447000 -10.300800 6.270000
-62.636200 -11.967100 139.518000 -10.300800 7.220000
-60.648100 -12.000700 140.861000 -10.389600 6.460000
-7.043490 2.335730 158.829000 -11.455200 7.400000
-7.062870 1.849020 159.266000 -11.455200 5.630000
-7.082330 0.865222 159.705000 -11.455200 4.950000
-6.175510 1.363290 160.170000 -11.455200 5.010000
-6.191920 1.864010 160.596000 -11.455200 7.270000
-6.208520 1.869010 161.026000 -11.455200 8.250000
-6.291850 0.883879 163.187000 -11.455200 4.880000
-6.308450 0.886211 163.618000 -11.455200 6.040000
-6.325050 0.888543 164.049000 -11.455200 8.590000
-6.341730 0.381805 164.481000 -11.455200 7.290000
6.126640 0.020989 6.659310 -8.702400 3.220000
6.340780 -0.534777 7.026740 -8.880000 7.060000
6.591110 0.021989 6.813480 -8.613600 8.420000
5.431150 -1.306520 8.186430 -9.679200 5.020000
6.835510 0.053639 7.175990 -8.702400 13.950000
7.132710 0.055971 7.487990 -8.702400 14.430000
7.354420 0.058303 7.871210 -8.702400 10.390000
7.144070 -0.367094 10.246000 -9.856800 7.070000
4.644650 -1.760960 12.400000 -10.744800 6.000000
4.794480 -1.817760 12.800000 -10.744800 6.680000
4.295890 -2.591630 13.764800 -11.011200 4.440000
5.774320 -2.897060 13.627800 -10.744800 7.650000
5.923630 -1.210150 14.285700 -10.744800 10.350000
5.974830 -1.243770 14.729000 -10.744800 10.370000
6.027580 -1.869630 15.109200 -10.833600 9.470000
-8.151590 1.668250 14.102600 -9.856800 5.310000
6.221500 -0.701439 15.595300 -10.833600 9.080000
6.998750 -0.402756 15.273100 -10.567200 7.900000
-7.168680 1.712150 15.102600 -10.123200 5.680000
-8.366100 1.712150 14.473700 -9.856800 3.750000
6.381030 -0.719424 15.995100 -10.833600 7.910000
7.268630 -0.413083 15.622900 -10.567200 7.150000
4.674430 -2.112190 16.905800 -11.188800 5.470000
7.109290 -0.423410 16.167800 -10.656000 10.950000
9.061400 -0.996629 15.133300 -10.034400 5.930000
5.846490 -2.163710 16.990200 -11.100000 5.050000
-7.114990 1.955180 16.525300 -10.389600 6.030000
9.401620 -1.020940 15.430400 -10.034400 6.910000
5.851440 -2.215220 17.440400 -11.100000 7.050000
-7.284400 2.001730 16.918700 -10.389600 9.930000
9.503420 -1.045250 15.871500 -10.123200 7.860000
6.029050 -0.454392 17.969700 -11.100000 9.840000
-7.453800 2.048280 17.312200 -10.389600 8.730000
6.413380 -0.464719 18.293300 -11.011200 11.750000
-7.759440 2.094830 17.646400 -10.389600 7.060000
6.555900 -0.475046 18.699800 -11.011200 10.830000
8.112110 -0.766086 18.069200 -10.656000 7.310000
-7.956140 1.485180 18.093700 -10.389600 7.850000
8.288460 -0.782740 18.462000 -10.656000 7.530000
-7.591460 1.517470 18.714200 -10.567200 7.620000
8.074100 1.680770 19.904000 -10.833600 4.960000
8.118090 1.714380 20.349400 -10.833600 4.430000
17.896600 2.045550 14.038800 -7.370400 5.300000
18.393200 2.155800 14.087900 -7.370400 8.320000
18.733800 2.195730 14.348800 -7.370400 8.690000
6.753750 -0.421430 22.712900 -11.100000 6.310000
17.848700 1.629550 15.506000 -7.903200 5.710000
6.730590 1.510240 23.123500 -11.188800 5.810000
18.173200 1.659180 15.787900 -7.903200 10.350000
6.987180 7.294500 22.388100 -11.188800 6.810000
7.763460 -0.734187 23.744500 -11.100000 7.120000
7.758220 -0.668249 24.201200 -11.100000 8.060000
-8.395970 1.618120 24.399200 -10.833600 6.150000
18.056200 1.589580 19.626000 -8.791200 6.530000
18.347400 1.615220 19.942600 -8.791200 4.470000
18.635100 1.725990 20.255300 -8.791200 4.170000
18.108700 1.692140 21.863500 -9.146400 10.610000
9.104930 0.430432 27.847400 -11.100000 7.280000
18.436000 1.833870 22.700400 -9.235200 5.260000
-6.925080 0.000000 28.914400 -11.100000 6.980000
18.703400 1.952600 23.029700 -9.235200 6.420000
18.195400 2.073970 23.967300 -9.412800 8.880000
-7.350250 1.087880 29.677900 -11.100000 12.010000
18.455300 2.103600 24.309700 -9.412800 8.580000
-7.219870 1.294960 30.145200 -11.100000 6.370000
-7.320150 1.312950 30.563900 -11.100000 6.210000
18.651200 2.022650 26.314700 -9.679200 10.730000
18.899800 2.049610 26.665600 -9.679200 6.050000
19.148500 2.076580 27.016400 -9.679200 12.510000
18.335200 1.896030 28.104700 -9.856800 8.490000
18.789100 1.920330 28.321000 -9.856800 5.960000
19.026900 1.944640 28.679500 -9.856800 6.370000
18.823200 1.802300 29.848200 -9.945600 9.970000
19.052800 1.824280 30.212200 -9.945600 5.270000
19.282300 1.846260 30.576200 -9.945600 9.490000
19.511900 1.868240 30.940200 -9.945600 8.410000
19.018000 1.661260 31.761700 -10.123200 5.680000
19.236400 1.796400 32.126400 -10.123200 7.860000
19.457500 1.817040 32.495700 -10.123200 6.700000
9.433920 0.444763 37.169000 -11.277600 4.410000
9.539920 0.449761 37.586600 -11.277600 5.840000
9.645520 0.576019 38.002700 -11.277600 7.470000
9.529270 0.582349 38.476000 -11.277600 8.280000
9.631790 0.836513 38.890000 -11.277600 14.080000
19.223000 2.066050 35.592600 -10.389600 6.040000
19.430500 1.961580 35.976700 -10.389600 6.270000
19.354200 1.982230 36.505700 -10.389600 10.480000
7.288840 -1.098650 41.142200 -11.277600 7.530000
19.555800 2.002880 36.885900 -10.389600 15.910000
10.148900 -1.012050 40.978000 -11.277600 18.860000
19.281400 1.798560 38.493400 -10.478400 17.560000
19.474200 1.816550 38.878300 -10.478400 7.620000
19.337100 0.789223 39.940900 -10.567200 15.400000
19.523700 0.935456 40.326300 -10.567200 10.090000
19.710000 1.084340 40.711200 -10.567200 7.370000
19.622500 1.367110 42.175800 -10.656000 12.230000
19.804200 1.379770 42.566300 -10.656000 7.650000
19.987600 1.245890 42.960600 -10.656000 9.200000
19.579800 2.182820 44.528000 -10.744800 11.030000
19.753100 2.202140 44.922100 -10.744800 7.040000
-22.865400 -1.302520 43.943500 -10.034400 6.660000
19.751800 1.931870 45.875600 -10.744800 9.350000
-23.064200 -1.313850 44.325600 -10.034400 6.370000
19.922100 1.948520 46.271100 -10.744800 5.990000
-22.917800 -1.325170 44.885700 -10.123200 7.400000
20.092400 1.965180 46.666600 -10.744800 10.300000
20.262700 1.981830 47.062100 -10.744800 10.210000
19.955900 2.015140 48.126600 -10.833600 6.310000
-5.413690 1.249580 51.842000 -11.366400 6.630000
20.120900 2.031790 48.524300 -10.833600 8.470000
-5.458110 1.381800 52.267400 -11.366400 8.170000
20.285800 2.048450 48.922000 -10.833600 8.750000
20.450700 2.065100 49.319800 -10.833600 8.660000
19.940700 2.248200 49.984800 -10.833600 15.840000
20.102700 2.098410 50.391000 -10.833600 7.510000
20.262300 2.115060 50.790900 -10.833600 8.720000
20.421800 2.131720 51.190800 -10.833600 17.060000
20.187600 1.804760 51.759200 -10.922400 6.440000
20.344100 1.818750 52.160500 -10.922400 13.830000
20.500600 1.832740 52.561700 -10.922400 5.850000
20.654900 2.022540 52.957400 -10.922400 5.120000
20.660900 1.696230 53.890900 -10.922400 13.740000
-31.175000 0.312506 48.600400 -9.501600 6.090000
-12.448700 2.068510 56.786200 -11.188800 16.380000
20.815100 1.708880 54.293100 -10.922400 6.390000
-21.530000 -2.787510 53.968600 -10.567200 14.650000
-31.406000 0.674641 48.960500 -9.501600 7.430000
-12.540900 2.083830 57.206900 -11.188800 8.080000
-20.106200 -2.989180 54.964100 -10.744800 6.670000
-31.638700 0.679639 49.323200 -9.501600 10.370000
-12.633100 2.099150 57.627500 -11.188800 15.010000
-20.254000 -3.011160 55.368200 -10.656000 15.080000
20.853700 1.241280 55.673800 -11.011200 10.590000
-21.285400 0.689633 55.519800 -10.656000 10.190000
20.572000 1.250270 56.237500 -11.011200 15.110000
-21.438700 0.879853 55.919800 -10.656000 15.150000
20.533500 1.784830 57.154100 -11.011200 10.510000
20.679100 1.797490 57.559400 -11.011200 7.480000
20.824700 1.810150 57.964800 -11.011200 7.040000
20.970400 1.822810 58.370100 -11.011200 8.320000
-18.513200 -1.860780 60.547900 -10.922400 11.380000
-18.637400 -2.070580 60.953900 -10.922400 7.020000
-18.289800 -2.084570 61.508600 -10.922400 8.180000
21.244700 0.154921 63.320400 -11.100000 14.980000
-7.317600 1.962050 66.358400 -11.366400 15.440000
21.381500 0.363813 63.728200 -11.100000 11.240000
21.518100 0.575367 64.135300 -11.100000 6.950000
21.289500 1.006450 65.113700 -11.100000 6.840000
21.423400 1.012780 65.523200 -11.100000 8.460000
21.557300 1.019110 65.932700 -11.100000 6.590000
21.572400 0.382470 67.293400 -11.100000 7.450000
21.703900 0.384802 67.703700 -11.100000 7.270000
12.776600 1.302600 72.118400 -11.366400 8.740000
12.850100 1.765930 72.533200 -11.366400 7.550000
22.543300 2.265850 73.728400 -11.188800 8.540000
21.210000 2.291170 75.018500 -11.188800 5.180000
21.912600 1.637050 75.282500 -11.188800 7.890000
22.034300 1.402210 75.700600 -11.188800 5.860000
21.129400 0.183906 76.418100 -11.188800 10.060000
21.681900 1.910510 76.687500 -11.188800 9.050000
21.799100 1.920840 77.102000 -11.188800 9.780000
21.916300 1.931160 77.516500 -11.188800 11.290000
21.582600 1.941490 78.057100 -11.188800 5.940000
22.047400 0.703633 79.737900 -11.188800 8.660000
22.161500 0.964487 80.150700 -11.188800 13.600000
22.275400 1.228000 80.562700 -11.188800 14.020000
22.387800 1.753980 80.969100 -11.188800 10.150000
-0.990465 3.579140 85.668600 -11.455200 10.200000
16.387000 0.864882 100.360000 -11.366400 6.310000
16.456500 0.868547 100.785000 -11.366400 12.290000
30.115400 0.000000 133.676000 -11.277600 11.210000
30.210000 0.318837 134.096000 -11.277600 7.990000
30.304300 0.746283 134.515000 -11.277600 11.020000
21.274000 1.224030 142.334000 -11.455200 11.120000
22.437900 0.781265 142.595000 -11.455200 9.430000
-61.129400 -8.580740 139.019000 -10.389600 10.930000
-61.302500 -8.605040 139.413000 -10.389600 14.410000
-61.475700 -8.629350 139.807000 -10.300800 13.550000
-61.613900 -10.074300 140.121000 -10.300800 7.220000
-60.702100 -10.102600 140.987000 -10.300800 6.430000
-6.986510 1.829030 157.544000 -11.455200 5.610000
-6.092310 1.834020 158.012000 -11.455200 5.390000
-7.044230 0.368812 158.846000 -11.455200 6.270000
-7.063320 0.369811 159.276000 -11.455200 7.520000
-7.082330 0.865222 159.705000 -11.455200 7.120000
-7.101270 1.363290 160.132000 -11.455200 4.740000
-7.120360 1.366950 160.562000 -11.455200 6.850000
-7.139450 1.370620 160.993000 -11.455200 7.080000
-6.291920 0.378807 163.189000 -11.455200 6.190000
-6.308530 0.379806 163.620000 -11.455200 4.180000
-6.325130 0.380806 164.051000 -11.455200 8.540000
-0.435788 0.274333 0.691035 0.000000 0.910000
6.835600 0.022988 7.176080 -8.791200 10.010000
7.132810 0.000000 7.488100 -8.791200 12.030000
7.430020 0.000000 7.800100 -8.791200 9.350000
6.431590 -0.098948 9.694420 -9.945600 4.360000
6.669800 -0.102613 10.053500 -9.945600 6.360000
5.678190 -0.482967 11.121000 -10.478400 6.650000
6.330320 -0.560193 10.759500 -10.212000 6.090000
5.873990 -0.499621 11.504500 -10.478400 5.530000
6.548600 -0.579510 11.130500 -10.212000 7.170000
5.977990 -0.516275 11.934400 -10.478400 6.360000
-1.632350 1.525220 13.169800 2.664000 7.450000
-1.819310 1.579920 14.014100 2.664000 15.760000
4.731080 -1.796550 13.748800 -11.011200 16.720000
-1.985670 1.627800 14.423900 2.664000 5.850000
5.264250 -1.490140 14.054100 -10.922400 13.840000
-2.616370 1.582940 14.768200 2.664000 7.990000
5.527580 -1.484970 14.417900 -10.922400 8.680000
-1.484420 1.580450 15.360100 2.752800 10.710000
5.727570 -2.394680 14.685000 -10.922400 4.710000
-7.516270 2.003990 13.916800 -10.034400 10.370000
-2.253810 1.624350 15.699400 2.664000 7.370000
5.293050 -1.869630 15.381900 -11.011200 6.650000
-7.527750 1.466620 14.467100 -10.034400 7.670000
9.120290 1.466620 13.519800 -9.856800 7.990000
5.525440 -1.867180 15.760500 -11.011200 5.980000
-7.613260 1.453440 14.911000 -10.123200 8.440000
9.466960 1.505210 13.803000 -9.856800 6.600000
5.008570 -1.915060 16.380700 -11.100000 5.300000
6.344820 -1.968030 15.904400 -10.922400 7.020000
-7.601500 1.490710 15.397200 -10.212000 6.720000
5.808790 -1.962940 16.568800 -11.100000 6.310000
7.064830 -2.017230 16.066700 -10.833600 8.290000
5.854260 -1.955180 17.012800 -11.100000 10.490000
-7.237140 2.066430 16.458600 -10.478400 10.290000
5.883270 -1.102450 17.535200 -11.100000 6.550000
-7.407460 2.158320 16.845900 -10.478400 9.810000
5.779560 -1.011010 18.028900 -11.100000 9.480000
-7.587010 2.048280 17.254200 -10.478400 8.410000
6.159070 -1.033980 18.357200 -11.188800 7.700000
7.285760 -0.569628 17.960600 -10.922400 8.420000
-7.253240 1.915890 17.880500 -10.567200 6.600000
-7.902840 1.915890 17.603000 -10.389600 5.720000
7.449260 -0.413759 18.363700 -10.922400 7.850000
-8.335850 1.546310 17.916800 -10.567200 8.190000
7.754590 -0.532334 18.701300 -10.922400 7.200000
-8.411100 1.579920 18.355200 -10.389600 9.320000
7.919580 -0.543660 19.099200 -10.922400 8.890000
-8.443770 1.661360 18.807900 -10.478400 7.030000
-14.219500 1.661360 14.927800 -12.165600 8.240000
-8.619680 1.695970 19.199700 -10.478400 6.710000
-14.515800 1.695970 15.238800 -12.165600 3.960000
6.528460 1.886140 21.351500 -11.188800 5.770000
6.496420 -1.429340 21.847500 -11.188800 7.090000
6.619000 -1.456310 22.259700 -11.277600 9.220000
6.927300 -0.622944 22.655900 -11.277600 6.780000
7.040460 1.584720 23.026000 -11.188800 6.900000
7.177900 -0.797454 23.475500 -11.188800 10.340000
8.414110 1.840340 23.001600 -11.011200 8.960000
7.441790 -0.811444 23.844700 -11.188800 7.330000
-7.744980 1.872620 23.687900 -10.922400 8.250000
7.572430 -0.530691 24.263400 -11.188800 9.880000
-7.190160 2.554520 24.702300 -11.100000 8.020000
7.648060 2.597100 25.013200 -11.188800 9.460000
8.314740 0.417772 27.193600 -11.188800 7.090000
-7.947210 0.417772 27.303200 -11.011200 4.230000
18.383000 1.717780 22.194800 -9.235200 7.640000
9.088060 1.833870 27.795800 -11.188800 7.400000
18.657400 1.743410 22.526000 -9.235200 13.430000
18.931800 1.769050 22.857300 -9.235200 7.180000
18.195400 2.073970 23.967300 -9.501600 5.380000
18.459200 2.009200 24.314800 -9.501600 10.820000
18.719100 2.037490 24.657300 -9.501600 8.640000
7.965200 1.410140 30.397800 -11.366400 5.240000
18.975200 2.162860 24.994500 -9.501600 13.610000
8.074310 1.429460 30.814200 -11.366400 6.470000
8.363810 1.448780 31.182800 -11.277600 9.350000
18.454600 1.823100 26.467400 -9.768000 7.540000
8.479390 1.063270 31.613700 -11.277600 6.310000
18.700700 1.847410 26.820300 -9.768000 7.180000
8.590960 1.077260 32.029700 -11.277600 6.480000
-12.921600 1.974160 30.495900 -14.208000 7.340000
18.551200 1.896030 27.962500 -9.945600 6.600000
-13.089400 1.999800 30.892000 -14.208000 5.900000
-6.379700 1.920330 33.382800 -11.366400 4.890000
18.789100 1.920330 28.321000 -9.945600 6.470000
-13.257300 2.025440 31.288000 -14.208000 10.600000
-13.917400 2.025440 31.000000 -14.030400 5.010000
19.023500 2.051080 28.674300 -9.945600 6.650000
-18.361900 1.838190 29.116700 -13.586400 14.360000
19.261300 2.076710 29.032800 -9.945600 6.230000
-18.823200 1.672510 29.344500 -13.586400 7.420000
-15.613600 1.672510 31.171000 -13.586400 6.790000
18.823200 1.802300 29.848200 -10.123200 13.640000
19.052800 1.824280 30.212200 -10.123200 7.240000
19.282300 1.846260 30.576200 -10.123200 7.900000
19.511900 1.868240 30.940200 -10.123200 6.700000
