VERSION .7
FIELDS x y z velocity SNR
SIZE 4 4 4 4 4
TYPE F F F F F
COUNT 1 1 1 1 1
WIDTH 234
HEIGHT 1
VIEWPOINT 0 0 0 1 0 0 0
POINTS 234
DATA ascii
-0.598884209708478 3.02975109340697 -0.559956516778663 0 5.13936589666848
0.072859618407325 3.13022140920966 -0.219113419609042 0 5.13936589666848
-0.690950861050133 9.87349379256721 3.05298031321932 3.55843826770973 12.0323946474513
5.90489916601415 8.42400284924649 1.20512380784973 3.55843826770973 12.0323946474513
-4.58223572578377 8.90268791388494 -2.65127237726941 3.71315297500145 9.16513142298788
-0.722290788843364 10.3213325608056 -0.482049523139893 3.71315297500145 9.16513142298788
1.8915974143284 9.98356695445728 2.00853967974955 3.71315297500145 9.16513142298788
5.88704498364697 8.39853184984353 1.44614856941968 3.71315297500145 9.16513142298788
-0.661491900893586 10.6395637741328 0.496657084447162 3.403723560418 29.4647928981837
1.90018315624772 10.4802356710502 0.662209445929551 3.403723560418 29.4647928981837
-0.660933271738339 10.6305786746701 0.662209445929551 3.55843826770973 185.403079024598
1.89558691874817 10.4548856662167 0.993314168894325 3.55843826770973 185.403079024598
1.88913339959556 10.4192920438837 1.3244188918591 3.71315297500145 88.7471541966618
-0.595829101907825 10.9574522991667 0.511264645754432 3.403723560418 149.423536473325
6.64624044933133 8.7465645689498 0.085210774292405 3.403723560418 149.423536473325
6.55945296803958 8.80854094732882 0.255632322877217 3.55843826770973 916.623657492346
6.55155090571176 8.79792944665611 0.596475420046837 3.71315297500145 402.69649900198
6.83613303359794 8.99646641377693 0.0876453678436166 3.403723560418 184.485856067733
6.83613303359794 8.99646641377693 0.0876453678436166 3.55843826770973 1013.83869780377
6.73873807444638 9.04929885941772 0.613517574905318 3.71315297500145 455.084781766638
7.35135062666878 8.55909134469475 0.613517574905318 3.71315297500145 455.084781766638
5.73489102432085 9.82314446959173 2.34207899626554 1.39243236562554 7.28396283870451
5.72535184361732 9.8068050570772 2.43215895766037 1.54714707291727 6.46046347953373
6.84905315202342 8.83282559302616 3.152798648819 2.16600590208418 5.01569884012889
9.98721648020819 5.27456385240603 -2.70239884184486 2.16600590208418 5.01569884012889
6.64160888731077 9.47500213251782 -0.990879575343113 2.32072060937591 5.31280774218676
7.02285429047307 9.24219473824916 0.360319845579314 3.403723560418 35.2548075308028
7.02285429047307 9.24219473824916 0.360319845579314 3.55843826770973 138.425468238853
6.99573382034172 9.20650374197051 1.08095953673794 3.71315297500145 69.4834875107767
5.82594559204407 10.1876325756639 2.12783476375892 2.16600590208418 6.02644080806914
6.58048292623033 9.57895369120211 2.68292209343516 2.16600590208418 6.02644080806914
6.83809416662903 9.36987726169252 2.7754366483812 4.02258238958491 6.6031932934404
5.8772322694166 10.4932464442645 2.27877956393404 1.54714707291727 6.06326328406186
5.25443726202334 11.1395389431075 2.43459355121158 0.773573536458636 6.05773920517748
5.80334070369941 11.036897787353 1.46075613072695 0.773573536458636 6.05773920517748
5.15890203907746 11.1841033863582 2.43459355121158 0.928288243750363 11.4604033982568
6.35867909537728 10.2421749604296 3.50581471374468 0.928288243750363 11.4604033982568
5.94923229332568 10.846301700071 2.14244232506619 1.08300295104209 14.9972756217619
5.93224909570743 10.8153389008194 2.33720980916312 1.23771765833382 9.33741111022013
5.80867297231862 10.815334641693 2.62936103530851 1.39243236562554 7.36179180811111
6.06818300441349 10.8341710545546 1.8502910989208 1.54714707291727 6.61934046839208
6.02793053273497 10.7623040453994 2.33720980916312 1.85657648750073 5.97075444239122
5.48372179709345 11.371322153653 2.49545838999187 0.773573536458636 5.80113539669146
5.27065654127599 11.4263785637141 2.69509506119122 0.928288243750363 11.5125676166225
6.48609764514401 10.4474130390211 3.79309675278764 0.928288243750363 11.5125676166225
6.08055532310012 11.0857223733399 2.39564005439219 1.08300295104209 14.3955594983586
5.50009496207328 11.1581347375669 3.29400507478927 1.23771765833382 7.07083792993759
6.08055532310012 11.0857223733399 2.39564005439219 1.23771765833382 7.07083792993759
5.3992091398437 11.7050707238047 2.76082908707393 0.773573536458636 6.32208096555166
5.70866075352354 11.581255650696 2.65857615792305 0.773573536458636 6.32208096555166
5.6892945735571 11.5419671571504 2.86308201622482 0.928288243750363 8.20800273335918
5.5353972403921 11.4784789597283 3.37434666197925 1.08300295104209 6.96006848763198
6.59221284420108 10.6183369712405 4.19237009518634 1.08300295104209 6.96006848763198
5.86288005386247 11.8941229273851 2.51250054485035 0.773573536458636 5.5725204678641
5.72256530205743 11.8666000943926 2.93125063565874 0.928288243750363 5.85482773206515
5.7015688203749 11.8230607307742 3.14062568106294 1.08300295104209 5.39788198182482
6.61242269071711 10.8705093788064 4.50156347619021 1.08300295104209 5.39788198182482
6.04092823325158 11.9921314254013 -1.36093779512727 1.23771765833382 6.06746923342553
6.44905536147997 11.5141828906197 2.82656311295664 1.23771765833382 6.06746923342553
6.0306382145943 11.9717042242588 -1.57031284053147 1.39243236562554 5.92504243847721
6.66585184358796 11.6563480234046 1.36093779512727 1.39243236562554 5.92504243847721
6.104475682357 12.1182824624599 2.57093079007943 1.08300295104209 6.55936696313486
7.28079696365052 11.7274665436861 -0.428488465013239 1.08300295104209 6.55936696313486
-2.24929373368895 13.6243111911118 0.214244232506618 1.23771765833382 16.4598241671011
1.16805397735962 13.6398830830152 1.82107597630626 1.23771765833382 16.4598241671011
3.74204867087147 13.2661124904797 0.856976930026477 1.23771765833382 16.4598241671011
4.13684242094111 13.0344031403045 1.92819809255957 1.23771765833382 16.4598241671011
6.09514722394708 12.0997640998956 2.67805290633274 1.23771765833382 16.4598241671011
6.44670864338203 11.7532722662422 3.3207856038526 1.23771765833382 16.4598241671011
7.28079696365052 11.7274665436861 -0.428488465013239 1.23771765833382 16.4598241671011
6.25235114935651 12.411837023345 2.51980432550398 1.08300295104209 10.6689934451887
7.01141849599789 12.2606286555413 -0.109556709804521 1.08300295104209 10.6689934451887
7.44985626670744 11.9997770243103 -0 1.08300295104209 10.6689934451887
7.01078566344609 12.2595220428176 -0.219113419609041 1.23771765833382 26.8899330588507
1.19053417241259 13.9023942667012 2.19113419609042 1.39243236562554 21.7735958143272
7.11925785956058 12.1943901242695 -0.328670129413564 1.39243236562554 21.7735958143272
-8.92060144257145 10.6026509192778 2.73891774511303 1.85657648750073 6.60794851473004
-8.38597961270842 11.2613422433127 1.5337939372633 1.85657648750073 6.60794851473004
6.89874979677448 12.3170700861308 -0.438226839218085 1.85657648750073 6.60794851473004
-2.75871658763086 13.9563282221836 2.46380867382612 0.773573536458636 6.56423506384638
5.71138464986495 13.2599966503264 -0.111991303355732 0.773573536458636 6.56423506384638
7.13312420020234 11.7265179715971 4.47965213422931 0.928288243750363 5.81375881417997
6.23113215199111 12.6412021244981 3.13575649396051 1.08300295104209 7.49284548113177
6.79664980854208 12.6548770213241 -1.45588694362452 1.08300295104209 7.49284548113177
7.04780709113828 12.5831978912567 0.671947820134396 1.23771765833382 10.9557218437742
7.05014394909788 12.5873701317521 0.559956516778664 1.39243236562554 12.1671387241504
-9.33454150388394 10.8680972313779 1.79186085369172 1.85657648750073 5.22089479508107
-8.83772635237974 11.3975017826223 0.671947820134396 1.85657648750073 5.22089479508107
6.57811072618483 12.7804133970401 3.31835101030138 0.773573536458636 8.14803797738003
6.82495310471508 12.9798186365657 -1.60196255669722 0.928288243750363 5.0035726466153
5.75625464542249 16.2700713911227 -0.401707935949912 0 6.86533952911009
5.86232490915379 16.569879316534 -0.136337238867848 -0.154714707291727 5.33168333573971
5.86179579082576 16.5683837619588 -0.272674477735696 0 10.8172043524949
5.96647071566193 16.864247757708 -0.277543664838119 0 6.20466187051767
-1.10460010621141 17.7666019176867 3.81257350119733 -0.309429414583454 6.25421719410814
6.06291946524866 17.1368604439116 -0.988444981791901 -0.309429414583454 6.25421719410814
6.32575055892008 16.1575145122063 5.50705061284059 -0.309429414583454 6.25421719410814
5.59293380919778 17.1367083965947 -2.54171566746489 -0.154714707291727 8.54949669275857
6.1943639519958 17.0600097173158 -1.41206425970272 -0.154714707291727 8.54949669275857
-4.22994381296418 17.6787599580785 -0.988444981791901 0 5.10456215013891
5.0018809194852 17.2000384682867 -3.24774779731625 0 5.10456215013891
6.46238834254821 16.9196868959817 -1.83568353761353 0 5.10456215013891
6.8103704732841 16.185705957444 4.80101848298924 0 5.10456215013891
5.3121590145886 17.7309115024002 -0.574564078085934 -0.309429414583454 26.9974914036821
5.8885730971792 17.5549581569217 0.287282039042966 -0.309429414583454 26.9974914036821
6.44807622904825 17.3114251517548 1.29276917569335 -0.309429414583454 26.9974914036821
7.01274335033434 17.0663191357481 1.58005121473632 -0.309429414583454 26.9974914036821
6.026385773582 17.4892617271401 -0.861846117128899 -0.154714707291727 17.5675478842534
6.60748689798823 17.2995808294584 -0 -0.154714707291727 17.5675478842534
7.01720461803286 17.077176144837 1.43641019521483 -0.154714707291727 17.5675478842534
-12.7285510362489 13.3396871620445 -1.7236922342578 2.01129119479245 5.24878877005459
-0.855992753795662 18.3727866511163 -2.15461529282225 2.01129119479245 5.24878877005459
-12.5855336088753 13.4747025512061 -1.7236922342578 2.16600590208418 29.3369689601191
-0.85674943229402 18.3890277846447 -2.01097427330077 2.16600590208418 29.3369689601191
-0.857453325810369 18.4041359562311 -1.86733325377928 2.32072060937591 14.0959330484432
5.40414728223969 18.0379497195359 -0.292151226145389 -0.309429414583454 28.7448423868014
5.98621675487309 17.8460525013098 0.58430245229078 -0.309429414583454 28.7448423868014
6.54943170041602 17.5835385068048 1.60683174379964 -0.309429414583454 28.7448423868014
7.11537664108593 17.3160890768989 2.04505858301773 -0.309429414583454 28.7448423868014
6.53989824770621 17.5579436398768 1.89898296994503 -0.154714707291727 17.732382295205
7.10236853556387 17.2844323529749 2.33720980916312 -0.154714707291727 17.732382295205
-0.871986433027494 18.7160704639638 -1.89898296994503 2.01129119479245 16.5386327724019
-0.872648709398135 18.7302853768914 -1.75290735687234 2.16600590208418 106.710729117759
-0.872648709398135 18.7302853768914 -1.75290735687234 2.32072060937591 54.4192392919706
5.93969340930849 18.1991772820739 0.297020413247812 -0.309429414583454 5.89001184067644
-1.03578049484357 19.0482729499363 -1.63361227286297 2.01129119479245 11.469010737568
-1.03643942300243 19.0603908103197 -1.48510206623906 2.16600590208418 72.3760660520545
-0.4406656705586 18.9320387127855 -2.82169392585422 2.16600590208418 72.3760660520545
-1.03643942300243 19.0603908103197 -1.48510206623906 2.32072060937591 38.5858213738805
-0.4406656705586 18.9320387127855 -2.82169392585422 2.32072060937591 38.5858213738805
-0.597186263926408 19.2383453454105 -2.86795120332724 2.16600590208418 12.4404967261276
-0.597865338224591 19.2602217123881 -2.71700640315212 2.32072060937591 7.20886701088101
-1.53005198655382 19.6663064753109 -1.38041454353697 2.16600590208418 6.2388888071858
-0.760968057381843 19.6063428602731 -2.45407029962127 2.16600590208418 6.2388888071858
-0.302661830481786 19.5075364781828 -3.22096726825292 2.16600590208418 6.2388888071858
-8.56630373252319 19.8881997558372 -0.335973910067197 -0.773573536458636 6.66233625416077
-6.87419200642559 20.4932758826165 1.34389564026879 -0.773573536458636 6.66233625416077
5.70536764520717 20.8678652826057 -1.00792173020159 -0.773573536458636 6.66233625416077
7.05460307384263 20.4732660959714 -0.335973910067197 -0.773573536458636 6.66233625416077
5.87671278984492 20.8338105143264 -0.671947820134397 -0.618858829166909 9.6013516095044
7.22343906644476 20.4170726522567 -0 -0.618858829166909 9.6013516095044
-8.86165393244178 20.1039972408022 0.17042154858481 -0.773573536458636 5.84767030457634
7.15748971466451 20.7718549114184 -0.17042154858481 -0.773573536458636 5.84767030457634
5.67039399432049 20.1023800624371 6.81686194339243 -0.618858829166909 5.83353160737318
7.15770504056205 20.7724798118347 -0 -0.618858829166909 5.83353160737318
16.1995701780219 22.1974106471053 2.78517502258605 2.93957943854282 9.37993695267374
16.8390268955754 21.7163138354318 2.78517502258605 2.93957943854282 9.37993695267374
16.3557485499262 22.4114135754088 3.25018239086746 2.93957943854282 6.13130517228429
17.0163990351956 21.9450603701064 3.03350356480963 2.93957943854282 6.13130517228429
-17.2760657392003 22.7355940004457 -0.664644039480763 -1.23771765833382 5.45707229507171
-17.2466607167828 23.1601503766666 -0 -1.23771765833382 6.52897068722391
-14.213614660656 27.6152042418978 0.964099046279787 -0.773573536458636 7.0311592984264
-13.252772323182 28.0962101241978 -0.723074284709841 -0.773573536458636 7.0311592984264
-13.9689187562871 27.7303591646843 1.20512380784973 -0.618858829166909 14.366036193835
-14.1138443814081 28.0180578553909 0.973837420484633 -0.773573536458636 11.430373354545
-14.1100189457445 28.0104638027114 1.21729677560579 -0.618858829166909 23.0029395048496
-14.1100189457445 28.0104638027114 1.21729677560579 -0.464144121875182 5.32162066160782
-14.2549828252222 28.2982384339448 0.98357579468948 -0.618858829166909 9.51544642091718
-14.2549828252222 28.2982384339448 0.98357579468948 -0.464144121875182 6.07026699341053
-13.276675350151 28.7828124314909 -0.491787897344738 -0.464144121875182 6.07026699341053
-14.402622160529 28.5913242386748 0.24832854222358 -0.464144121875182 7.11159983980722
-13.658069822297 28.9554510000127 -0 -0.464144121875182 7.11159983980722
-5.88035829237212 33.9539981410343 5.13455779950522 0.928288243750363 6.21929390549062
15.2325175550247 31.5869168310416 2.45407029962127 0.928288243750363 10.1687520079918
16.6286392124848 30.9613398061921 0.818023433207093 0.928288243750363 10.1687520079918
-16.0445503677059 39.9954454019614 -4.36766083087357 -1.54714707291727 5.23004394506292
-11.4227692997299 41.7797459733012 0.335973910067197 -1.54714707291727 5.23004394506292
5.6976221594528 42.8314563882303 3.02376519060478 -1.54714707291727 5.23004394506292
-16.0874037443373 40.1022692048149 -3.02376519060478 -1.39243236562554 6.40072628677876
-13.7413240316215 40.9655046162835 3.02376519060478 -1.39243236562554 6.40072628677876
-11.4176134202701 41.7608879075865 1.34389564026879 -1.39243236562554 6.40072628677876
5.73561207624063 43.1170427992896 3.3840850361841 -1.54714707291727 5.44193226043684
8.70254499125014 42.2652639175637 6.42976156874979 -1.54714707291727 5.44193226043684
-18.0528272689472 39.1371429545652 -6.7681700723682 -1.39243236562554 5.17755551769283
-13.824152318767 41.2124315187866 3.72249353980251 -1.39243236562554 5.17755551769283
-18.2544689966144 39.5742867328636 9.3342316753452 -0.464144121875182 6.19750694088483
14.2175986168846 43.5626184591529 0.35545065847689 -0.309429414583454 6.10402384467016
-22.3838798644115 39.1419281340072 11.1699152129587 0.154714707291727 6.13101624494226
-21.2412790201137 40.3970466990152 8.64767629390353 0.154714707291727 6.13101624494226
-21.4745774960887 40.8407379390693 7.61784322174104 0.154714707291727 6.25033438469149
-20.0429389963495 41.5620494012491 7.61784322174104 0.154714707291727 6.25033438469149
-22.8425271048755 40.783187618522 1.4510177565221 0.309429414583454 20.7219416185653
-22.8425271048755 40.783187618522 1.4510177565221 0.464144121875182 8.68852658181221
-22.9895998340148 41.0457721687567 1.82594516340869 0.309429414583454 17.1354636530753
-22.9958326559149 41.0569002871027 1.46075613072695 0.464144121875182 8.10334644790493
14.1756934793342 51.848799272867 5.0250010897007 -0.928288243750363 6.17368294251416
14.1756934793342 51.848799272867 5.0250010897007 -0.773573536458636 9.46987427099883
14.2926820013416 52.2766946984865 3.36947747487683 -0.928288243750363 6.66394635053553
14.5804952744935 51.6899985785839 8.00250900283247 -0.773573536458636 14.1122514915297
40.3530489857343 36.1713064573125 6.77790844657304 1.85657648750073 5.99908816963144
-33.1681586736335 43.6498564389579 3.40843097169622 1.701861780209 7.32468057858139
-33.1511263753328 43.6274416470195 3.83448484315824 1.85657648750073 22.0735403137698
-35.1822303881232 41.8161162975744 5.53870032900634 2.01129119479245 11.019296465537
-33.5933914771416 43.3234436074105 3.40843097169622 2.01129119479245 11.019296465537
-33.3576910089114 43.8992841900377 3.42790772010591 1.701861780209 5.15099886683216
-33.3405613831919 43.8767413135739 3.85639618511915 1.85657648750073 14.2693495899956
-33.7680044778482 43.5486318410658 3.85639618511915 2.01129119479245 6.50966091709936
-1.29949387857492 2.69469606167982 -0.949491484972516 0 5.62530400133259
-0.972067541883512 2.82105133909366 -0.973837420484632 0 5.62530400133259
-0.59800898142212 3.02532331953251 -0.584302452290779 0 5.62530400133259
0.072859618407325 3.13022140920966 -0.219113419609042 0 5.62530400133259
6.5643208366615 7.17860390303984 0.226417200262678 0.20764342294416 8.4202208772532
7.51228880745943 6.57695469515181 1.09069791094279 0.20764342294416 29.9119358873233
7.85830220883009 6.71699059336759 0.642732697519858 0.20764342294416 109.991048363118
8.09643257879464 6.92053576286358 0.662209445929551 0.20764342294416 74.6982222581073
0.275658683425723 11.8429485544354 1.3877183241906 -0.934395403248721 10.3982465459335
0.270430805187549 11.6183465493249 -2.68292209343516 0 6.10407177912719
3.11468555236359 11.3922261537348 -1.66526198902872 0 6.10407177912719
5.9883794208602 11.3888077496105 0.199636671199349 -1.24586053766496 7.31985247820898
6.13517574905318 11.6679876483182 -0 -1.14203882619288 6.33172148984871
6.46478935332978 11.5422744559116 -3.96351830137245 -1.0382171147208 8.76756596311376
-0.902554660150211 16.5982151665973 -0.645167291071069 -1.5573256720812 5.70654785882121
7.36388024257544 14.6183858274952 -2.96776953892692 -1.45350396060912 13.0775245183081
-0.781920431125034 16.7829192426067 -2.23495688001223 -1.45350396060912 7.12432816415735
8.51426121054083 14.5838547878751 1.44614856941968 -1.45350396060912 7.12432816415735
-4.64548115681079 16.4689134265866 -6.21308274269195 -1.66114738355328 5.13798469873594
-8.38227977712831 16.2856791593536 -2.72917937090818 0.830573691776641 13.4083979686818
-0.711933725870016 18.3429732533373 -2.44189733186521 0.830573691776641 13.4083979686818
-8.40081796526619 16.3216964472796 -2.44189733186521 0.934395403248721 16.6618853812345
-0.712652625167123 18.3614956945415 -2.29825631234373 0.934395403248721 16.6618853812345
-0.870501105554911 18.6841898146945 -2.19113419609042 0.830573691776641 64.9921917547907
-0.870501105554911 18.6841898146945 -2.19113419609042 0.934395403248721 79.6330626156388
-0.870501105554911 18.6841898146945 -2.19113419609042 1.0382171147208 12.6176401848061
-0.888376648287799 19.0678654141058 -1.48510206623906 0.830573691776641 108.898644358281
-0.887811852723061 19.0557428016579 -1.63361227286297 0.934395403248721 132.29391936117
-0.295263928643701 19.0307177140237 -2.07914289273469 0.934395403248721 132.29391936117
-0.886519540244619 19.0280049716965 -1.93063268611078 1.0382171147208 11.430516596858
-1.79903561814682 19.2440303251405 -2.26417200262677 0.830573691776641 23.3313833320278
-0.300350882487247 19.3585883857494 -1.96228240227653 0.830573691776641 23.3313833320278
-1.79903561814682 19.2440303251405 -2.26417200262677 0.934395403248721 29.7891579098178
-0.300104320916548 19.3426966929421 -2.11322720245165 0.934395403248721 29.7891579098178
-1.22467047410339 19.6978369560063 -1.22703514981064 0.830573691776641 5.24631724932917
-1.22467047410339 19.6978369560063 -1.22703514981064 0.934395403248721 6.05105530270482
-19.2463439451301 40.8027324712331 -6.00127310373654 -1.34968224913704 5.4428052032988
