VERSION .7
FIELDS x y z velocity SNR
SIZE 4 4 4 4 4
TYPE F F F F F
COUNT 1 1 1 1 1
WIDTH 216
HEIGHT 1
VIEWPOINT 0 0 0 1 0 0 0
POINTS 216
DATA ascii
-1.30601805117773 2.70822491511142 -0.900799613948285 0 5.30353711024626
-0.85399201638173 2.93663439210528 -0.706032129851358 0 5.30353711024626
-0.59800898142212 3.02532331953251 -0.584302452290779 0 5.30353711024626
0.072859618407325 3.13022140920966 -0.219113419609042 0 5.30353711024626
0.456394823742378 3.06299159518672 0.511264645754432 0 5.30353711024626
4.01975275790379 7.48449283696619 2.2495644413195 3.55843826770973 9.6617634601752
4.08559736107593 7.60709079024224 1.63604686641418 3.71315297500145 8.67663309516466
4.27997798797538 7.48425169520402 1.70421548584811 3.71315297500145 8.67663309516466
4.16896950505669 7.29013494301502 2.59040753848912 3.86786768229318 6.0840449891366
4.59006291927266 7.39339519944456 1.22703514981064 3.86786768229318 6.0840449891366
5.00759715221364 7.00137206420341 1.77238410528203 4.17729709687663 5.51051289044986
4.93261081911646 7.03692415843729 1.84055272471595 4.33201180416836 7.2224456381176
5.39827079783639 6.28514339861069 2.93125063565874 4.33201180416836 7.2224456381176
4.25976814873312 7.93138437025555 1.34146104671758 3.24900885312627 9.44799496750101
4.25976814873312 7.93138437025555 1.34146104671758 3.403723560418 17.2884572120022
4.26918902055613 7.94892536143683 1.20025462074731 3.55843826770973 21.6517792627131
4.29109062149479 7.98970457976592 0.776635342836494 3.71315297500145 19.376068097215
4.50209738132455 7.71152456173462 1.7650803246284 3.71315297500145 19.376068097215
4.86575260143827 7.37468956099152 2.18869960253921 4.17729709687663 5.96041193092454
5.22451969284037 7.30466231896536 1.48266747268785 4.17729709687663 5.96041193092454
4.30566466623927 8.18859054709766 1.75290735687234 3.09429414583454 6.46496163610535
4.58569070140219 8.0188411020043 1.82594516340869 3.09429414583454 6.46496163610535
4.41640243505806 8.22302623596913 1.24164271111791 3.24900885312627 21.1832587934798
4.40136875861623 8.1950346030457 1.46075613072695 3.403723560418 25.0680358317809
4.40665670558599 8.20488038302298 1.3877183241906 3.55843826770973 23.5160443601684
4.6573421186116 7.97743920179443 1.82594516340869 3.71315297500145 24.4580294684394
5.42481234251251 7.28485772875015 2.48328542223581 4.33201180416836 6.35751045421724
4.56822411590179 8.50570737364279 1.20755840140094 3.24900885312627 11.536239827742
4.5587232039625 8.48801735347563 1.35850320157606 3.403723560418 10.1650578120634
4.55354526243885 8.47837639579042 1.43397560166362 3.55843826770973 6.77007722222605
4.81995239026229 8.2559700725451 1.81133760210141 3.71315297500145 7.65284633107849
5.33086544038005 7.91806469183873 1.88681000218897 3.71315297500145 7.65284633107849
4.86777979563306 8.3378923811941 1.20755840140094 3.86786768229318 6.28758805870684
5.47894503594616 7.81633137096058 1.88681000218897 3.86786768229318 6.28758805870684
5.61666899496122 7.85294587401373 1.20755840140094 4.02258238958491 7.38886905586406
5.57844524119736 7.6438472398018 2.26417200262677 4.33201180416836 5.78390114286489
5.99432529005424 8.04964377766278 0.389534968193853 4.17729709687663 5.04981386675668
6.38356719200581 7.74459621512936 -0.389534968193853 4.17729709687663 5.04981386675668
6.32786317509916 8.16067718581964 0.803415871899822 4.64144121875182 5.74110145403433
6.07483881675821 8.32402899266448 1.04444063346977 4.79615592604354 5.3356027626892
6.32384016406836 8.15548894242232 0.883757459089804 4.79615592604354 5.3356027626892
-2.28339638663879 12.0514230654454 -3.89291508838732 2.47543531666763 5.0801406402117
-0.0993849919036762 12.8125264742006 1.1978200271961 2.47543531666763 5.0801406402117
4.6913206395097 11.9827806373749 0.0998183355996745 2.47543531666763 5.0801406402117
4.5993263043113 12.0418577275897 2.76082908707393 1.701861780209 5.11532747046669
5.23885810251396 11.6168183087965 3.37434666197925 2.32072060937591 6.43074841697127
4.67451806677418 12.5498779417239 1.67500036323357 1.701861780209 8.98944262180989
5.37784729194857 12.2004569285859 2.09375045404196 1.701861780209 8.98944262180989
4.74499253072508 12.4232379250646 2.30312549944615 1.85657648750073 5.751721075051
5.4940931686042 12.1827850387182 1.88437540863776 1.85657648750073 5.751721075051
6.10882373611596 11.6178709158827 3.14062568106294 1.85657648750073 5.751721075051
4.68136150098419 12.893022320932 1.60683174379964 1.701861780209 7.65447581592647
5.23732808979547 12.4471719705454 2.89229713883936 1.701861780209 7.65447581592647
5.00538135694074 13.4381607224669 1.67986955033599 1.85657648750073 5.16949479776634
7.30194292413053 12.2525416367063 2.23982606711465 3.09429414583454 5.79708881495389
5.1366030977164 13.7904573242793 1.0298330721625 1.85657648750073 5.15345491659967
5.72112273110939 13.5969710657358 0.114425896906944 1.85657648750073 5.15345491659967
5.58252771595529 13.5857245624296 1.37311076288333 2.01129119479245 5.78858647910282
6.52149124735141 13.2302584827336 -0.228851793813888 3.09429414583454 6.55605369580878
6.97661928301673 12.9899673424712 0.457703587627778 3.09429414583454 6.55605369580878
7.38018227079851 12.6413207069717 1.83081435051111 3.09429414583454 6.55605369580878
7.72811537042638 12.447979926497 1.71638845360416 3.09429414583454 6.55605369580878
6.34951558620046 13.4611324895925 2.33720980916312 2.16600590208418 5.10741473817761
-11.6066814073988 10.4038936509564 -1.82594516340869 3.403723560418 15.0902331868514
-7.77411675848756 13.3160807621695 -2.92151226145389 3.403723560418 15.0902331868514
-11.6508412890203 10.4434772921285 -1.21729677560579 3.55843826770973 13.4312969782888
-7.8656374433773 13.4728441436907 1.70421548584811 3.55843826770973 13.4312969782888
-1.3552478736229 15.8258290310414 -1.98662833778865 3.24900885312627 5.81003229104467
-1.35242925299998 15.7929147509677 -2.23495688001223 3.403723560418 69.6855972537837
-1.47537736690907 15.7819036507298 -2.23495688001223 3.55843826770973 69.5092623960405
-1.50259769633096 16.0730756762146 -2.40537842859704 3.403723560418 100.774782900359
-1.50430633488768 16.0913527419205 -2.27877956393404 3.55843826770973 114.657747110499
-2.17867082251382 16.377997997637 -1.93550187321321 3.24900885312627 5.50942291605144
-1.53149380587578 16.3821732853726 -2.45163570607006 3.55843826770973 38.845149808427
-2.2130660503636 16.6365615984485 -2.36642493177765 3.403723560418 8.25734494367852
-0.918031191932292 16.8828326151504 -1.18321246588883 3.403723560418 8.25734494367852
-1.04552473093508 16.8164221469528 -1.84055272471596 3.55843826770973 6.16416532040437
4.78577355854223 16.9662706088744 3.05298031321932 1.23771765833382 5.19377163514745
-5.86591023759971 17.0235433421836 2.68292209343516 1.08300295104209 5.64857710745315
-2.81382991573429 17.9186414993038 1.55327068567299 1.08300295104209 5.64857710745315
-2.07457596305993 17.7094663999415 3.67136707522706 1.08300295104209 5.64857710745315
-1.34590437423831 17.2993912251629 5.50705061284059 1.08300295104209 5.64857710745315
5.0018809194852 17.2000384682867 3.24774779731625 1.08300295104209 5.64857710745315
5.50290738884037 17.3386138632731 0.706032129851358 1.08300295104209 5.64857710745315
6.29880347295167 16.9106662195448 2.40050924149462 1.08300295104209 5.64857710745315
6.85134391626728 16.6735350122586 2.54171566746489 1.08300295104209 5.64857710745315
5.90044153015271 17.1237571081001 1.83568353761353 1.23771765833382 9.29888672117275
5.85926439303752 17.4675833266615 1.86733325377928 1.08300295104209 8.65408437189786
5.84375152637041 17.4213365159756 2.29825631234373 1.23771765833382 12.6707525794247
5.95988622068361 17.2962724083222 2.87282039042967 1.39243236562554 5.78811626081465
5.98026539074246 17.8283103511207 1.02252929150886 1.08300295104209 7.39557079007146
5.10510460185332 18.0983460880746 1.02252929150886 1.23771765833382 12.9054960493564
5.09045080482246 18.0463962239969 1.75290735687234 1.39243236562554 8.56319092106245
6.00911658265636 17.4391445572041 3.79796593989007 1.39243236562554 8.56319092106245
-3.3508979448267 18.4814816697825 -3.71275516559766 1.23771765833382 5.30743216782348
5.93164534691529 18.1745180776035 -1.03957144636734 1.23771765833382 5.30743216782348
6.08854331556111 17.6696500329724 4.15828578546938 1.39243236562554 7.81988431488623
19.3904121262356 16.1748506012645 -2.95803116472207 -4.64144121875182 34.7032474215508
-0.620802679333148 26.6711503604028 0.206940451852984 4.64144121875182 6.55160351047183
16.6995391809291 21.103704108123 -2.09375045404196 4.48672651146009 5.36673336859216
16.7091391547465 21.1158358804248 -1.88437540863776 4.64144121875182 19.6569620687267
15.9048425649799 21.793561052095 -0.837500181616785 4.79615592604354 5.62562853637057
16.7091391547465 21.1158358804248 -1.88437540863776 4.79615592604354 5.62562853637057
16.8937198690795 21.349096016357 -2.11809638955408 4.64144121875182 11.2147698281317
-13.0690591366884 24.8549718572534 3.06758787452659 0.464144121875182 7.03796501480538
-6.2920505353475 27.2549933847029 3.94404155296276 0.464144121875182 7.03796501480538
5.20721423614965 27.4828943933932 3.94404155296276 0.464144121875182 7.03796501480538
-13.0451666979744 24.8095327873382 3.50581471374468 0.618858829166909 10.939708830458
-6.3111330152731 27.3376521079942 3.28670129413563 0.618858829166909 10.939708830458
5.41151896551176 27.3768371864951 4.38226839218085 0.618858829166909 10.939708830458
5.49033636052301 27.7755738451742 3.76631622372431 0.464144121875182 26.6461907067352
5.49033636052301 27.7755738451742 3.76631622372431 0.618858829166909 47.9134474248
6.70956604815008 28.0421709679866 1.56787824698026 0.773573536458636 10.0200718400884
6.75234722062237 28.2209719432016 3.16984080367748 0.618858829166909 11.8714406731135
15.1877501003959 26.0146989317749 -0.701162942748937 3.55843826770973 8.12254385413422
15.4251206911954 25.8831020022792 0.233720980916311 3.71315297500145 5.18641681018564
-18.3443425359929 24.6342024506371 -1.67013117613114 -2.78486473125109 5.03343127062726
-17.3745903362001 25.2915170664243 -2.14731151216861 -2.78486473125109 5.03343127062726
-4.3758039444457 31.0339897201398 1.7042154858481 3.09429414583454 5.52589381417305
2.89289679786092 30.9449091190779 4.38226839218084 3.09429414583454 5.52589381417305
-5.84021146816887 30.8237586808894 0.973837420484633 3.24900885312627 6.51613171047058
-4.37157710443949 31.0040122095002 2.19113419609042 3.24900885312627 6.51613171047058
2.88614344827294 30.8726694908257 4.86918710242316 3.24900885312627 6.51613171047058
14.0593403180811 27.9098592697765 -2.9215122614539 3.24900885312627 6.51613171047058
15.2339549376297 27.7736795593255 -1.22946974336185 3.09429414583454 14.6635989413424
15.2339549376297 27.7736795593255 -1.22946974336185 3.24900885312627 16.8688307577166
15.9811832918485 27.3737498419935 0.491787897344738 3.24900885312627 16.8688307577166
14.3679167499245 28.5224288919545 -2.23495688001223 3.09429414583454 9.69682208277166
15.384786174636 28.0486664856555 -1.24164271111791 3.09429414583454 9.69682208277166
16.1408696626618 27.6472724396631 0.24832854222358 3.09429414583454 9.69682208277166
15.3796866957759 28.0393694060488 -1.48997125334149 3.24900885312627 11.1992902433952
16.1408696626618 27.6472724396631 0.24832854222358 3.24900885312627 11.1992902433952
-9.38609946083603 35.4473076428384 1.99393211844228 2.32072060937591 9.02738313783282
-0.851426121054085 36.5792784911963 3.1333219004093 2.32072060937591 9.02738313783282
14.8738124468527 33.7434847570651 3.4473844685156 2.16600590208418 18.7503460488393
14.8625243140464 33.7178759268715 3.73466650755856 2.32072060937591 44.9686521013712
16.6443035651312 33.0413916753141 1.7236922342578 2.47543531666763 7.51061738422102
14.9998617048768 34.0294464922945 3.47659959113014 2.16600590208418 22.1603215883685
14.9998617048768 34.0294464922945 3.47659959113014 2.32072060937591 50.2723479864928
16.5093764312477 33.4928483823183 0.869149897782536 2.32072060937591 50.2723479864928
16.5014238808595 33.4767149101964 1.44858316297089 2.47543531666763 7.97377488959281
16.6481106869724 33.7743008897327 0.876453678436171 2.32072060937591 6.27105077538987
15.0722135864241 35.8210200450392 2.11322720245165 2.01129119479245 12.283861883813
16.9037832107533 35.0525376044549 0.60377920070047 2.01129119479245 12.283861883813
15.0576544708471 35.7864184672465 2.71700640315213 2.16600590208418 8.00268889611687
16.9012398553124 35.0472635743088 0.90566880105071 2.16600590208418 8.00268889611687
16.7358164709 35.4803511823643 -0.608648387802893 2.01129119479245 6.54634337388074
14.1119677208374 37.8870013730151 2.19843797674405 2.93957943854282 7.04988581608426
12.8451507252114 38.2938412717432 2.82656311295665 3.09429414583454 5.62532469929578
14.1175017819385 37.9018589027857 1.88437540863776 3.09429414583454 5.62532469929578
16.7698074025205 37.1859290434125 0.949491484972519 1.85657648750073 5.19794812104184
15.7590717565825 39.2838116108646 1.97202077648138 1.701861780209 7.78447089675496
16.7440137413689 38.8742099744273 1.97202077648138 1.701861780209 7.78447089675496
15.8695823051897 39.5592894841529 2.31773306075342 1.701861780209 7.87001067644603
16.8614311992641 39.1468155147348 2.31773306075342 1.701861780209 7.87001067644603
-14.6346331919795 41.3648355542694 2.38590168018735 1.54714707291727 6.50759384454385
-11.4874730004789 42.0164052377836 5.79433265188356 1.54714707291727 6.50759384454385
-3.72028828053345 43.4434522420746 5.45348955471394 1.54714707291727 6.50759384454385
14.4137589895104 41.8303794198739 1.0298330721625 1.54714707291727 25.9827966262184
16.1335661017285 41.2090748748747 0.343277690720832 1.54714707291727 25.9827966262184
14.4107217977067 41.8215651414049 1.37311076288333 1.701861780209 10.3221019050847
14.5129254983996 42.1181719863794 1.38284913708818 1.54714707291727 21.5951103321308
14.5041827092991 42.092799411083 2.07427370563227 1.701861780209 8.46101972432626
14.1319138027293 47.1694676886752 1.91115593770109 1.23771765833382 8.19636369679507
16.8100753425461 46.2969323267236 1.52892475016087 1.23771765833382 8.19636369679507
16.9069547610743 46.5637496842938 2.30799468654858 1.23771765833382 6.85852322636754
13.5242925299998 56.5238527537684 8.19484189337818 0.773573536458636 7.37219408917664
16.3580984755239 56.2508239552391 3.64215195261253 0.773573536458636 7.37219408917664
13.5089312122062 56.4596511799602 8.65011088745475 0.928288243750363 5.2202008195383
16.3496983706037 56.2219383959685 4.09742094668909 0.928288243750363 5.2202008195383
13.3515252537915 62.3382755581539 5.95988501336595 0.618858829166909 10.12641340489
15.8853751934193 61.9963887525015 1.98662833778865 0.618858829166909 10.12641340489
15.8810695996242 61.9795851665942 2.48328542223581 0.773573536458636 7.53998390748856
13.4169739069963 62.6438553403017 5.98910013598049 0.618858829166909 8.85617062430796
15.9589179800145 62.2834066625089 2.49545838999187 0.618858829166909 8.85617062430796
15.9536281980218 62.2627620521773 2.99455006799024 0.773573536458636 9.11457507620874
-25.4474707371857 59.0808354577101 6.51984153014461 0.773573536458636 8.67070465287311
-25.5007788713432 59.204599785224 5.01526271549586 0.928288243750363 26.8045320701838
-26.0157410793088 59.0206287520566 4.51373644394627 1.08300295104209 8.4108793931878
-25.6524726093443 59.556783814331 4.03168692080638 0.773573536458636 9.83332352439164
-25.6524726093443 59.556783814331 4.03168692080638 0.928288243750363 40.8281759149587
-26.1673075877853 59.364480214937 3.52772605570558 1.08300295104209 12.6679054058549
5.63397510807391 5.16868928863732 -1.76508032462839 0.31146513441624 5.36302270522546
-3.0424178887011 7.23069053869509 0.182594516340869 0.41528684588832 5.82630843723166
5.73745757549802 5.26362558329191 0.973837420484632 0.41528684588832 5.82630843723166
5.05419560741082 6.38713724060011 0.506395458652009 0.5191085573604 6.79829207715333
-3.04757361197354 8.3933775666753 -1.7650803246284 0.41528684588832 10.6361788619614
7.15744535547225 5.97050792720584 2.79247880323968 1.14203882619288 5.18641691260803
5.71344882523143 10.8659397951862 2.62936103530851 -0.830573691776641 7.6202115978036
5.71166288196013 11.0970179515839 1.36337238867849 -0.726751980304561 5.33520572546319
7.08759511748736 10.3171372334665 0.973837420484632 -0.726751980304561 5.33520572546319
5.78379422664425 10.5446844332656 -3.60319845579314 -0.5191085573604 5.71564684254598
6.11013883469636 10.252713730584 -3.89534968193853 -0.5191085573604 5.71564684254598
5.6573927454961 11.4772473844312 -4.29218843078602 -0.726751980304561 5.55841036988984
5.70208942907029 11.5679242947541 -3.97812586267972 -0.62293026883248 5.78460500826014
-1.3552478736229 15.8258290310414 -1.98662833778865 1.34968224913704 16.9212124966062
-8.01586434698481 13.7301638680059 -1.86246406667686 1.45350396060912 13.496704397458
-1.3552478736229 15.8258290310414 -1.98662833778865 1.45350396060912 13.496704397458
-1.50430633488768 16.0913527419205 -2.27877956393404 1.24586053766496 11.5429630148863
-1.50430633488768 16.0913527419205 -2.27877956393404 1.34968224913704 107.170199459005
-1.50430633488768 16.0913527419205 -2.27877956393404 1.45350396060912 65.2517972570471
-1.66446663979711 16.4225100741323 -2.06453533142742 1.24586053766496 16.0772306303962
-1.66100491143848 16.3883548273498 -2.32260224785585 1.34968224913704 136.958900128809
-1.52965602758466 16.3625148301376 -2.58066916428428 1.45350396060912 67.1476081667251
-2.61381182733769 16.6449140435988 -1.84055272471596 1.24586053766496 6.46465431922615
-2.08722667167591 16.6880684829152 -2.1034888282468 1.24586053766496 6.46465431922615
-2.61381182733769 16.6449140435988 -1.84055272471596 1.34968224913704 40.5432364816265
-2.08722667167591 16.6880684829152 -2.1034888282468 1.34968224913704 40.5432364816265
-1.8378376566672 16.8240379898704 -0.920276362357976 1.45350396060912 14.0084136880843
-1.46755784398211 17.1373222449247 -1.47292909848301 1.34968224913704 22.2541539540016
-1.46849145413694 17.1482244237656 -1.33902645316637 1.45350396060912 9.83835733056435
-1.49424071387269 17.4489099221052 -1.49970962754633 1.34968224913704 10.3274721081451
-1.49424071387269 17.4489099221052 -1.49970962754633 1.45350396060912 5.04185464333522
6.35428916866222 17.0596310323303 -0 -0.934395403248721 7.44417373092976
16.8782054916579 19.6510967676549 -4.90814059924254 0.5191085573604 7.08932775993437
16.6589545011877 23.2917175879237 -5.66043000656692 0 11.3204284729618
