VERSION .7
FIELDS x y z velocity SNR
SIZE 4 4 4 4 4
TYPE F F F F F
COUNT 1 1 1 1 1
WIDTH 170
HEIGHT 1
VIEWPOINT 0 0 0 1 0 0 0
POINTS 170
DATA ascii
1.81000099797462 7.56477499039224 1.03470225926492 -0.928288243750363 6.64800388506736
2.15598315495052 7.41380968460632 -1.39989129194666 -0.928288243750363 6.64800388506736
3.50286883556721 6.95371006244413 -0.973837420484632 -0.928288243750363 6.64800388506736
5.19344499280547 7.2612152264548 2.99455006799024 3.55843826770973 7.4024901312583
5.61159389712978 7.23694634748073 2.19113419609042 3.55843826770973 7.4024901312583
5.90911192845394 7.16898318751784 1.5337939372633 3.55843826770973 7.4024901312583
5.6322590389851 7.26359697929971 2.04505858301773 3.71315297500145 11.3389566181699
5.5777599743747 7.19331270467052 2.41024761569946 3.86786768229318 5.32257002587044
5.77190594155437 7.75096186801494 1.13208600131339 3.09429414583454 7.86856242635899
6.08672474805199 7.5369405368622 0.905668801050708 3.09429414583454 7.86856242635899
5.54975288655119 7.30356843601996 3.24531320376504 3.403723560418 5.09778317602205
6.04651092225487 7.48714541282778 1.43397560166362 3.55843826770973 6.90370862016556
5.84914402486144 7.54330093420707 1.88681000218897 3.71315297500145 9.65224670506741
5.76368530685385 7.43308979482621 -2.49058920288945 3.86786768229318 5.71861553683615
6.28307070766657 7.78006765095453 0.934883923665247 3.09429414583454 6.72071209092643
6.10604291712937 8.03565550217549 -2.32990602850948 4.17729709687663 5.00547556644031
6.53749776561585 7.61153200048079 2.57093079007943 4.17729709687663 5.00547556644031
6.99183299987696 7.32753199024798 2.16922285412952 4.17729709687663 5.00547556644031
6.44954603371246 8.48771139930027 -0.496657084447162 3.55843826770973 9.29143476798227
7.03258797625335 8.01982749920512 -0.331104722964775 4.02258238958491 7.12611899376414
7.35909739744114 7.71242985924429 -0.496657084447162 4.02258238958491 7.12611899376414
6.94566495938265 8.08675627868133 -0.496657084447162 4.17729709687663 5.47123308972612
7.27026598912172 7.78391085479922 -0.662209445929551 4.17729709687663 5.47123308972612
1.94413508376702 10.2608528803623 -3.40843097169621 3.55843826770973 6.94707711461745
2.51163772197291 10.4972175404142 -2.04505858301773 3.55843826770973 6.94707711461745
8.2594713115628 7.05989533510397 1.6190047115557 3.55843826770973 6.94707711461745
7.05118623845917 8.38074279346433 0.852107742924053 4.02258238958491 8.04090839070969
-3.64815641012276 12.9332506271977 -1.25625027242518 0.928288243750363 8.732942588691
6.21972811540098 11.8287908602448 -1.88437540863776 0.928288243750363 8.732942588691
6.90916864293125 11.5934727718542 -0.104687522702098 0.928288243750363 8.732942588691
-2.61710933444366 13.2399381033205 -0.104687522702098 1.08300295104209 14.4948348062449
-2.09217522298971 13.3231001507408 0.52343761351049 1.08300295104209 14.4948348062449
0.62719856537055 13.4620128246905 0.732812658914685 1.08300295104209 14.4948348062449
5.96700928253154 12.1053716370202 -0.104687522702098 1.08300295104209 14.4948348062449
6.37901932369072 11.8772788553118 -0.628125136212587 1.08300295104209 14.4948348062449
-1.98421027462615 13.3165826562785 0.942187704318882 1.23771765833382 11.8278075789735
0.729631282024551 13.4181092248842 1.25625027242518 1.23771765833382 11.8278075789735
6.38574677604252 11.8898048916058 -0.104687522702098 1.23771765833382 11.8278075789735
-8.46718063250243 10.4845610050736 -0.732812658914685 1.39243236562554 7.19534859894675
-2.302501858169 13.2949626408667 -0.314062568106295 1.39243236562554 7.19534859894675
-1.88074394237306 13.3385747887328 0.837500181616785 1.39243236562554 7.19534859894675
0.834446112941894 13.4213927982026 1.15156274972308 1.39243236562554 7.19534859894675
1.23240437600184 13.1828558286386 2.61718806755245 1.39243236562554 7.19534859894675
7.06920887730814 11.8620176859443 0.214244232506618 0.928288243750363 20.7464632815283
6.40388877374011 12.1790309144338 -1.1783432787864 1.08300295104209 41.5912951272947
6.53130315856885 12.1608204908241 -0.428488465013239 1.23771765833382 28.5216498167825
6.74544424573504 12.0433574175501 0.428488465013239 1.39243236562554 14.4679424546003
-8.19670707082405 11.4602261643106 -0.986010388240691 0.928288243750363 15.2755901431753
7.33831194754706 12.0638368993569 0.328670129413564 0.928288243750363 15.2755901431753
6.54943170041602 12.45582707158 -1.20512380784973 1.08300295104209 35.0566037241744
6.67974186671814 12.4372027747065 -0.438226839218085 1.23771765833382 23.6921479272204
6.9002037715741 12.3196660216319 0.328670129413564 1.39243236562554 10.2533787580023
-7.82782705617509 12.106631689561 -0.783939123490128 0.928288243750363 10.0096788834657
6.71442280866465 12.7696101304311 -0.559956516778664 1.08300295104209 13.2533003947683
6.83146950469969 12.7197088112805 -0 1.23771765833382 9.89713772824363
6.86038852189649 13.0472103506579 0.572129484534721 0.464144121875182 8.95452039244389
-8.57264320091871 11.9858412725479 -0.686555381441665 0.928288243750363 7.63094901280081
-7.99437670595269 12.3642198111959 -0.915407175255555 0.928288243750363 7.63094901280081
5.51692133983449 13.4260638852476 2.63179562885972 0.928288243750363 7.63094901280081
6.79603734370474 12.1336866441382 4.9203135669986 0.928288243750363 7.63094901280081
6.40765745884251 13.2872417512821 0.114425896906944 1.23771765833382 5.03798534712042
6.84486925729944 13.0176955339622 1.14425896906944 1.23771765833382 5.03798534712042
6.88148171162858 13.3698237563405 0.934883923665248 0.309429414583454 11.8818928522706
6.87399636052199 13.3552806929069 1.16860490458156 0.464144121875182 19.8896478154762
6.81948185257897 13.2493660957453 2.22034931870496 0.618858829166909 6.97464337557443
6.85803033155439 13.3242607756375 -3.45955743627165 0.309429414583454 6.64524209186653
-1.79483874131492 17.7088303279424 1.80403382144778 -0.309429414583454 9.30009801169211
6.38043102897449 16.7051080110557 0.555087329676241 -0.309429414583454 9.30009801169211
6.50636392377411 16.6188452328134 1.24894649177154 -0.154714707291727 7.88104871241148
7.47923753827428 16.2144125330492 1.11017465935248 -0.154714707291727 7.88104871241148
5.64213680173941 17.2874660068563 -0.84723855582163 -0.309429414583454 7.29122240361069
6.21233507399806 17.1095043092328 -0.282412851940542 -0.309429414583454 7.29122240361069
6.48591384654507 16.9812808672193 0.988444981791901 -0.309429414583454 7.29122240361069
7.61045223192822 16.498875910822 1.12965140776217 -0.309429414583454 7.29122240361069
-12.065482661863 14.0477000030554 0.143641019521483 1.85657648750073 8.53177194890731
-8.04441681809036 16.3198430864121 -3.4473844685156 1.85657648750073 8.53177194890731
16.179307941795 8.19857552163419 -3.73466650755856 1.85657648750073 8.53177194890731
-7.94731714358276 16.1228553510001 -4.45287160516598 2.01129119479245 9.99051189159254
-0.580334070369942 18.6954522163299 -2.19113419609042 1.701861780209 6.64494109120388
-0.580334070369942 18.6954522163299 -2.19113419609042 1.85657648750073 66.9599609170394
-0.580334070369942 18.6954522163299 -2.19113419609042 2.01129119479245 75.1173903525141
-0.588853658007743 18.9699105873227 -2.52467351260641 1.701861780209 34.2365946871287
-0.588853658007743 18.9699105873227 -2.52467351260641 1.85657648750073 449.941685638666
-0.589448273019587 18.9890660998259 -2.3761633059825 2.01129119479245 347.42784737609
-0.597865338224591 19.2602217123881 -2.71700640315212 1.701861780209 40.2904398863435
-0.597865338224591 19.2602217123881 -2.71700640315212 1.85657648750073 462.694415873852
-0.598506996663607 19.2808927280985 -2.56606160297701 2.01129119479245 457.429946247468
-1.22078100623849 19.6352780020114 -1.99393211844228 1.701861780209 9.13791268439531
-1.22078100623849 19.6352780020114 -1.99393211844228 1.85657648750073 94.889688485888
-0.607508327550794 19.5708704496847 -2.76082908707393 1.85657648750073 94.889688485888
-1.22078100623849 19.6352780020114 -1.99393211844228 2.01129119479245 72.8318060228175
-0.607508327550794 19.5708704496847 -2.76082908707393 2.01129119479245 72.8318060228175
-1.2247223939525 19.6986720449092 -3.73953569466099 1.85657648750073 6.06183231820973
0.154453418493833 19.9118445911935 -2.6488377837182 1.85657648750073 6.06183231820973
-0.622054843989025 20.0394862295779 -1.24651189822033 2.01129119479245 5.16310987094118
0.154609383087104 19.9319512535983 -2.49302379644066 2.01129119479245 5.16310987094118
-13.6320832344785 17.2272688390275 0.34084309716962 -0.928288243750363 6.14144224283065
-12.7800780323236 17.8684663710011 -0.34084309716962 -0.928288243750363 6.14144224283065
-9.00555695055527 21.4028439945375 0.540479768368972 -1.39243236562554 6.01227312800944
-8.94470859278124 21.7679792050846 -0.547783549022607 -1.39243236562554 12.7981359795272
-8.94039993545021 21.7574935909127 -0.912972581704343 -1.23771765833382 5.7465987332265
-9.06615363857505 22.0635297201157 -0.185029109892079 -1.39243236562554 8.8634899035528
-12.7085783373244 24.1694029858019 -0 -0.618858829166909 5.49992383748857
-12.8542672426628 24.4464767677954 0.214244232506618 -0.618858829166909 6.04808970080167
6.05203884396105 28.2569712427694 5.9501466391611 -1.54714707291727 5.79782580612139
6.18356690542771 28.8710758026219 4.1631549725718 -1.54714707291727 5.28576944089153
7.59688184799601 38.4325729620646 2.13026935731013 -1.85657648750073 10.7475797720369
7.66065988167204 38.7552255952996 1.84055272471595 -2.01129119479245 8.44555066119238
7.96708627693892 38.6933942297782 1.84055272471595 -1.85657648750073 20.7745038846457
8.03515761162234 39.0239932589712 1.23677352401548 -1.85657648750073 6.36035320908195
14.3388097340757 39.4907750487049 1.95741321517411 -0.464144121875182 5.99813119963605
15.9682199311297 38.8605034806358 1.95741321517411 -0.464144121875182 5.99813119963605
-24.1357599743255 35.1334893939882 5.67016838077177 0.309429414583454 9.53894484108702
-23.0031329202501 36.3059732860139 -1.33415726606395 0.309429414583454 9.53894484108702
-24.6075477058517 35.1054346838218 3.33539316515987 0.464144121875182 21.2788971369156
-24.8253943781553 35.4162174654731 2.35181737047038 0.618858829166909 8.98600628859794
-24.872151032605 35.4829210922807 5.07612755427615 0.464144121875182 13.8102693690626
-24.6404919242456 35.1524333169592 7.78339558322342 0.618858829166909 5.87089016583861
13.875513292237 44.9838623058979 0.730378065363472 -0.928288243750363 8.0461997194026
15.3263998893432 44.4789678375022 1.82594516340869 -0.928288243750363 8.0461997194026
16.7860570216616 43.9488953572572 1.82594516340869 -0.928288243750363 8.0461997194026
13.873425572477 44.9770940014583 1.09556709804521 -0.773573536458636 7.1693213105876
15.3263998893432 44.4789678375022 1.82594516340869 -0.773573536458636 7.1693213105876
16.7804930741387 43.9343279488932 2.19113419609042 -0.773573536458636 7.1693213105876
15.4104367991343 44.7228525746062 2.94098900986359 -0.928288243750363 5.70065871622286
16.8780974466709 44.1898736288163 2.94098900986359 -0.928288243750363 5.70065871622286
15.417415897597 44.7431067176729 2.57336538363064 -0.773573536458636 5.22739376966785
16.8857412211777 44.2098863956917 2.57336538363064 -0.773573536458636 5.22739376966785
-37.834312869693 33.9135842224786 1.97202077648138 2.01129119479245 7.16448851373383
-33.4021016721217 38.0911116115239 4.33844570825904 2.01129119479245 7.16448851373383
-37.8445703137343 33.9227786987626 1.57761662118511 2.16600590208418 6.98105563725122
-33.4021016721217 38.0911116115239 4.33844570825904 2.16600590208418 6.98105563725122
-0.966746396045732 2.80560876443254 -1.02252929150886 0 5.05040129431896
0.0728177580563772 3.12842298959674 -0.243459355121158 0 5.05040129431896
6.86125604676143 4.88819592566218 0.920276362357978 3.21847305563448 5.38597850712377
7.20437487045763 4.40367446965662 0.723074284709839 3.21847305563448 5.38597850712377
7.28790471175986 10.3970158220912 -2.09618504759317 -0.934395403248721 9.68948919452354
7.33398214816089 10.6757932748836 -2.45407029962127 -0.934395403248721 7.59037589567164
4.33015744951737 11.9257648951144 -3.57885252028102 -0.726751980304561 5.8312855483795
8.79269368623864 10.2372301701163 -0.209375045404195 -0.726751980304561 6.61020503561791
7.88663284982645 11.2511688565792 1.39258751129302 -1.0382171147208 5.52468525057756
1.39241993037887 13.7383530479512 0.214244232506618 -0.934395403248721 5.39422679775027
6.42036256749657 13.6113298690252 0.701162942748935 -1.34968224913704 5.20947093647271
6.24865708337958 13.546608622736 2.1034888282468 -1.24586053766496 5.75969149758072
7.06935499427239 12.6216696493187 -4.20697765649361 -1.24586053766496 5.75969149758072
-12.653406286273 13.8375003315018 -1.75290735687234 0.726751980304561 49.3703596315797
-12.6622346208043 13.847154813405 -1.60683174379964 0.830573691776641 61.1064124230372
-12.6840870532137 13.8710521762074 -1.16860490458156 0.934395403248721 6.42417202601124
-12.0419319601763 14.3125328252127 2.19113419609042 0.934395403248721 6.42417202601124
-8.20418324321525 16.6439639080298 -3.21366348759929 0.934395403248721 6.42417202601124
-0.441166761673791 18.9535667714143 -2.67318371923031 0.726751980304561 330.7094740971
-0.441640243505808 18.9739086699837 -2.52467351260641 0.830573691776641 377.433436491545
-0.442086204764691 18.9930682196869 -2.3761633059825 0.934395403248721 30.4316408023441
-0.448880247497706 19.2849563530982 -2.56606160297701 0.726751980304561 482.004147599576
-0.449333519596899 19.3044299937801 -2.41511680280189 0.830573691776641 548.364865533242
-0.449758904536705 19.3227055361841 -2.26417200262677 0.934395403248721 45.4395144128394
-0.456580834429107 19.6157917678734 -2.45407029962127 0.726751980304561 128.497134282337
-0.45701308041633 19.6343620770903 -2.30069090589494 0.830573691776641 158.655682501585
-0.457792877339436 19.6678639959433 -1.99393211844228 0.934395403248721 11.0168648566521
-1.36885282972802 19.5605225771288 -4.36279164377115 0.726751980304561 13.2796610256021
-0.155019810315998 19.9848627610123 -2.02558183460803 0.726751980304561 13.2796610256021
-0.155019810315998 19.9848627610123 -2.02558183460803 0.830573691776641 16.2469614120473
-3.56493225836161 19.6619626356104 -4.11446310154757 0.830573691776641 5.49323243468683
-0.314625497735091 20.2786336296974 -2.21548013160254 0.830573691776641 5.49323243468683
-21.9729396938634 34.6800135575586 -9.13459500414585 -1.45350396060912 11.3375682517703
32.386004267532 23.0729086671749 13.7018925062188 -1.45350396060912 11.3375682517703
-21.8877349154765 35.2554370379834 -6.85094625310939 -1.34968224913704 16.0568693884824
-22.105523801792 35.6062381783808 -6.24473245885771 -1.34968224913704 26.7374621759312
-22.7111205442008 35.8450885204131 -4.63546612150685 -1.34968224913704 6.65368904987378
42.0129250794691 24.819224866868 8.84731296510288 -0.726751980304561 12.1123505641666
