VERSION .7
FIELDS x y z velocity intensity
SIZE 4 4 4 4 4
TYPE F F F F F
COUNT 1 1 1 1 1
WIDTH 934
HEIGHT 1
VIEWPOINT 0 0 0 1 0 0 0
POINTS 934
DATA ascii
6.243570 2.134390 10.612000 -11.011200 9.750000
6.458860 2.207990 10.977900 -11.011200 8.700000
6.410100 2.281590 11.495100 -11.100000 8.970000
8.374660 1.402030 10.311800 -10.034400 4.720000
7.083580 -0.031984 11.830200 -10.922400 7.960000
8.562520 1.447260 10.710700 -10.034400 5.910000
7.362570 1.404990 12.083800 -10.922400 4.230000
-7.995760 1.536210 11.657900 -10.123200 6.060000
-7.886090 1.142920 12.294000 -10.300800 5.620000
-0.825016 1.575290 15.843800 2.042400 10.380000
-0.847049 1.668250 16.267000 2.042400 13.640000
-1.607080 1.815520 16.629300 2.042400 13.370000
-1.777320 2.060670 17.019800 2.042400 12.350000
-8.455030 -1.487150 15.440900 -10.744800 8.930000
7.204650 -1.636810 16.047800 -11.544000 11.410000
-8.659530 -1.565240 15.814300 -10.744800 5.640000
7.380370 -1.676740 16.439300 -11.544000 9.490000
-7.299820 1.602510 16.954600 -11.277600 4.160000
7.426150 -1.716660 16.888400 -11.544000 7.520000
-7.369180 1.639780 17.391700 -11.277600 3.990000
7.474830 1.479070 17.361000 -11.632800 6.210000
-8.148910 1.677050 17.515000 -11.188800 7.010000
-1.372690 -2.154440 19.221500 2.131200 3.490000
7.545460 1.393090 17.807800 -11.632800 4.030000
-1.402320 -2.308900 19.636500 2.042400 4.380000
7.487460 1.788850 19.197200 -11.810400 3.770000
-7.381540 1.613540 19.253700 -11.455200 4.340000
-7.554370 0.685530 19.704500 -11.455200 3.420000
-6.968920 1.714380 20.771000 -11.632800 3.420000
-7.105560 1.748000 21.178300 -11.721600 5.840000
17.793700 1.499820 14.237100 -8.169600 8.320000
7.694190 1.922410 21.416500 -11.899200 4.840000
-7.242210 1.781610 21.585600 -11.721600 4.250000
18.268300 1.528120 14.330400 -8.169600 5.670000
-7.220880 1.240780 22.085000 -11.632800 8.450000
18.602800 1.629550 14.592700 -8.169600 8.360000
17.861700 1.733620 16.131600 -8.702400 6.880000
18.180700 1.764580 16.419700 -8.702400 7.280000
18.499700 1.795540 16.707700 -8.702400 7.130000
18.818600 1.826490 16.995800 -8.702400 10.290000
18.290900 1.697910 18.193100 -9.235200 4.760000
-7.024820 1.318760 24.846400 -11.899200 5.590000
18.595800 1.726210 18.496300 -9.235200 9.210000
-6.800550 1.340730 25.354500 -11.988000 6.890000
18.900600 1.754510 18.799500 -9.146400 9.840000
8.690380 0.640279 25.254700 -11.988000 6.000000
18.170800 1.133090 20.136600 -9.590400 5.790000
8.832490 0.314833 25.667700 -11.988000 9.500000
18.451300 1.406670 20.447400 -9.590400 6.770000
8.972690 0.319830 26.075100 -11.988000 15.910000
18.739600 1.428650 20.766900 -9.590400 10.090000
8.908780 0.238209 26.552800 -11.988000 17.240000
-12.562500 1.867700 25.445900 -14.208000 8.960000
-12.750100 1.985090 25.826100 -14.208000 10.720000
8.389360 -3.207730 27.437600 -0.799200 9.620000
-12.940400 2.014720 26.211600 -14.208000 10.530000
9.049530 -3.255600 27.677900 -0.710400 11.050000
-12.522000 1.677250 26.914400 -14.385600 8.760000
8.257890 -3.303480 28.370600 -0.799200 8.470000
-12.703500 1.701560 27.304400 -14.385600 6.980000
18.638100 2.197980 24.161500 -10.212000 10.240000
18.900600 2.228940 24.501800 -10.212000 12.070000
-15.710100 1.654370 26.702000 -12.698400 9.290000
8.583260 1.769260 32.001000 -12.165600 10.900000
8.694730 1.792240 32.416600 -12.165600 4.950000
18.817000 0.500061 28.363100 -10.656000 8.700000
8.619870 1.526040 32.896300 -12.165600 5.730000
19.054300 0.612989 28.720700 -10.656000 12.830000
8.921400 1.545360 33.261700 -12.165600 6.920000
19.292400 0.620651 29.079700 -10.656000 12.430000
9.025990 2.076710 33.651600 -12.165600 10.820000
18.826100 1.693160 29.852800 -10.833600 7.590000
9.399710 2.102350 33.995600 -12.165600 11.600000
19.058400 1.603310 30.221200 -10.833600 6.610000
19.051700 1.622630 30.733000 -10.833600 13.860000
19.278500 1.641950 31.098900 -10.833600 15.610000
19.244100 1.448900 32.139300 -11.011200 6.640000
19.462900 1.582730 32.504700 -11.011200 10.790000
-15.511400 -11.373600 32.678800 -24.420000 5.690000
19.684100 1.600720 32.874100 -11.011200 12.870000
16.297000 1.189890 37.062300 -10.744800 10.260000
-6.526580 0.595009 39.970900 -12.254400 7.020000
19.164500 1.329090 36.147900 -11.277600 8.960000
18.113600 1.202550 36.690100 -10.833600 8.370000
-6.362390 0.601339 40.433600 -12.254400 7.350000
19.364200 1.470940 36.524500 -11.277600 9.980000
19.565900 1.486260 36.905000 -11.277600 10.820000
19.767600 1.501590 37.285500 -11.277600 14.050000
19.627700 1.989650 39.757000 -11.455200 8.870000
19.820900 1.870500 40.148400 -11.455200 13.070000
20.011500 1.888490 40.534400 -11.455200 8.070000
-9.689130 2.014390 47.235200 -12.165600 8.710000
-10.051000 2.032370 47.599700 -12.165600 9.420000
-10.509700 2.050360 47.941300 -12.165600 9.110000
-9.011140 2.221460 48.676600 -12.254400 7.030000
10.114400 -2.844040 49.308300 -12.254400 9.600000
10.202600 -2.711330 49.738200 -12.254400 11.280000
-19.780000 -2.637510 47.702300 -11.366400 5.900000
-20.315000 -2.659490 47.944700 -11.366400 6.200000
-18.415900 -2.681470 49.165500 -11.455200 8.900000
20.079200 1.280560 49.498700 -11.721600 6.870000
20.242500 1.124350 49.901300 -11.721600 5.120000
-30.371500 0.300845 46.554200 -10.212000 6.160000
20.358100 1.011430 53.101100 -11.899200 10.660000
20.512300 1.019090 53.503400 -11.810400 7.020000
20.666500 1.026760 53.905600 -11.810400 7.460000
20.401600 1.034420 54.466800 -11.810400 7.400000
20.859300 2.160440 57.023000 -11.899200 6.440000
21.007300 2.175770 57.427400 -11.899200 8.530000
-12.715800 -2.952700 60.220000 -12.076800 9.160000
21.157400 2.000630 57.837900 -11.899200 7.200000
-12.804700 -2.973350 60.641200 -12.076800 7.900000
20.662400 1.835470 58.936500 -11.899200 9.980000
20.806700 1.653630 59.348100 -11.988000 6.200000
-18.737300 1.507750 60.037400 -11.810400 11.320000
-18.865600 1.518080 60.448600 -11.810400 8.510000
-18.993900 1.528410 60.859800 -11.810400 8.160000
-19.122300 1.538740 61.271000 -11.810400 8.900000
-28.583900 1.457150 63.668600 -11.277600 6.870000
-28.760300 1.466150 64.061600 -11.277600 7.220000
-28.936800 1.475140 64.454600 -11.277600 6.840000
-29.113200 1.484140 64.847600 -11.277600 6.950000
22.094400 0.604685 67.575600 -12.076800 7.430000
22.227600 0.829559 67.983100 -11.988000 12.440000
21.967300 0.000000 68.525300 -12.076800 6.770000
17.228400 2.447520 100.630000 -12.343200 6.800000
17.301100 2.457850 101.054000 -12.343200 6.110000
-17.413900 6.791650 101.713000 -12.254400 7.530000
-17.486400 6.819950 102.137000 -12.254400 7.050000
-17.559000 6.848240 102.560000 -12.254400 7.720000
-16.271200 7.244420 108.863000 -12.254400 7.840000
-16.334800 7.272720 109.288000 -12.254400 8.560000
-16.398400 7.301020 109.713000 -12.254400 5.450000
30.040700 0.676319 121.294000 -12.254400 6.750000
29.204700 1.066440 121.939000 -12.254400 4.980000
29.305100 1.070110 122.358000 -12.254400 7.560000
29.405400 1.073770 122.777000 -12.254400 7.720000
20.426600 1.930610 129.813000 -12.432000 7.890000
20.492600 2.344680 130.232000 -12.432000 4.660000
20.558300 2.761390 130.650000 -12.432000 8.090000
19.614400 2.770390 131.231000 -12.432000 11.310000
-62.659100 -13.612200 126.919000 -10.922400 7.340000
-62.885200 -12.775000 127.377000 -10.922400 5.540000
-62.088600 -12.813600 128.244000 -10.922400 4.480000
-9.309290 0.792926 146.208000 -12.432000 5.840000
-8.488880 0.795258 146.689000 -12.432000 5.590000
-8.513770 0.797590 147.120000 -12.432000 6.180000
-7.684900 2.171150 147.583000 -12.432000 10.150000
-8.562760 2.177480 147.966000 -12.432000 9.910000
-8.587650 2.183810 148.396000 -12.432000 4.860000
-7.864960 0.350821 151.041000 -12.432000 6.660000
-7.887280 0.820911 151.469000 -12.432000 8.920000
-7.909680 0.823243 151.900000 -12.432000 8.200000
-7.932190 0.353819 152.332000 -12.432000 6.240000
7.022980 -0.321780 6.985430 -8.613600 8.110000
7.633670 -0.349760 7.592850 -8.702400 4.100000
7.559370 -0.383057 7.665240 -8.791200 10.340000
6.195240 -0.848956 11.314000 -10.656000 6.150000
6.129730 -0.848956 11.349600 -10.744800 8.420000
6.332740 -0.918473 11.725500 -10.744800 5.730000
7.193650 -0.977730 12.226800 -10.567200 4.620000
8.090650 1.448740 11.603500 -10.034400 6.790000
7.372420 2.947570 12.312600 -10.656000 9.260000
8.335820 1.492640 11.955200 -10.034400 5.240000
7.491350 3.034260 12.732800 -10.656000 8.980000
8.516690 0.850781 12.417500 -10.123200 7.520000
7.613730 3.026900 13.172100 -10.567200 7.870000
7.143390 1.066610 13.728400 -10.833600 8.620000
7.825220 3.110980 13.538000 -10.567200 5.440000
6.930990 1.096240 14.316000 -11.011200 4.030000
7.616570 -1.025540 15.427800 -11.011200 4.980000
7.220150 -1.160240 16.082400 -11.100000 5.070000
6.786880 -1.244380 16.730800 -11.277600 8.130000
6.951300 -1.159650 17.136100 -11.277600 10.000000
17.967500 1.384480 14.720100 -7.903200 9.650000
18.154900 1.410110 15.168300 -8.080800 7.000000
18.481500 1.510240 15.441100 -8.080800 6.400000
18.815100 1.461390 15.719800 -8.080800 6.320000
-7.355490 1.208860 22.496700 -11.455200 11.700000
18.182100 1.641310 17.068400 -8.524800 7.100000
18.495500 1.669610 17.362600 -8.524800 7.230000
18.638000 1.697910 17.837300 -8.613600 12.310000
18.948700 1.726210 18.134600 -8.613600 15.200000
-7.258100 1.424600 25.671500 -11.544000 6.400000
18.088700 1.555710 20.758200 -9.324000 10.150000
-7.723620 1.615220 25.974600 -11.544000 5.150000
18.371300 1.580020 21.082600 -9.324000 7.530000
7.858430 0.575665 26.428000 -11.632800 7.140000
18.653900 1.604330 21.406900 -9.324000 6.770000
8.907160 0.584660 26.548000 -11.632800 8.090000
18.936600 1.628640 21.731300 -9.324000 12.720000
9.252710 0.417772 26.888900 -11.544000 9.120000
18.080300 1.924300 22.977300 -9.679200 13.680000
9.393570 0.245539 27.298300 -11.544000 13.900000
18.525400 1.952600 23.173200 -9.590400 10.240000
9.320270 0.067965 27.779300 -11.544000 18.250000
18.793900 1.980900 23.509000 -9.590400 5.160000
8.089050 0.068965 28.610500 -11.632800 17.930000
9.674300 0.068965 28.114100 -11.455200 11.000000
19.062400 2.009200 23.844800 -9.679200 13.750000
7.803910 1.538550 29.095300 -11.721600 11.670000
18.528500 2.037490 24.800800 -9.945600 9.380000
9.704130 -2.292350 28.923400 -11.544000 7.920000
10.080600 -1.654370 29.294800 -11.632800 8.310000
8.953810 -1.604490 30.111700 -11.632800 6.220000
8.908390 0.838143 30.605400 -11.632800 7.510000
9.446320 0.849469 30.894400 -11.632800 5.590000
18.957900 1.487410 27.189200 -10.123200 7.240000
19.050700 0.906101 28.715300 -10.300800 9.810000
19.288800 0.917427 29.074300 -10.300800 8.460000
19.299500 0.928753 29.582800 -10.389600 10.810000
19.534900 0.940080 29.943600 -10.389600 4.890000
8.486990 1.474820 34.267700 -11.810400 4.500000
19.043200 1.415590 31.254700 -10.478400 7.520000
9.834750 1.846260 34.784900 -11.721600 4.980000
19.264800 1.546760 31.618400 -10.478400 10.620000
8.793700 1.868240 35.506100 -11.810400 11.360000
19.488800 1.564750 31.986100 -10.478400 7.710000
9.115920 0.429771 35.916100 -11.810400 4.800000
19.712900 1.582730 32.353700 -10.478400 7.310000
9.221920 0.434769 36.333700 -11.810400 10.760000
19.175000 1.600720 33.173600 -10.656000 8.020000
6.398470 0.439766 37.372900 -11.899200 14.860000
19.387900 1.738530 33.541800 -10.656000 7.540000
19.603300 1.757850 33.914500 -10.656000 10.300000
19.815900 1.899640 34.282300 -10.656000 9.840000
9.620180 2.136900 38.843100 -11.810400 5.530000
9.948720 2.284960 39.197300 -11.810400 15.590000
9.825400 2.309260 39.671700 -11.810400 10.420000
19.276300 1.744600 37.045800 -10.833600 10.980000
19.475000 1.762590 37.427800 -10.833600 9.010000
19.673800 1.780580 37.809700 -10.833600 9.040000
19.476700 1.682060 38.883100 -10.922400 10.060000
19.667100 1.834530 39.263200 -10.922400 6.420000
19.859900 1.852520 39.648200 -10.922400 8.070000
19.593900 1.166960 44.560100 -11.188800 6.550000
19.767300 1.177290 44.954400 -11.188800 8.940000
19.940700 1.187610 45.348700 -11.188800 7.920000
-8.709540 2.395200 49.161400 -11.810400 11.820000
-8.785890 2.260090 49.592400 -11.810400 6.520000
10.388000 -1.079370 50.642300 -11.899200 9.380000
10.474600 -1.088370 51.064300 -11.899200 6.960000
20.335600 1.249580 47.993400 -11.277600 7.320000
10.852800 -2.031790 51.397200 -11.899200 6.940000
20.503700 1.259900 48.390000 -11.277600 9.570000
-18.868700 -2.747410 50.374500 -11.100000 6.210000
-20.769000 -2.769390 50.087400 -11.011200 10.890000
20.401900 1.427110 50.294100 -11.366400 7.030000
-21.328700 -2.453260 50.337100 -11.011200 5.460000
20.563800 1.438430 50.693300 -11.366400 9.050000
20.725700 1.449760 51.092500 -11.366400 10.590000
-15.991900 -11.505500 56.562400 -11.544000 8.130000
20.815600 2.571940 57.939300 -11.544000 9.250000
11.294100 0.719617 61.008800 -11.899200 8.250000
20.961100 2.589930 58.344500 -11.544000 5.810000
10.068000 0.724615 61.659700 -11.899200 8.200000
21.106700 2.607910 58.749600 -11.544000 7.470000
10.137400 0.729612 62.085000 -11.899200 10.740000
-12.594100 -5.441090 61.397300 -11.721600 8.310000
20.947400 1.860780 59.749400 -11.544000 9.420000
21.089900 1.873440 60.155900 -11.544000 6.400000
21.232400 1.886100 60.562300 -11.544000 7.470000
-18.416900 1.549060 61.936300 -11.455200 7.110000
-18.538600 1.710270 62.345500 -11.455200 7.860000
21.311500 0.151922 61.932400 -11.544000 7.860000
21.451700 0.152922 62.339900 -11.632800 8.010000
20.886700 1.195330 63.881900 -11.632800 7.930000
21.020600 1.202990 64.291400 -11.632800 9.530000
21.154500 1.210650 64.700900 -11.632800 7.080000
21.041900 1.439160 65.638700 -11.632800 9.780000
21.173500 1.448160 66.049000 -11.632800 13.490000
21.305000 1.457150 66.459200 -11.632800 13.890000
21.822700 1.466150 66.744400 -11.632800 13.860000
-27.939800 1.475140 64.893000 -10.922400 11.480000
21.046100 1.857510 67.435300 -11.632800 6.370000
-28.110200 1.484140 65.288700 -10.922400 7.350000
21.174400 1.868830 67.846500 -11.632800 6.080000
-28.280500 1.493130 65.684400 -10.922400 9.230000
-28.448900 1.724620 66.075500 -10.922400 12.000000
21.566800 0.167914 69.103800 -11.632800 6.180000
21.695200 0.168914 69.515100 -11.632800 11.380000
18.279800 0.225885 95.652100 -11.899200 11.180000
18.360100 0.831900 96.072100 -11.899200 12.620000
18.441000 0.835564 96.495300 -11.899200 8.910000
18.522300 0.534059 96.920700 -11.899200 9.370000
34.489200 1.164380 94.282800 -11.455200 11.440000
34.639000 0.545719 94.692400 -11.455200 5.550000
34.787000 0.548051 95.097100 -11.455200 10.000000
19.614400 2.770390 131.231000 -11.988000 6.190000
19.676700 3.191070 131.647000 -11.988000 6.190000
-8.538670 0.799922 147.550000 -11.988000 13.010000
-7.708020 0.802254 148.027000 -11.988000 14.110000
-7.730430 0.804586 148.457000 -11.988000 10.860000
-7.752110 2.190140 148.874000 -11.988000 5.040000
-8.637440 2.196470 149.256000 -11.988000 7.060000
-8.662330 2.202800 149.687000 -11.988000 9.420000
-6.757800 0.825575 152.387000 -11.988000 7.470000
-6.776890 0.827908 152.817000 -11.988000 7.310000
-6.795980 0.830240 153.248000 -11.988000 6.910000
-6.814930 1.308320 153.675000 -11.988000 6.630000
5.911180 -0.904536 6.205620 -9.146400 8.070000
6.092820 -0.949763 6.622550 -9.235200 9.990000
6.315810 -0.994990 6.999080 -9.324000 9.430000
6.475020 -1.040220 7.430620 -9.412800 5.860000
6.694270 -0.681448 7.276290 -9.057600 6.600000
6.911850 -0.711076 7.659590 -9.146400 4.690000
7.394670 -0.463608 7.214750 -8.702400 7.810000
7.054290 -0.865292 8.095370 -9.324000 4.270000
7.558510 -0.416351 7.664360 -8.880000 6.350000
6.272250 -1.118030 11.247900 -10.744800 6.350000
6.173660 -0.330467 12.325100 -11.011200 8.260000
6.366590 -0.340794 12.710200 -11.011200 6.270000
7.336910 4.255860 12.470300 -10.744800 8.070000
7.072000 4.377460 13.094200 -10.922400 5.210000
7.212280 1.624350 14.125600 -10.922400 4.860000
7.295170 1.668250 14.564100 -11.011200 4.960000
-7.639260 0.441724 14.961900 -10.656000 4.880000
7.217400 1.517050 14.619200 -11.011200 5.720000
-7.953180 0.453050 15.284700 -10.656000 5.920000
7.173080 1.608710 15.111900 -11.100000 6.330000
6.567580 -1.756050 15.838700 -11.366400 4.820000
6.606450 -1.799950 16.286000 -11.366400 10.290000
7.375980 -1.788170 16.429500 -11.188800 13.360000
7.551600 -1.830740 16.820700 -11.188800 13.850000
-7.720800 1.118170 18.221600 -11.100000 4.670000
17.449800 -2.653940 11.587300 -6.837600 4.430000
-7.887230 1.205010 18.614400 -11.100000 6.100000
17.805900 -2.708100 11.823800 -6.837600 4.700000
-7.898180 1.613540 19.047600 -11.100000 8.020000
18.162100 -2.762260 12.060300 -6.748800 6.990000
-7.542050 0.985168 20.617600 -11.366400 7.320000
-7.851720 1.004480 20.962000 -11.366400 6.080000
18.154900 1.410110 15.168300 -7.992000 6.410000
18.335400 1.435750 15.621400 -8.169600 6.360000
18.666100 1.385560 15.903200 -8.169600 7.980000
-7.784870 2.067500 23.203000 -11.455200 9.080000
8.109190 1.872620 23.565700 -11.632800 7.960000
-7.921450 2.103770 23.610100 -11.455200 6.250000
18.235900 1.726210 18.851200 -8.968800 5.610000
18.386700 1.754510 19.302500 -9.057600 4.600000
18.683200 1.782810 19.613800 -9.057600 3.980000
18.237800 1.811110 20.606500 -9.324000 6.470000
18.526400 1.752960 20.932600 -9.324000 8.190000
7.855180 0.980627 26.417000 -11.632800 7.810000
18.647100 1.779930 21.399000 -9.324000 7.950000
9.112520 0.411442 26.481500 -11.632800 14.170000
18.929600 1.806900 21.723300 -9.324000 9.650000
9.045560 0.329825 26.960500 -11.632800 15.380000
9.182610 0.334822 27.369000 -11.632800 12.240000
18.525400 1.952600 23.173200 -9.768000 8.690000
8.728870 0.339819 27.968800 -11.721600 15.600000
18.793900 1.980900 23.509000 -9.768000 11.740000
8.682300 -1.516570 28.395700 -11.632800 9.000000
19.062400 2.009200 23.844800 -9.768000 9.980000
8.810750 -1.352190 28.815800 -11.632800 9.790000
7.146490 0.924063 30.619200 -11.899200 7.820000
7.244390 0.936721 31.038600 -11.899200 7.900000
18.745100 1.589910 27.330600 -10.300800 10.250000
18.988500 1.610560 27.685500 -10.300800 8.230000
19.035500 1.755100 31.242100 -10.567200 7.360000
9.641900 1.063310 34.871500 -11.810400 5.400000
19.259500 1.775750 31.609600 -10.567200 6.500000
9.756690 1.075960 35.286700 -11.810400 5.300000
19.483400 1.796400 31.977200 -10.567200 5.290000
5.756610 1.317720 36.583800 -11.899200 6.560000
19.707400 1.817040 32.344800 -10.567200 5.110000
8.727020 1.217170 36.438000 -11.899200 8.140000
19.175000 1.600720 33.173600 -10.744800 10.400000
8.827330 1.231160 36.856900 -11.899200 12.380000
19.390500 1.618700 33.546300 -10.744800 10.710000
19.605900 1.636690 33.919100 -10.744800 7.820000
9.848670 1.796480 38.803100 -11.899200 6.740000
9.954570 1.815800 39.220300 -11.899200 10.170000
-6.362390 0.601339 40.433600 -11.988000 10.090000
19.757400 2.023530 37.266200 -11.011200 11.670000
19.659600 2.406500 37.782400 -11.011200 9.290000
19.861500 2.297740 38.170500 -11.011200 8.720000
19.973900 1.562870 39.119900 -11.100000 10.840000
20.169700 1.578200 39.503400 -11.100000 7.960000
20.365500 1.593520 39.886900 -11.100000 9.260000
20.068200 2.209360 41.450900 -11.100000 9.670000
-19.929900 -1.731420 44.392400 -10.922400 10.320000
-21.582000 -1.608900 44.577800 -10.833600 8.020000
-9.490030 2.202140 48.146900 -11.810400 7.440000
-21.769700 -1.622890 44.965400 -10.833600 7.440000
-9.293600 2.068350 48.630200 -11.810400 8.510000
-9.090710 2.086330 49.106500 -11.899200 6.580000
-9.169080 2.104320 49.529800 -11.899200 8.330000
19.919600 2.104320 46.265300 -11.277600 8.200000
-4.594420 2.122300 50.593700 -11.988000 6.070000
20.089900 2.122300 46.660800 -11.277600 7.010000
9.704600 -0.919483 50.780800 -11.988000 5.810000
11.457200 -0.927146 50.856100 -11.899200 7.460000
11.552900 -0.609676 51.281000 -11.899200 7.420000
11.348600 -0.614673 51.767800 -11.899200 11.390000
-18.740200 -0.784905 50.031200 -11.188800 11.520000
11.440800 -0.619670 52.188700 -11.899200 6.640000
-20.952100 -1.607620 50.528900 -11.011200 8.580000
20.404500 1.133340 50.300600 -11.366400 6.320000
20.956600 1.142340 50.539700 -11.366400 10.200000
20.349000 1.342520 52.173000 -11.455200 10.340000
20.505500 1.352850 52.574300 -11.455200 7.200000
20.664700 1.011430 52.982500 -11.455200 5.880000
20.249200 1.205300 54.060100 -11.544000 10.270000
-17.661700 -4.638920 56.591000 -11.455200 8.130000
20.711400 2.145120 56.618600 -11.544000 10.110000
20.861500 1.972650 57.029000 -11.544000 8.710000
20.820600 2.191090 57.953200 -11.632800 10.220000
20.968400 2.014620 58.364600 -11.632800 12.350000
21.116000 1.835470 58.775500 -11.632800 5.970000
21.087800 2.070580 60.150100 -11.632800 7.070000
-15.794700 0.347488 62.230000 -11.544000 6.470000
-18.898900 0.349820 61.809300 -11.544000 5.900000
20.829100 -1.367200 62.081500 -11.632800 8.230000
20.966100 -1.376200 62.489900 -11.632800 10.630000
21.103100 -1.385190 62.898400 -11.632800 9.480000
21.374500 1.766900 63.707100 -11.721600 9.930000
21.512700 1.621350 64.119200 -11.721600 10.250000
21.150500 1.789550 64.688800 -11.721600 10.170000
21.419500 1.652330 65.511400 -11.721600 12.400000
21.556200 1.233640 65.929400 -11.721600 13.070000
-27.900400 1.493130 65.846700 -11.100000 9.670000
-28.068500 1.502130 66.243400 -11.100000 8.990000
18.359500 1.134400 96.069100 -11.988000 9.300000
18.441000 0.835564 96.495300 -11.988000 5.190000
18.522500 0.228883 96.921800 -11.988000 5.630000
33.945800 0.232881 94.486700 -11.544000 6.690000
34.639000 0.545719 94.692400 -11.544000 7.090000
34.787000 0.548051 95.097100 -11.544000 8.350000
-17.559000 6.848240 102.560000 -11.899200 5.270000
-17.631500 6.876540 102.984000 -11.899200 5.980000
-17.704100 6.904840 103.408000 -11.899200 6.890000
19.610200 3.898790 131.202000 -12.076800 8.030000
-7.685610 0.799922 147.597000 -12.076800 7.130000
-7.708020 0.802254 148.027000 -12.076800 6.080000
-7.730430 0.804586 148.457000 -12.076800 5.230000
-7.752430 1.729080 148.880000 -12.076800 7.910000
-6.624030 1.271670 149.370000 -12.076800 9.980000
-6.738360 1.764060 151.948000 -12.076800 8.090000
-6.757450 1.769060 152.379000 -12.076800 7.630000
-6.776750 1.300990 152.814000 -12.076800 5.550000
-6.795840 1.304650 153.244000 -12.076800 5.120000
5.535950 -0.417606 6.017260 -9.146400 2.190000
5.316640 -0.592563 6.756630 -9.679200 2.940000
5.766020 -0.439585 6.389810 -9.146400 4.330000
5.636990 -0.622192 7.051230 -9.679200 5.510000
6.226440 -0.622192 6.536580 -9.235200 4.810000
6.054320 -0.461564 6.709300 -9.235200 6.720000
5.845700 -0.710305 7.428990 -9.768000 5.770000
6.029940 -0.710305 7.280240 -9.501600 4.900000
6.458010 -0.622568 6.911810 -9.146400 8.370000
6.520030 -0.710305 6.844800 -9.324000 3.420000
6.169630 -0.773153 7.717500 -9.679200 2.540000
6.824730 -0.559085 7.164670 -9.146400 8.100000
7.013850 -4.809030 9.735830 -10.478400 2.750000
6.479560 -1.196450 11.619700 -10.833600 6.360000
6.526190 -1.235050 12.083600 -10.922400 4.420000
8.367510 -0.781231 12.000600 -10.300800 8.510000
8.518140 -0.804209 12.419600 -10.300800 10.330000
-8.805120 0.714730 13.272100 -10.034400 6.130000
6.871560 -1.378230 16.217300 -11.366400 7.990000
7.428410 1.419080 15.966300 -11.188800 8.000000
6.910910 -1.411840 16.666600 -11.366400 5.180000
7.609590 1.453690 16.355800 -11.188800 11.560000
6.843400 -1.488300 17.154200 -11.455200 8.900000
7.969410 -1.595960 17.129200 -11.277600 5.310000
8.150530 -1.632230 17.518500 -11.277600 10.360000
-7.582340 1.011050 18.285900 -11.188800 7.720000
7.705670 -1.668510 18.185900 -11.455200 6.100000
-7.890940 1.033030 18.623100 -11.188800 4.680000
-7.906790 1.294490 19.068300 -11.188800 6.140000
8.471450 1.695970 19.265600 -11.455200 5.280000
-7.105000 1.730580 20.266000 -11.366400 3.620000
-8.128480 1.307560 20.375400 -11.277600 3.570000
-8.133740 1.004480 20.854200 -11.277600 3.640000
-6.432550 1.629550 22.751600 -11.721600 8.390000
-7.657370 1.659180 22.823000 -11.455200 5.670000
18.192400 1.409870 17.078000 -8.702400 9.940000
-6.541740 2.031220 23.137800 -11.721600 5.900000
-7.784870 2.067500 23.203000 -11.455200 8.050000
18.502700 1.512670 17.369400 -8.702400 6.840000
-7.604710 2.007480 23.722300 -11.544000 4.670000
18.816300 1.538310 17.663800 -8.702400 5.580000
-6.314410 2.007480 24.097900 -11.810400 5.900000
19.129900 1.563950 17.958200 -8.702400 5.320000
-6.419960 2.198790 24.500700 -11.721600 6.500000
18.108400 1.259540 19.010400 -9.057600 11.120000
7.862870 2.236060 24.527600 -11.810400 5.030000
18.402500 1.362710 19.319100 -9.057600 11.430000
18.850000 1.384690 19.486000 -9.057600 7.070000
8.971870 0.156253 27.440400 -11.810400 9.770000
18.695500 2.136070 23.019900 -9.856800 5.120000
7.037050 -1.313560 28.413300 -11.899200 8.400000
18.785900 2.167030 23.499000 -9.856800 11.040000
5.968400 -1.332870 29.096400 -11.899200 15.450000
8.196880 -1.445380 28.991900 -11.899200 12.260000
18.535700 1.845970 24.810400 -10.034400 18.330000
8.146120 -1.276980 29.461800 -11.899200 14.710000
6.797790 -2.420300 30.174000 -11.899200 7.950000
18.754700 1.179820 27.344700 -10.300800 8.340000
19.000300 1.091250 27.702800 -10.300800 8.130000
18.829900 0.826167 28.863000 -10.478400 8.510000
19.065300 0.836494 29.223800 -10.478400 9.870000
19.300600 0.846821 29.584500 -10.478400 5.740000
7.008190 1.348980 34.165500 -11.988000 10.380000
19.536000 0.857148 29.945300 -10.478400 8.510000
9.605920 1.365630 33.975600 -11.899200 6.010000
9.986580 1.492810 34.309700 -11.899200 10.030000
19.278500 1.641950 31.098900 -10.656000 4.570000
6.788370 1.510790 35.521200 -11.988000 10.790000
19.502500 1.775750 31.460300 -10.656000 7.840000
19.729300 1.796400 31.826100 -10.656000 9.220000
8.900990 1.546760 35.939300 -11.988000 8.240000
19.457500 1.817040 32.495700 -10.744800 6.810000
8.989060 -2.693300 36.294800 -11.988000 7.590000
18.918800 1.600720 33.320400 -10.833600 8.080000
19.128800 1.738530 33.690300 -10.833600 8.260000
19.341300 1.757850 34.064600 -10.833600 12.390000
9.409780 2.910010 39.288800 -11.988000 7.270000
-6.114690 0.351817 40.910500 -11.988000 7.350000
19.477400 1.632100 37.432400 -11.011200 14.830000
19.676200 1.648750 37.814400 -11.011200 13.530000
19.874900 1.665400 38.196300 -11.011200 7.400000
19.969100 1.834530 39.110500 -11.100000 12.250000
20.167400 1.715370 39.498800 -11.100000 8.500000
20.363200 1.732020 39.882300 -11.100000 6.430000
20.199400 2.047600 40.915000 -11.188800 13.140000
20.071000 2.066920 41.456900 -11.188800 5.700000
20.261300 1.942450 41.849900 -11.188800 6.690000
-21.988800 -1.524960 41.474900 -10.656000 8.470000
-22.190500 -1.538950 41.855400 -10.656000 8.650000
10.043200 2.504540 45.813400 -12.076800 12.880000
-22.403200 -0.406788 42.256700 -10.656000 7.510000
-22.904000 -2.461680 42.408200 -10.567200 13.900000
-20.530900 -1.430400 44.128400 -10.922400 10.490000
-23.355400 -2.483660 42.652500 -10.567200 8.150000
-20.712600 -1.443060 44.518900 -10.922400 7.590000
-23.562100 -2.505640 43.030000 -10.567200 9.440000
-21.237800 -1.608900 44.742800 -10.922400 5.720000
-23.768800 -2.527610 43.407400 -10.567200 11.430000
-21.769700 -1.622890 44.965400 -10.922400 9.000000
-8.711960 2.086330 49.175100 -11.988000 8.250000
-8.787070 2.104320 49.599000 -11.988000 6.600000
-8.862170 2.122300 50.022900 -11.988000 10.400000
19.987800 2.140290 47.172500 -11.455200 8.700000
8.940350 -1.664860 50.464200 -12.076800 8.290000
9.407420 -1.678850 50.817300 -12.076800 6.650000
20.339300 0.765916 48.002000 -11.455200 6.600000
-20.128900 -1.381800 48.543800 -11.188800 8.260000
9.484820 -1.854000 51.235400 -12.076800 6.060000
20.133700 0.772246 48.555300 -11.455200 10.830000
9.563210 -1.869320 51.658800 -12.076800 5.710000
-21.634800 -1.311540 50.249000 -11.100000 8.210000
-21.512100 -1.321870 50.769900 -11.100000 9.250000
20.504300 1.483740 52.571300 -11.544000 9.750000
20.662000 1.363180 52.975700 -11.544000 10.740000
20.662000 1.363180 52.975700 -11.544000 7.650000
20.252300 0.669644 54.068200 -11.632800 7.060000
20.820800 1.034420 54.307900 -11.632800 9.640000
20.972300 1.404480 54.703100 -11.632800 7.050000
21.126500 1.414810 55.105400 -11.632800 9.410000
-16.136300 -4.272140 57.073300 -11.721600 14.370000
-16.136300 -4.272140 57.073300 -11.632800 7.510000
20.563400 2.129800 56.214200 -11.721600 14.520000
20.711400 2.145120 56.618600 -11.632800 7.550000
11.052600 -2.160440 59.704100 -12.076800 7.900000
20.854300 2.535970 57.009400 -11.632800 8.130000
12.288700 -1.986640 59.908200 -12.076800 8.440000
11.645500 -1.103380 60.937000 -12.076800 8.230000
20.519900 1.822810 58.530000 -11.721600 10.280000
-18.645200 0.936822 60.979500 -11.632800 6.800000
-18.297400 0.943152 61.534400 -11.632800 6.720000
-18.419300 1.149350 61.944300 -11.632800 7.070000
20.967300 1.172340 62.493700 -11.721600 15.130000
21.365900 2.598030 63.681500 -11.721600 9.290000
21.010700 2.405600 64.260900 -11.721600 7.020000
21.139400 2.841730 64.654700 -11.721600 7.020000
21.046500 0.159918 65.652800 -11.810400 6.810000
21.176600 0.804572 66.058900 -11.810400 8.250000
-28.111900 1.264290 65.292600 -11.100000 6.410000
-28.786000 1.493130 65.464400 -11.100000 6.470000
-28.959400 1.502130 65.858800 -11.100000 6.460000
-1.476320 3.438430 76.608900 -12.165600 10.010000
-1.484610 3.457750 77.039300 -12.165600 8.710000
18.832400 0.225885 95.544800 -12.076800 7.430000
18.915800 0.226884 95.967600 -12.076800 5.380000
18.441400 0.531727 96.497400 -12.076800 6.540000
-18.147800 7.170020 102.436000 -11.988000 7.460000
-18.222700 7.199640 102.859000 -11.988000 5.800000
-18.297700 7.229270 103.282000 -11.988000 5.360000
-8.538480 1.257010 147.546000 -12.165600 6.390000
-8.563380 1.260680 147.977000 -12.165600 7.700000
-7.730020 1.724080 148.449000 -12.165600 5.090000
-7.752430 1.729080 148.880000 -12.165600 8.690000
-7.774830 1.734080 149.310000 -12.165600 9.580000
-6.738360 1.764060 151.948000 -12.165600 5.880000
-6.757450 1.769060 152.379000 -12.165600 6.150000
-6.776750 1.300990 152.814000 -12.165600 6.150000
-6.795840 1.304650 153.244000 -12.165600 6.060000
5.986510 -1.336850 7.227810 -9.768000 3.960000
6.126650 -1.397610 7.663740 -9.856800 3.940000
6.609080 -0.948728 7.324070 -9.324000 1.460000
5.692180 2.020060 10.939400 -10.922400 3.280000
6.384040 2.089720 11.044700 -10.833600 3.230000
6.596840 2.159380 11.412800 -10.833600 7.570000
-8.252040 0.598827 10.487100 -9.412800 6.160000
6.169230 -0.618144 12.316200 -11.188800 9.570000
-8.518230 0.618144 10.825400 -9.412800 7.090000
6.362020 -0.637461 12.701100 -11.188800 5.830000
8.418930 -0.417727 11.451900 -10.123200 6.820000
8.674050 -0.430386 11.799000 -10.123200 6.800000
-7.411760 1.567460 14.516300 -10.744800 16.920000
-7.491750 1.608710 14.956500 -10.833600 5.090000
-7.608640 1.291460 15.411700 -10.833600 3.370000
7.188450 -2.017230 16.011800 -11.366400 3.930000
7.371310 -1.899530 16.419100 -11.277600 7.320000
7.541750 -2.058690 16.798700 -11.277600 6.140000
7.752850 1.069550 17.268900 -11.277600 5.050000
-7.729040 0.643559 18.241000 -11.100000 10.320000
7.946500 1.775380 18.071800 -11.366400 6.580000
-8.004670 0.657549 18.591600 -11.100000 6.780000
-8.174980 0.671540 18.987200 -11.100000 4.470000
7.382260 1.695970 19.708700 -11.632800 9.920000
-8.131320 1.171850 20.382600 -11.277600 5.590000
-8.411770 1.142920 20.736500 -11.366400 5.650000
17.997200 1.629550 15.333300 -8.258400 5.470000
-7.042340 1.702660 22.564900 -11.632800 6.440000
18.324500 1.659180 15.612100 -8.258400 3.210000
-7.481240 1.659180 22.881300 -11.544000 9.080000
18.651700 1.688810 15.890900 -8.258400 6.240000
7.927320 1.872620 23.627500 -11.810400 12.570000
-8.129710 0.598971 23.625400 -11.455200 8.230000
8.063990 1.904910 24.034900 -11.810400 6.270000
-6.197940 1.937200 25.025200 -11.810400 5.990000
18.100400 1.482790 19.001900 -9.235200 5.960000
-6.310780 1.340730 25.480800 -11.810400 5.250000
18.402500 1.362710 19.319100 -9.235200 7.310000
-6.912030 1.362710 25.770200 -11.721600 6.260000
18.699300 1.384690 19.630700 -9.235200 4.290000
-6.872030 1.384690 26.226000 -11.810400 5.950000
-6.984120 1.151080 26.653700 -11.721600 7.200000
8.908510 0.324827 26.552000 -11.810400 10.760000
18.647100 1.779930 21.399000 -9.501600 8.160000
9.045840 0.241874 26.961300 -11.810400 9.850000
18.929600 1.806900 21.723300 -9.501600 9.180000
9.182900 0.245539 27.369800 -11.810400 7.980000
6.454880 -1.072560 29.444700 -11.988000 9.470000
7.457690 -0.455751 30.111700 -11.899200 11.520000
9.196600 -0.462081 30.077700 -11.810400 7.200000
7.504320 -2.521150 31.332900 -11.899200 5.920000
8.031920 -2.554770 31.645200 -11.899200 10.270000
18.946700 1.871720 27.173200 -10.389600 5.070000
8.376300 -2.971830 31.966700 -11.899200 5.730000
19.192800 1.896030 27.526100 -10.389600 6.610000
9.412330 1.037990 34.041300 -11.988000 5.000000
9.527120 1.050650 34.456400 -11.988000 7.780000
9.161600 1.930100 34.963700 -11.988000 6.730000
19.035500 1.755100 31.242100 -10.744800 8.640000
8.998800 1.868240 35.454600 -11.988000 4.140000
19.259500 1.775750 31.609600 -10.744800 5.680000
8.617510 2.090490 35.980800 -11.988000 9.110000
19.483400 1.796400 31.977200 -10.744800 7.540000
6.529260 2.114800 36.854700 -12.076800 6.760000
6.388710 2.139110 37.315900 -12.076800 6.200000
19.172400 1.719210 33.169100 -10.833600 6.880000
19.387900 1.738530 33.541800 -10.833600 7.190000
19.603300 1.757850 33.914500 -10.833600 5.790000
19.823800 1.532170 34.296100 -10.833600 7.610000
19.227400 1.796480 35.113800 -10.922400 8.790000
9.841110 2.384380 38.773300 -11.988000 8.090000
19.434200 1.815800 35.491400 -10.922400 8.720000
9.946930 2.410010 39.190200 -11.988000 6.850000
19.640900 1.835120 35.868900 -10.922400 8.540000
19.479700 1.501590 37.436700 -11.188800 11.440000
19.386400 1.516910 37.969300 -11.188800 4.500000
-6.060700 0.890482 42.217000 -12.076800 14.840000
19.249200 1.816550 38.990200 -11.188800 13.750000
19.439800 1.834530 39.376300 -11.188800 7.870000
19.632800 1.715370 39.767300 -11.188800 8.140000
19.823400 1.732020 40.153400 -11.188800 6.820000
19.569000 1.906470 41.227000 -11.277600 12.580000
19.750900 2.066920 41.610300 -11.277600 7.080000
-21.149200 -2.291950 42.838800 -10.833600 9.770000
-21.014400 -1.865250 43.405300 -10.833600 7.370000
-21.206700 -1.580920 43.802500 -10.922400 8.190000
-22.473100 -0.715277 43.189500 -10.656000 7.270000
-20.453000 -1.594910 44.633600 -11.011200 6.340000
-9.294760 1.915210 48.636300 -11.988000 13.170000
-9.374420 2.086330 49.053100 -11.988000 5.130000
-9.455230 2.104320 49.476000 -11.988000 7.380000
-9.247450 2.122300 49.953100 -11.988000 8.100000
10.294700 -2.140290 50.187400 -12.076800 4.980000
10.381200 -2.158270 50.609200 -12.076800 7.330000
19.964000 1.370480 48.145900 -11.544000 6.230000
20.128900 1.381800 48.543800 -11.544000 10.090000
20.292200 1.556980 48.937500 -11.544000 6.960000
11.035200 -1.404460 52.260800 -12.076800 7.160000
20.455200 1.734810 49.330600 -11.544000 6.100000
11.833700 -1.415780 52.527400 -12.076800 6.700000
20.433900 0.980782 51.221000 -11.544000 9.480000
11.984800 2.338130 54.669900 -12.076800 14.320000
20.505500 1.352850 52.574300 -11.632800 13.530000
-29.588600 -1.187310 48.562300 -10.300800 9.250000
20.662000 1.363180 52.975700 -11.632800 7.880000
20.818500 1.373500 53.377000 -11.632800 6.880000
20.400400 1.214290 54.463500 -11.632800 7.520000
20.550000 1.404480 54.863100 -11.632800 10.750000
20.701100 1.414810 55.266500 -11.632800 7.620000
11.242900 -0.138929 58.830300 -12.076800 6.690000
11.666100 -0.139929 59.187100 -12.076800 6.760000
14.599900 -1.784830 58.949600 -12.076800 5.450000
11.133200 -1.797490 60.139600 -12.165600 6.150000
11.211600 -1.810150 60.563100 -12.165600 10.440000
-18.767800 1.538740 61.380500 -11.632800 11.140000
-18.893700 1.549060 61.792500 -11.632800 9.420000
-19.379000 1.559390 62.093400 -11.632800 7.940000
-16.597000 1.569720 63.339600 -11.721600 7.610000
20.968400 0.968472 62.496800 -11.810400 7.550000
21.589700 0.974802 62.740700 -11.810400 7.560000
-28.440800 1.256630 64.679600 -11.100000 7.530000
-28.614300 1.264290 65.074000 -11.100000 6.180000
-28.786000 1.493130 65.464400 -11.100000 7.730000
-28.959400 1.502130 65.858800 -11.100000 8.110000
-29.136000 1.063420 66.260500 -11.100000 12.650000
-2.376710 2.027400 77.067800 -12.254400 6.020000
-2.986680 2.518270 77.463600 -12.254400 11.790000
-0.530508 1.064430 91.774000 -12.254400 5.600000
-17.638400 6.230140 103.024000 -11.988000 6.780000
-17.310300 7.329320 110.009000 -12.076800 4.700000
-17.377100 7.357620 110.433000 -12.076800 7.640000
-16.589000 7.385920 110.989000 -12.076800 5.370000
19.618000 1.128740 131.254000 -12.165600 5.690000
19.681100 1.544180 131.676000 -12.165600 5.210000
19.745400 1.136070 132.107000 -12.165600 7.010000
19.809100 1.139740 132.533000 -12.165600 5.870000
-61.994800 -15.015300 128.051000 -10.744800 4.920000
-62.201600 -14.619100 128.478000 -10.744800 6.610000
-62.368300 -15.105800 128.822000 -10.833600 6.730000
-62.451300 -17.258100 128.994000 -10.833600 5.400000
-8.538480 1.257010 147.546000 -12.254400 6.500000
-8.563380 1.260680 147.977000 -12.254400 7.900000
-8.588000 1.724080 148.402000 -12.254400 6.700000
-7.752110 2.190140 148.874000 -12.254400 11.920000
-8.637790 1.734080 149.263000 -12.254400 6.080000
-8.662950 1.275330 149.697000 -12.165600 11.260000
-7.909780 0.352820 151.901000 -12.254400 6.470000
-6.757880 0.353819 152.388000 -12.254400 6.090000
-6.776970 0.354819 152.819000 -12.254400 5.070000
-6.796060 0.355818 153.249000 -12.254400 5.560000
-6.815070 0.832572 153.678000 -12.254400 8.720000
20.491500 4.729800 196.228000 -12.254400 11.650000
20.536200 4.740130 196.657000 -12.254400 9.970000
20.581000 4.750460 197.085000 -12.254400 7.440000
5.506240 -0.782622 7.138030 -9.945600 4.440000
5.803780 -0.782622 6.898270 -9.768000 4.600000
5.768440 -0.819890 7.477930 -9.945600 5.480000
6.080160 -0.819890 7.226760 -9.768000 3.540000
6.030640 -0.857157 7.817840 -9.945600 2.670000
6.872310 1.273140 10.358700 -10.656000 7.040000
6.332050 -1.624860 11.152200 -11.100000 5.230000
7.109290 1.317040 10.715900 -10.656000 8.830000
6.454110 -1.679020 11.574100 -11.100000 6.410000
6.263070 -0.660744 12.266600 -11.188800 4.490000
6.862290 1.447260 11.872000 -10.922400 8.700000
6.361100 -0.681392 12.699300 -11.277600 5.300000
7.076730 1.492480 12.243000 -10.922400 8.040000
8.035820 -0.593525 11.716400 -10.478400 8.340000
7.113550 -1.142920 12.756600 -11.011200 8.670000
7.484750 1.537710 12.500200 -10.833600 8.630000
8.279330 -0.611511 12.071400 -10.478400 8.380000
7.427210 -1.083510 13.081100 -11.011200 8.280000
-7.990000 1.756770 12.669900 -10.389600 6.980000
-8.218290 1.806970 13.031900 -10.389600 8.970000
-1.100240 1.437200 15.406400 2.131200 8.310000
-1.131120 1.428020 15.838900 2.131200 9.810000
-1.255700 1.466620 16.260000 2.131200 5.360000
-1.415190 1.763850 16.652300 2.131200 6.400000
-7.626060 0.559617 15.447000 -10.922400 6.770000
-0.757842 2.113590 17.089100 2.131200 6.090000
7.413710 1.799950 15.934800 -11.366400 11.180000
-7.816710 0.573607 15.833200 -10.922400 7.640000
-0.989397 -4.339890 17.097000 2.131200 7.510000
-8.007370 0.587597 16.219300 -10.922400 7.900000
-8.812260 0.377780 15.802900 -10.656000 10.100000
-1.822080 -4.445740 17.448400 2.131200 5.030000
7.373680 1.843850 16.424400 -11.455200 7.480000
7.585460 -0.544311 16.896100 -11.455200 9.650000
8.251060 -0.967087 17.042600 -11.366400 10.910000
-7.393070 1.856210 17.829400 -11.277600 5.930000
-7.697600 1.897460 18.166900 -11.277600 4.900000
7.804770 1.836430 18.127400 -11.544000 7.500000
-7.864940 1.938700 18.561800 -11.277600 4.720000
7.974440 1.876350 18.521400 -11.544000 7.460000
-8.139270 2.043620 18.904300 -11.277600 5.590000
7.519030 2.151160 19.612300 -11.721600 4.710000
17.662100 1.743480 15.047800 -8.436000 6.990000
-6.915810 1.599920 22.159400 -11.721600 7.260000
17.989200 1.775760 15.326500 -8.436000 4.330000
-7.043880 1.629550 22.569800 -11.721600 6.510000
18.320500 1.733620 15.608700 -8.436000 6.320000
-7.030650 2.031220 22.993900 -11.721600 5.240000
18.651700 1.688810 15.890900 -8.436000 5.250000
-7.156200 2.067500 23.404500 -11.721600 3.320000
18.162500 2.007480 17.050000 -8.880000 4.050000
8.101570 2.161530 23.543600 -11.899200 5.830000
-7.281740 2.103770 23.815100 -11.721600 11.330000
18.479100 1.983300 17.347200 -8.880000 5.180000
-6.561470 2.198790 24.463200 -11.899200 8.270000
18.801000 1.857450 17.649400 -8.880000 12.470000
7.879880 1.458480 24.580700 -11.899200 6.630000
18.100400 1.482790 19.001900 -9.324000 9.270000
-6.991150 1.645090 25.284600 -11.810400 5.790000
18.390300 1.672050 19.306300 -9.324000 8.750000
-7.107100 1.589580 25.704000 -11.810400 5.300000
18.686900 1.699020 19.617700 -9.324000 5.520000
-6.996080 2.765780 26.083500 -11.810400 11.380000
18.979800 1.811110 19.925200 -9.324000 4.670000
18.379500 1.342140 21.091900 -9.679200 4.310000
8.703240 0.411442 26.618800 -11.899200 7.720000
18.452200 1.450630 21.591900 -9.679200 7.160000
8.837140 0.417772 27.028300 -11.899200 12.230000
8.971040 0.424102 27.437800 -11.899200 10.760000
6.648080 -1.743410 28.483700 -11.988000 12.120000
6.126790 -2.136070 29.015500 -11.988000 7.380000
-12.906200 1.980900 27.190300 -14.119200 7.380000
-12.292900 1.820330 27.956300 -14.385600 15.170000
-12.466100 1.845970 28.350100 -14.296800 16.910000
-12.639200 1.871610 28.743800 -14.296800 8.780000
19.030800 2.389210 25.473100 -10.300800 9.760000
-15.299800 1.487410 29.403600 -12.876000 8.160000
-17.035900 1.077260 28.451400 -12.520800 9.710000
9.140610 1.884150 34.079000 -12.076800 8.800000
9.518820 1.824280 34.426400 -12.076800 10.900000
18.808700 1.846260 30.869800 -10.833600 10.900000
6.786490 1.734450 35.511400 -12.165600 6.650000
19.032600 1.868240 31.237300 -10.833600 10.460000
9.477630 1.755100 35.335500 -12.076800 7.710000
19.256500 1.890220 31.604800 -10.833600 7.650000
9.106060 1.775750 35.877300 -12.076800 5.090000
19.480500 1.912200 31.972300 -10.833600 8.430000
9.211950 1.796400 36.294400 -12.076800 7.660000
19.454500 1.934170 32.490700 -10.833600 5.200000
19.172400 1.719210 33.169100 -11.011200 6.890000
19.385100 1.858340 33.537000 -11.011200 10.560000
19.600500 1.878990 33.909600 -11.011200 6.590000
19.230000 1.672660 35.118500 -11.100000 8.090000
19.436800 1.690650 35.496100 -11.100000 8.450000
19.282900 1.357070 37.058600 -11.188800 11.570000
19.481700 1.371060 37.440700 -11.188800 13.950000
19.678500 1.516910 37.818700 -11.188800 11.970000
-5.544490 1.399040 42.708900 -12.254400 5.970000
19.478900 1.547550 38.887600 -11.366400 6.000000
19.671800 1.562870 39.272600 -11.277600 11.940000
19.864600 1.578200 39.657700 -11.277600 10.220000
20.055200 1.732020 40.038100 -11.277600 15.210000
10.318100 1.379770 45.799900 -12.165600 10.720000
10.412800 1.392420 46.220100 -12.165600 13.990000
-22.066000 -1.552940 42.407300 -10.833600 8.730000
-21.016800 -1.716100 43.410300 -11.011200 7.350000
-22.276300 -0.261199 42.811300 -10.833600 10.440000
-20.858400 -2.182820 43.943600 -11.011200 4.740000
-24.039800 -0.564700 42.339700 -10.567200 7.770000
-21.996500 -0.873509 43.913800 -10.922400 13.710000
-23.591200 -0.569697 43.083200 -10.656000 14.400000
-21.935700 -0.421447 44.431900 -10.922400 10.600000
-8.636860 2.068350 48.751200 -12.076800 7.040000
-22.126400 -0.425112 44.818300 -10.922400 7.980000
-9.090710 2.086330 49.106500 -12.076800 6.380000
-9.169080 2.104320 49.529800 -12.076800 7.200000
-8.863270 1.965180 50.029200 -12.165600 7.440000
9.490680 0.282188 51.267100 -12.254400 7.130000
19.962200 1.531670 48.141800 -11.632800 4.870000
8.858580 -2.803240 51.742200 -12.254400 5.760000
20.127200 1.544320 48.539600 -11.632800 4.490000
20.292200 1.556980 48.937500 -11.632800 7.630000
20.110800 1.427110 50.411200 -11.721600 7.470000
20.271600 1.311540 50.814300 -11.721600 8.070000
20.431200 1.321870 51.214400 -11.721600 6.140000
-18.242500 1.321870 52.034200 -11.544000 10.100000
-19.096100 0.000000 52.203000 -11.366400 8.690000
11.168300 0.816555 54.446500 -12.254400 5.870000
-18.081600 1.332190 52.546100 -11.632800 8.140000
11.254900 0.822885 54.868500 -12.254400 9.150000
-29.733000 -1.352850 47.963400 -10.300800 7.000000
-29.960000 -1.363180 48.329500 -10.300800 5.960000
-21.394800 -0.312506 53.629700 -11.366400 11.530000
20.398900 1.394160 54.459700 -11.810400 8.470000
20.550000 1.404480 54.863100 -11.810400 7.300000
20.701100 1.414810 55.266500 -11.810400 7.120000
20.246600 1.250270 56.355400 -11.810400 7.250000
21.114000 2.028610 58.769900 -11.810400 11.120000
20.599700 2.056590 59.863800 -11.899200 7.630000
20.741800 1.873440 60.276800 -11.899200 5.800000
20.881900 1.886100 60.684100 -11.899200 7.790000
-18.769100 1.340220 61.384800 -11.721600 9.220000
-18.895100 1.349210 61.796800 -11.721600 7.040000
-19.021000 1.358210 62.208700 -11.721600 5.650000
-17.819400 -0.151922 63.026000 -11.810400 6.780000
-16.570800 -1.439160 66.907500 -11.899200 8.180000
-28.610600 1.703970 65.065600 -11.188800 9.240000
-28.786000 1.493130 65.464400 -11.188800 7.230000
21.309400 -0.608349 68.278800 -11.988000 12.140000
-28.959400 1.502130 65.858800 -11.188800 16.180000
21.438500 0.166915 68.692400 -11.988000 15.600000
21.566800 0.167914 69.103800 -11.988000 14.740000
21.695300 0.000000 69.515300 -11.988000 16.170000
22.360400 -0.849548 69.751600 -11.988000 12.950000
-17.565800 6.204500 102.600000 -12.165600 5.310000
-17.638400 6.230140 103.024000 -12.165600 5.850000
-17.704100 6.904840 103.408000 -12.165600 6.360000
-16.401600 6.957900 109.735000 -12.165600 7.600000
-16.465200 6.984870 110.161000 -12.165600 7.650000
-17.383900 6.666000 110.476000 -12.165600 5.610000
29.301500 2.237410 122.343000 -12.165600 7.030000
29.401800 2.245070 122.762000 -12.165600 5.240000
29.504900 1.469220 123.192000 -12.165600 7.050000
30.558700 0.687980 123.386000 -12.165600 7.630000
19.553700 1.534180 130.824000 -12.343200 8.110000
19.617400 1.539180 131.250000 -12.343200 6.200000
19.681100 1.544180 131.676000 -12.343200 5.150000
-62.071000 -13.254200 128.208000 -10.922400 6.020000
-62.239800 -13.735900 128.557000 -10.922400 5.710000
-62.388400 -14.663000 128.864000 -10.922400 6.150000
-62.575100 -14.706900 129.249000 -10.922400 5.810000
-8.513590 1.253350 147.116000 -12.343200 7.170000
-8.538480 1.257010 147.546000 -12.343200 7.700000
-8.563380 1.260680 147.977000 -12.343200 10.320000
-7.730260 1.264340 148.454000 -12.343200 8.630000
-8.613160 1.268010 148.837000 -12.343200 12.250000
-7.775070 1.271670 149.315000 -12.343200 9.910000
-7.909680 0.823243 151.900000 -12.343200 5.000000
-7.932090 0.825575 152.330000 -12.343200 8.590000
-7.954500 0.827908 152.760000 -12.343200 9.270000
-7.976900 0.830240 153.191000 -12.343200 5.760000
