VERSION .7
FIELDS x y z velocity SNR
SIZE 4 4 4 4 4
TYPE F F F F F
COUNT 1 1 1 1 1
WIDTH 291
HEIGHT 1
VIEWPOINT 0 0 0 1 0 0 0
POINTS 291
DATA ascii
-2.61492124927721 6.36371222010946 0.589171639393202 -2.63015002395936 5.79768946678543
6.02368332125952 5.39945557749817 -1.07609034963552 -2.78486473125109 5.84287193957342
3.39224606507187 7.19164684286667 1.83568353761353 3.09429414583454 7.43497365393071
1.75543865484819 8.19614362488554 -1.24894649177154 -2.32072060937591 6.82776551472394
1.75932097003133 8.21427015568182 -1.11747844000612 -2.16600590208418 7.58723171081302
1.48727868919982 7.84963346909398 2.82656311295664 2.93957943854282 7.26613830367814
1.48289250719872 7.8264838594832 2.89229713883936 3.09429414583454 13.7105627687834
6.17165912198383 6.60768732582973 2.62936103530851 -3.55843826770973 5.04429628619728
-8.07024646563939 4.43246022078669 -1.97202077648138 3.86786768229318 9.64403905177468
-6.13131996649011 6.84756149504632 -2.04505858301773 3.86786768229318 9.64403905177468
-5.91588435599822 7.32539591647903 -0.0730378065363472 3.86786768229318 9.64403905177468
6.3351449509048 6.92798195007443 0.730378065363474 3.86786768229318 9.64403905177468
5.20618549114533 8.2169516656212 -0.226417200262678 -4.17729709687663 39.258090931529
6.15470843679646 7.31522706012478 1.81133760210141 -3.86786768229318 10.1036546409226
6.31223957032735 7.1983560900509 1.73586520201386 -3.71315297500145 14.7329821179925
-0.301880518577687 9.72507577663384 -0.0754724000875587 -3.55843826770973 8.5659009352832
4.72257264679111 7.92440020257601 3.09436840358992 -3.55843826770973 8.5659009352832
5.95352436663751 7.67791419151201 -0.528306800612912 -3.55843826770973 8.5659009352832
-8.68861211445059 4.02103448343853 -1.73586520201386 3.71315297500145 24.7906697211578
-6.27439159986622 7.00734630697818 -2.49058920288945 3.71315297500145 24.7906697211578
-8.71233697744002 4.03201419929403 -1.58492040183874 3.86786768229318 103.669270866661
-6.33569729870644 7.0758135448812 -2.11322720245165 3.86786768229318 103.669270866661
-2.43941518414978 9.21263415777471 -1.96228240227653 3.86786768229318 103.669270866661
-8.71233697744002 4.03201419929403 -1.58492040183874 4.02258238958491 36.4415383406858
-6.32428532131581 7.06306845615813 -2.18869960253921 4.02258238958491 36.4415383406858
-2.43941518414978 9.21263415777471 -1.96228240227653 4.02258238958491 36.4415383406858
6.64149699523486 7.41733580086999 1.3244188918591 -3.71315297500145 19.5412906666872
6.13963717779057 7.91793306201196 -0.701162942748936 -3.55843826770973 20.9199990813736
6.66037976743826 7.43842439917613 1.09069791094279 -3.55843826770973 20.9199990813736
6.13220864394508 7.90835291386407 -0.856976930026476 -3.403723560418 8.1815342116229
-2.52968690180861 9.55355206096245 -1.79186085369172 3.71315297500145 116.907223068734
-2.52598993752704 9.53959019844647 -1.86976784733049 3.86786768229318 522.889983429809
-2.52598993752704 9.53959019844647 -1.86976784733049 4.02258238958491 167.233994373485
5.6544431176727 8.5700540181174 -1.3658069822297 -4.33201180416836 22.4934389091343
5.77048177786013 8.5710375793908 -0.72307428470984 -4.17729709687663 16.8648942260287
6.87938065908863 7.68300828669821 0.964099046279786 -3.71315297500145 8.46449522799889
6.25739964055735 8.23484350394884 -0.562391110329875 -3.55843826770973 15.2637115303376
-2.68779233317165 9.83082805599105 -1.84785650536959 3.71315297500145 171.043045841925
-2.68779233317165 9.83082805599105 -1.84785650536959 3.86786768229318 486.080931681394
-2.68779233317165 9.83082805599105 -1.84785650536959 4.02258238958491 141.514229063769
4.65729394731547 9.04851627402538 1.92819809255957 4.79615592604354 24.9730363012812
-3.56138310106092 9.80846956717933 -2.23495688001223 3.71315297500145 80.2150823662404
-3.23201362574672 9.90286617502213 -2.31773306075342 3.71315297500145 80.2150823662404
-3.15668047594036 9.94609939703109 -2.23495688001223 3.86786768229318 98.8180709334441
-2.77310989156632 10.1428842503568 -1.82107597630626 3.86786768229318 98.8180709334441
-2.77310989156632 10.1428842503568 -1.82107597630626 4.02258238958491 21.6682893379383
4.70237218293585 9.33490070590768 2.15218069927104 4.64144121875182 10.4839711457102
4.06303734711208 9.43306481977734 2.89716632594178 4.79615592604354 21.284337775967
-3.71448736682719 9.97244259276678 -2.72674477735697 3.71315297500145 13.1833057595545
-9.998535444155 3.92661114355623 -2.30069090589494 3.86786768229318 12.0911069019754
-2.53400139716447 10.5906849865491 -1.44858316297089 4.02258238958491 6.6945676949196
5.34234510428535 9.94706542261973 0.438226839218085 -4.33201180416836 5.33622934789456
-3.4714761574331 10.6365776254726 -1.5776166211851 3.71315297500145 8.72369890880696
-3.45899234836328 10.5983273255394 -1.84055272471595 3.86786768229318 16.7283594836764
-3.44453173299141 10.5540201055155 -2.1034888282468 4.02258238958491 7.75134489291915
-2.25119188965289 10.9332637108941 -1.75290735687234 4.02258238958491 7.75134489291915
5.15549727039149 10.0164605196802 -0.876453678436169 4.79615592604354 6.56655895969747
-3.46158959647942 10.906810005234 -1.98175915068623 3.86786768229318 8.05481216648709
-3.40332996665273 11.7030787595648 -1.13938978196702 3.86786768229318 5.96398753873971
-2.14565622534257 11.8341133783393 -2.27877956393404 4.02258238958491 9.17731817872474
-3.32071997602436 11.7724403464434 0.474745742486258 4.48672651146009 9.6681569031078
5.41193865159837 10.9792905545067 0.0949491484972513 4.48672651146009 9.6681569031078
5.50638790649828 10.9309902227434 0.189898296994503 4.64144121875182 9.02881701063956
5.1216983208893 11.1034485827931 0.56969489098351 4.79615592604354 7.13649071339188
-2.2038938917272 12.1553163458723 -2.23982606711465 4.02258238958491 6.10035163641321
4.95924447037179 11.5137692690397 0.681686194339242 4.48672651146009 25.2523473716162
5.55070630933166 11.260810825135 -0.0973837420484629 4.48672651146009 25.2523473716162
4.95160754783364 11.4960387932474 0.973837420484632 4.64144121875182 21.2526104816456
5.5508732967624 11.2611495953316 -0 4.64144121875182 21.2526104816456
5.24287858005914 11.3661580773087 0.973837420484632 4.79615592604354 9.37818966349156
5.18492916435707 11.762793086783 0.598910013598049 4.48672651146009 13.6228561348645
5.58965863430943 11.5909981234589 0.0998183355996745 4.48672651146009 13.6228561348645
5.07217099465552 11.7759483071422 1.09800169159642 4.64144121875182 9.80028119222108
5.68896044981719 11.5412893147251 0.199636671199349 4.64144121875182 9.80028119222108
5.9883794208602 11.3888077496105 0.199636671199349 4.79615592604354 7.24390994193035
6.5719375803407 11.0276045257568 0.898365020397074 4.79615592604354 7.24390994193035
-6.70305509238627 15.5623361970721 0.394404155296277 3.55843826770973 10.1544966889255
4.57792877339435 16.2294302995021 -1.70908467295053 3.55843826770973 10.1544966889255
5.78442025919826 15.9309763836472 0.131468051765425 3.55843826770973 10.1544966889255
4.86197604725058 16.2282918835527 -0.525872207061702 3.71315297500145 9.27635485975752
5.78459427767871 15.9314556510894 -0 3.71315297500145 9.27635485975752
4.52948508267059 16.5669752385098 -1.74073438911628 3.55843826770973 21.1244069257488
5.89153915288711 16.2259944648258 0.133902645316636 3.55843826770973 21.1244069257488
5.89171639393202 16.2264826075911 -0 3.71315297500145 24.2266161656016
4.6185622065156 16.8927823618633 -1.49970962754633 3.55843826770973 14.3470313013949
5.85967883972943 16.5624001931992 0.545348955471395 3.55843826770973 14.3470313013949
5.99865804657597 16.5210125460045 0.136337238867848 3.71315297500145 14.7049109017246
3.61463771499261 16.8767446143366 -5.78946346478114 3.403723560418 15.0482439935287
4.30088059438789 17.3616075633424 3.38895422328652 3.403723560418 15.0482439935287
-4.51194006716179 17.6089004525136 -0.988444981791901 3.55843826770973 15.2434028633549
4.85759393223124 16.7038767700796 5.36584418687032 3.55843826770973 15.2434028633549
3.67988803950064 17.8719488762147 3.16010242947263 3.403723560418 35.743089626459
4.45166585474746 17.9702909385831 -0.430923058564451 3.403723560418 35.743089626459
4.73501739352872 17.8821478445801 0.861846117128899 3.55843826770973 44.4722670829917
5.26512089693205 17.069312569792 4.88379466373043 3.55843826770973 44.4722670829917
5.35474924611652 17.3598841135974 3.59102548803708 3.71315297500145 17.4013901211121
3.77550597282111 18.3363322481024 2.04505858301773 3.403723560418 40.4069175670233
4.38174103965381 18.3131860525158 -0.292151226145389 3.403723560418 40.4069175670233
4.99060927505009 17.6924433276885 4.09011716603545 3.403723560418 40.4069175670233
4.59463907067562 17.3519985938373 5.6969489098351 3.55843826770973 49.8583061922605
5.43681976526052 17.625953472964 3.79796593989007 3.55843826770973 49.8583061922605
-3.84989858361007 17.975177683005 4.09011716603545 3.71315297500145 26.3170915914029
4.63945441019718 17.5212470802579 5.11264645754432 3.71315297500145 26.3170915914029
5.31809178221128 17.7507138798127 3.35973910067198 3.71315297500145 26.3170915914029
5.65290556912226 17.8112295815343 2.33720980916312 3.71315297500145 26.3170915914029
-7.76496810242663 16.4619273683478 -5.94040826495626 3.24900885312627 21.1531377751717
5.48892360410597 18.3209159214854 0.891061239743438 3.403723560418 37.0492975765688
4.59400315189005 17.9291708169901 4.90083681858891 3.55843826770973 33.713569738259
5.4214900904555 18.0958365028256 3.11871433910203 3.55843826770973 33.713569738259
-6.38517041500663 18.0477037407051 0.297020413247812 3.71315297500145 22.073931070445
4.57384596399238 17.8505026809313 5.19785723183672 3.71315297500145 22.073931070445
5.22780567508676 17.9769291119937 4.00977557884547 3.71315297500145 22.073931070445
7.20572377400524 17.5359592370306 2.67318371923031 3.71315297500145 22.073931070445
-6.05440276272389 17.1127879581322 6.08891847158016 3.86786768229318 9.78114419991444
4.77523869160117 18.0340465893694 4.30679599209328 3.86786768229318 9.78114419991444
5.86291759790604 17.0148583590405 6.53444909145188 3.86786768229318 9.78114419991444
6.47680295547207 16.957426927139 6.08891847158016 3.86786768229318 9.78114419991444
5.54702648928602 18.5148515910187 2.26417200262677 3.403723560418 39.5889944934783
5.49536150828499 18.3424043424731 3.47173040402771 3.55843826770973 32.5250781696836
5.30430471519609 18.2399874402202 4.2264544049033 3.71315297500145 17.0603202994603
6.65136336064088 17.4144572452408 5.58495760647937 3.86786768229318 12.3861418970168
3.47598290041488 19.1713729621859 3.37434666197925 3.09429414583454 11.5122122235042
4.26545541721906 19.1708874393876 2.30069090589494 3.09429414583454 11.5122122235042
5.38985801705409 18.5341807860302 4.29462302433723 3.403723560418 16.8206563389411
5.3992091398437 18.5663366238624 4.1412436306109 3.55843826770973 15.5100329374702
6.54432529348385 18.4975554923348 2.45407029962127 3.71315297500145 8.53649491297103
5.04627063330693 19.0576190178065 1.5337939372633 3.86786768229318 6.05658645303555
5.43307755047531 18.6828004052079 3.52772605570558 3.86786768229318 6.05658645303555
6.4800253226901 18.315811427886 3.68110544943191 3.86786768229318 6.05658645303555
7.28039523898129 17.7176808526597 4.90814059924254 3.86786768229318 6.05658645303555
4.42869220019554 19.1835675732614 1.84055272471595 4.02258238958491 5.93644630666054
5.03572165073378 19.0177799949888 1.99393211844228 4.02258238958491 5.93644630666054
6.43788596481461 18.1967044037456 4.29462302433723 4.02258238958491 5.93644630666054
7.38095019804098 17.5417607692083 5.36827878042153 4.02258238958491 5.93644630666054
3.68468580747913 19.4472180953827 3.4279077201059 3.09429414583454 6.57705242672107
4.49557449916397 19.4732786309997 2.02558183460803 3.24900885312627 6.23824262670831
-9.50436729457492 17.6964537921574 0.155813987277541 3.403723560418 7.35990965143782
6.84426414864012 18.3750877500887 4.36279164377115 4.33201180416836 6.05356494266376
2.88023623786518 19.3300601360745 5.85519749066385 2.93957943854282 6.25626719007007
3.74724171072689 19.7773787541676 3.32322019740381 2.93957943854282 6.25626719007007
6.93868513310156 18.6285837925045 4.58920884403383 4.33201180416836 6.20129749504007
8.20413407435181 18.6123143660715 -1.58248580828753 4.33201180416836 6.20129749504007
-9.96486081756313 17.7913234577445 -0.632994323315012 4.48672651146009 5.39542632759009
4.19475190225726 20.3724653415595 3.09923759069234 3.09429414583454 5.14004516968437
3.23201362574672 20.5816610153949 4.63546612150685 3.09429414583454 5.29166922975881
4.63828149261314 24.4801528508983 3.11627974555082 2.93957943854282 8.11597137609748
4.63828149261314 24.4801528508983 3.11627974555082 3.09429414583454 13.3489373448501
4.70070596999652 24.8096198637168 2.95803116472207 2.93957943854282 13.3122782269422
5.91161138588953 24.7071742031836 0.98601038824069 2.93957943854282 13.3122782269422
4.6962600112708 24.7861547615345 3.15523324237021 3.09429414583454 31.6930364403546
4.68649281253469 24.7346049540539 3.54963739766648 3.24900885312627 14.3859301892632
5.78667619637732 25.0658860041993 0.798546684797399 2.93957943854282 5.63771642644227
4.74944261868539 25.0668445731796 3.39382341038894 3.09429414583454 12.4413846436479
5.98261057425817 25.0039104398543 1.1978200271961 3.09429414583454 12.4413846436479
5.97755826645703 24.9827946660285 1.5970933695948 3.24900885312627 5.2686573388844
14.6204967604032 22.6122738949615 1.88437540863776 -3.55843826770973 6.06461089529675
14.3898780707149 36.7552690531869 2.45407029962128 4.17729709687663 9.36875387503525
15.9495373843399 36.1839288705429 0.613517574905316 4.17729709687663 9.36875387503525
14.3824886736059 36.7363947251665 2.76082908707393 4.33201180416836 14.0103146984657
15.9471376054157 36.1784846104491 0.92027636235798 4.33201180416836 14.0103146984657
14.4966354091107 37.0279534134615 2.78274042903484 4.33201180416836 6.01741248523111
16.0737021895857 36.4656154406908 0.927580143011615 4.33201180416836 6.01741248523111
18.7646636018444 34.9384648197426 4.01951395305032 4.33201180416836 6.01741248523111
14.1362904780608 38.9330131053751 -0.964099046279788 4.02258238958491 11.371035613698
14.1384177546163 38.938871876185 -0.642732697519855 4.17729709687663 15.7733455291091
14.2403822965518 39.2196942640398 -1.29520376924456 4.02258238958491 6.93782122016619
14.2433835877431 39.2279601743552 -0.971402826933423 4.17729709687663 9.43024996118412
15.5424452309347 38.7438105400586 -0 4.17729709687663 9.43024996118412
-14.7810731070988 40.7088205978298 -0.671947820134394 3.86786768229318 7.11099005670708
-13.0931244768961 41.2539433298568 1.67986955033599 3.86786768229318 7.11099005670708
-4.35173350760976 42.9365093056908 3.69571301073918 3.86786768229318 7.11099005670708
14.0764782762952 40.85155216079 -3.02376519060478 3.86786768229318 7.11099005670708
15.1115471738869 40.5706149455013 -1.34389564026879 3.86786768229318 7.11099005670708
-14.7824073290622 40.7124952026539 -0.335973910067197 4.02258238958491 9.50401776902435
-12.760862057949 41.3702073306714 1.34389564026879 4.02258238958491 9.50401776902435
14.0900887011152 40.8910511724428 -2.35181737047038 4.02258238958491 9.50401776902435
15.4431724599287 40.4329837286766 -1.67986955033599 4.02258238958491 9.50401776902435
15.2279245459954 40.8830582378956 -0.338408503618409 3.86786768229318 14.709144616841
15.2279245459954 40.8830582378956 -0.338408503618409 4.02258238958491 20.3456410068785
15.3374779599954 41.1771809590316 0.34084309716962 4.02258238958491 6.68270414904328
13.6710320437199 43.0748200849594 -0.701162942748933 3.86786768229318 9.58145565553034
16.8030871466715 41.8863065126325 2.45407029962127 3.86786768229318 9.58145565553034
13.7340380697807 43.2733400817058 -3.17714458433111 3.71315297500145 6.40835676193204
16.5597803194734 42.2977302596198 2.82412851940544 3.71315297500145 6.40835676193204
13.7609982718729 43.358286547405 -1.41206425970272 3.86786768229318 15.0192003877586
16.5597803194734 42.2977302596198 2.82412851940544 3.86786768229318 15.0192003877586
13.8460261891171 50.6430132432655 4.90814059924254 3.403723560418 8.87243394930462
16.3584998813742 50.1223243178428 -0.818023433207088 3.403723560418 8.87243394930462
13.8645011339342 50.7105869183591 4.09011716603546 3.55843826770973 11.7546434264144
16.3584998813742 50.1223243178428 -0.818023433207088 3.55843826770973 11.7546434264144
16.4578524061903 50.4267397292032 -0 3.403723560418 10.758954321708
16.4573573031062 50.4252227369647 -0.411446310154756 3.55843826770973 15.6130078939241
-47.7908908099863 23.1774633732009 -12.7085783373245 3.403723560418 7.73202502909118
13.1306173154959 53.0051043950254 0.847238555821627 3.403723560418 7.73202502909118
16.4609050070456 51.8651788209227 4.65981205701897 3.403723560418 7.73202502909118
-13.3749312124231 52.1987944815335 -10.6513467865507 3.403723560418 8.41462769502017
13.5926481705237 53.0484857861501 -4.26053871462027 3.403723560418 8.41462769502017
16.1075271656468 52.2199625229969 5.53870032900634 3.403723560418 8.41462769502017
16.5660399578258 52.1964390414397 4.26053871462027 3.55843826770973 5.54586579776875
3.85196739208048 55.043532440317 6.46384587846675 2.63015002395936 13.8828514004899
5.14049659376412 54.9871672016031 6.0329228199023 2.63015002395936 13.8828514004899
3.85196739208048 55.043532440317 6.46384587846675 2.78486473125109 7.48491643244314
5.13595652277398 54.9386027024173 6.46384587846675 2.78486473125109 7.48491643244314
4.7202432751764 55.1203691308286 7.8004377380819 2.63015002395936 10.2015711326246
5.16008816053211 55.1967354287117 6.93372243385058 2.78486473125109 5.96004805889759
13.4510163285781 58.2651647492973 7.47907138932197 3.24900885312627 11.9159238475137
13.5458377755639 58.6758985626716 6.57827177537369 3.09429414583454 5.65472375020735
16.42785952403 58.2391763420934 2.81925933230301 3.09429414583454 5.65472375020735
13.5210737052894 58.5686291490332 7.51802488614136 3.24900885312627 39.9873501247755
13.5210737052894 58.5686291490332 7.51802488614136 3.403723560418 17.9968715510289
13.5628644873046 58.7496524070262 8.50160068083084 3.24900885312627 7.12725774551337
16.0194014338238 58.5923172382832 4.25080034041542 3.24900885312627 7.12725774551337
13.547459358266 58.682922699806 8.97391182976589 3.403723560418 5.05787750377884
16.0101977379954 58.5586539414384 4.72311148935047 3.403723560418 5.05787750377884
-27.8746377839811 55.3352575686917 4.82049523139893 3.24900885312627 6.04193937317486
-12.4694059922932 60.559610515017 6.2666438008186 3.24900885312627 6.04193937317486
13.5394124636986 60.8522483412178 3.87587293352884 3.09429414583454 10.7473374692886
16.4719644249728 60.2476047006299 0.484484116691103 3.09429414583454 10.7473374692886
13.516086457303 60.7474107097622 5.32932528360215 3.24900885312627 44.2462533871032
13.5066628021289 60.7050565377128 5.81380940029325 3.403723560418 11.5967122526011
13.6004621027006 61.1266330535274 4.38226839218085 3.09429414583454 12.5801859629328
16.5547381155506 60.5503564830452 0.486918710242314 3.09429414583454 12.5801859629328
13.5840064897518 61.052674080163 5.35610581266548 3.24900885312627 45.5549804760571
16.5547381155506 60.5503564830452 0.486918710242314 3.24900885312627 45.5549804760571
13.5745354795265 61.0101070730782 5.84302452290779 3.403723560418 16.404223877749
16.550753314534 60.5357817359013 1.46075613072695 3.403723560418 16.404223877749
15.9903162107935 62.4059455951946 5.51678898704544 3.24900885312627 8.11889494447539
15.9011853336774 64.189212766223 3.5958946751395 3.09429414583454 6.69878593040002
15.9765464016095 64.4934270447359 3.61293682999798 3.09429414583454 19.3473431392117
16.4919188661776 64.3635671712566 3.61293682999798 3.24900885312627 14.5411347959346
16.5697109363011 64.6671689031965 3.62997898485646 3.09429414583454 5.93895865790701
5.40623711649427 2.50197218896603 0.27754366483812 -3.32229476710656 5.20483612467518
5.69540628764847 2.6357978441388 0.146075613072695 -3.32229476710656 6.06102893343245
-1.92409563218196 7.50923282310377 1.21729677560579 1.86879080649744 8.26501961014418
4.50212786517487 7.87271761715287 -0.776635342836494 0.726751980304561 45.1778183960434
7.13614028952495 6.09971287994365 -0.730378065363474 -0.934395403248721 8.04741643059264
4.60124338799861 8.21508809028309 -0.0730378065363472 0.5191085573604 23.8158861965624
5.67221661108788 7.46473276375987 -0.876453678436169 1.0382171147208 12.261937193734
5.74493733687106 7.40891162809196 -0.876453678436169 1.14203882619288 8.05192795313192
6.28750686981669 7.0219936615447 -2.41511680280189 1.24586053766496 5.09018803520939
-8.96798007336885 3.52189285000393 -1.35850320157606 1.5573256720812 14.4496836271982
-8.30428457870754 4.90577378098642 -1.2830308014885 1.5573256720812 14.4496836271982
-6.41863106275191 6.72680889928888 -2.86795120332724 1.5573256720812 14.4496836271982
-5.96160211450676 7.68833159323599 -0.150944800175117 1.5573256720812 14.4496836271982
-2.7476807541425 9.17120217123657 -1.73586520201386 1.5573256720812 14.4496836271982
3.92410928250198 8.70145051968713 1.88681000218897 1.5573256720812 14.4496836271982
-8.88477573396674 3.48921695580789 1.88681000218897 1.66114738355328 13.9631346611811
-8.3751679640164 4.94764829165136 0.226417200262678 1.66114738355328 13.9631346611811
-6.71623529355825 7.03870200681948 0.150944800175117 1.66114738355328 13.9631346611811
-6.03124968461799 7.62186952390542 -0.452834400525354 1.66114738355328 13.9631346611811
5.98076519503043 8.03143423292653 -0.779069936387706 0.830573691776641 14.1522223313053
7.21584303964663 6.77306500149582 1.71395386005295 0.830573691776641 14.1522223313053
-2.42913284659692 9.48025856836418 -2.25930281552435 1.5573256720812 133.01696684861
-2.43351614173871 9.49736540193395 -2.18139582188558 1.66114738355328 146.305330225113
-2.43773816543208 9.51384283599069 -2.1034888282468 1.76496909502536 13.1382096512238
4.81120543397761 9.15003707690614 0.642732697519858 0.5191085573604 17.1092103374066
-2.83286924610943 9.74142743360696 -2.08888126693954 1.5573256720812 443.980721266175
-2.50504324805307 9.77651664862556 -2.32990602850948 1.5573256720812 443.980721266175
-2.83739612149261 9.7569940638377 -2.00853967974955 1.66114738355328 445.821314048398
-2.50956352116804 9.79415807074438 -2.2495644413195 1.66114738355328 445.821314048398
-2.84589776453469 9.78622878368034 -1.84785650536959 1.76496909502536 36.6429727013645
-2.51810599654171 9.82749707707734 -2.08888126693954 1.76496909502536 36.6429727013645
-2.99479942589214 9.99603427572562 -2.23495688001223 1.45350396060912 9.58817277899388
-3.0045827616479 10.0286890701335 -2.06940451852984 1.5573256720812 269.649766432674
-3.00918119451611 10.0440377082319 -1.98662833778865 1.66114738355328 226.90505810907
-2.9278519730427 10.0680458764233 -1.98662833778865 1.76496909502536 18.0228189733436
-2.59855806412791 10.1414800706979 -2.06940451852984 1.76496909502536 18.0228189733436
5.02728444244293 9.76735967413442 -0.085210774292405 0.726751980304561 5.84434273203219
-3.11069103550726 10.3828570098179 1.78942626014051 1.5573256720812 29.2611107678038
-2.68675006795353 10.4856699741445 -1.87463703443292 1.5573256720812 29.2611107678038
-3.11462980459454 10.3960038237449 1.70421548584811 1.66114738355328 19.3221062618224
-2.6790802367711 10.4557366656855 -2.04505858301773 1.66114738355328 19.3221062618224
-2.67715453199656 10.8070208765149 -1.92819809255957 1.5573256720812 8.13062005182634
-2.16720821586196 10.9638914421279 -1.66526198902872 1.66114738355328 8.87629861456634
-3.47475717276534 10.9482985320443 -1.71151926650174 1.5573256720812 6.3260065822668
-3.47870839942776 10.9607480952561 -1.62143930510691 1.66114738355328 7.30478038728147
-2.22192216821947 11.2406889503816 1.8916791892914 1.66114738355328 7.30478038728147
-3.27883649688603 11.6239572574694 -1.99393211844228 1.66114738355328 6.24178268440378
-2.05537060771949 11.8679927861151 -2.18383041543679 1.66114738355328 6.24178268440378
-3.44957304792083 11.8620954953701 -2.23982606711465 1.66114738355328 7.85908787221501
4.79740644155314 17.546920295721 -0.706032129851358 -0.20764342294416 81.2262089678154
6.15823131813048 16.9604961773249 4.16558956612301 -0.10382171147208 24.9245631677048
4.59270897732188 17.9241199983179 3.50581471374467 -0.20764342294416 20.4810379793637
5.11126205301785 18.1201751573861 -0.438226839218086 -0.10382171147208 9.43706096474361
5.5673151171711 18.582570924071 3.83448484315824 0.20764342294416 5.21067260227922
-9.98784040589898 16.7594339897729 -3.22096726825292 0.31146513441624 5.7873752650192
15.9956960462138 17.8642629859717 -4.93735572185709 1.45350396060912 26.4279618110644
16.6533541146432 32.355300616212 -6.89476893703119 0.20764342294416 12.258866189998
16.4398219668044 32.6354656145286 -6.0329228199023 0.31146513441624 21.2275011556433
19.204221611992 62.2593227718005 7.63245078304831 -0.31146513441624 11.2287798334189
19.2961078398005 62.5572142683163 7.66896968631648 -0.31146513441624 6.4430617413241
