VERSION .7
FIELDS x y z velocity SNR
SIZE 4 4 4 4 4
TYPE F F F F F
COUNT 1 1 1 1 1
WIDTH 269
HEIGHT 1
VIEWPOINT 0 0 0 1 0 0 0
POINTS 269
DATA ascii
4.45232868403728 7.78563548568026 1.55327068567299 3.86786768229318 5.18022283453665
4.68405213840861 8.0231900943814 1.5337939372633 3.55843826770973 8.85801576242374
4.67782377902624 8.0125217008998 1.60683174379964 3.71315297500145 5.96929200892105
6.16604949768062 7.03164375475102 1.09556709804521 3.86786768229318 5.18765734675652
5.76320492064931 7.13633926071441 -3.24531320376504 -4.79615592604354 5.40395952547484
4.37748251153457 8.32517501771593 2.49058920288945 3.09429414583454 6.22318094405558
4.06323089954584 8.80877250991421 0.75472400087559 3.55843826770973 5.42617599301642
4.85213839440205 8.31110063513521 1.43397560166362 3.55843826770973 5.42617599301642
4.83375123832711 8.27960575759646 1.6603928019263 3.71315297500145 6.05225114353892
4.7385470581156 8.28613580540445 1.88681000218897 3.86786768229318 5.3719435518782
5.15073152636526 8.12942836299591 1.43397560166362 3.86786768229318 5.3719435518782
6.08672474805199 7.5369405368622 0.905668801050708 4.79615592604354 5.43220094958603
4.69009069318878 8.37371661243979 2.96046575827328 2.93957943854282 6.5706462063455
4.1046281608443 8.70191477499793 2.88255876463451 3.09429414583454 12.2318424226847
4.68851537700511 8.54783437544886 2.41511680280189 3.09429414583454 12.2318424226847
4.7992970131944 8.56869424418207 2.1034888282468 3.24900885312627 5.82618506222407
4.16586990733909 9.03128599552368 2.89229713883936 2.93957943854282 8.08343380402346
4.64983915072501 8.84314777546487 2.73161396445939 2.93957943854282 8.08343380402346
4.84443928840824 8.83210597587549 2.41024761569947 3.09429414583454 9.18494885003712
-0.662209445929551 10.6511049073813 -0 2.63015002395936 5.58380018753218
4.43601408509399 9.40446125605641 2.40050924149462 2.63015002395936 5.58380018753218
-2.84652275156929 10.4113980022865 2.04505858301773 2.63015002395936 10.0459121652737
-0.596403641508434 10.9680182319945 -0.17042154858481 2.63015002395936 10.0459121652737
4.28334310268437 9.71740925274972 2.81195555164937 2.63015002395936 10.0459121652737
-3.22395217638756 10.4519247489428 1.02252929150886 2.78486473125109 5.65302982417102
-2.83291837584392 10.3616388460769 2.30069090589494 2.78486473125109 5.65302982417102
0.511203121292944 10.972319381505 0.17042154858481 2.78486473125109 5.65302982417102
1.24981693051937 10.6689710722689 -2.30069090589494 2.78486473125109 5.65302982417102
5.41272378139059 8.89826125500065 -3.49364174598862 2.78486473125109 5.65302982417102
-3.22825394049938 10.4658708971251 0.852107742924053 2.93957943854282 9.8368102310424
-1.67186640155288 10.6465477947481 2.13026935731013 2.93957943854282 9.8368102310424
4.54975969829696 10.0887885736851 2.27877956393404 2.47543531666763 15.5914062952932
5.13109890120328 9.9690576623221 1.40232588549787 2.63015002395936 29.1882959657723
5.14471995486222 9.99552159762368 1.13938978196702 2.78486473125109 12.0559029402521
-1.71689045218753 10.9332637108941 2.27877956393404 2.93957943854282 22.2647916007919
5.28484286008172 9.63502470095508 2.62936103530851 2.93957943854282 22.2647916007919
5.7931229270098 9.14331830189351 3.24287861021383 2.93957943854282 22.2647916007919
4.79098490404808 9.93482798600308 2.45407029962127 3.09429414583454 8.59410246132751
5.19960345911265 9.68129066353009 2.62936103530851 3.09429414583454 8.59410246132751
5.60203836052849 9.02342391602742 3.85639618511914 3.09429414583454 8.59410246132751
4.2576557476083 10.3614959408676 3.06271868742417 2.32072060937591 7.58346169585174
4.66836381094951 10.3517852802956 2.43215895766037 2.32072060937591 7.58346169585174
4.66836381094951 10.3517852802956 2.43215895766037 2.47543531666763 13.9608062009244
5.27362942623671 10.2459759307199 1.44127938231726 2.63015002395936 27.8521528325782
5.39161176214204 10.2538642768153 0.810719652553457 2.78486473125109 11.4193267993045
5.67435464635168 10.131027495062 -0.180159922789656 2.78486473125109 11.4193267993045
5.39889509755931 9.84295824872357 2.97263872602934 2.93957943854282 21.5875017793667
5.89282891850328 9.30068482566954 3.69327841718797 2.93957943854282 21.5875017793667
5.02257812742482 10.4150713770912 -1.08095953673794 3.09429414583454 8.24514642251792
5.77468083646103 9.30150595438479 3.87343833997762 3.09429414583454 8.24514642251792
5.28714031229427 10.4957514874237 2.03532020881288 2.63015002395936 5.77000227138829
-1.81794730352325 11.5767999388685 2.22034931870496 2.93957943854282 14.6319163354819
5.89522683682296 10.3087823281016 1.11017465935248 2.93957943854282 14.6319163354819
5.88591700378265 10.2925025402359 1.29520376924456 3.09429414583454 9.2166476577146
5.92956326936485 10.5866785316756 -1.61413552445328 2.93957943854282 13.68096297592
5.90937871033884 10.5506408965236 1.89898296994503 3.09429414583454 9.24475015848399
6.02615630114367 10.9865451727807 -0.779069936387706 2.93957943854282 5.91858040410485
4.113892166754 13.3370748074674 -3.69571301073918 1.701861780209 5.13047267572518
4.9278496117621 13.2300079407894 3.02376519060478 1.701861780209 5.13047267572518
4.2267664791944 13.7030088397264 1.67986955033599 1.85657648750073 5.26783369466782
4.64669095171943 13.485229335302 2.23982606711465 1.85657648750073 5.26783369466782
5.36588068836318 13.0584890530163 3.02376519060478 1.85657648750073 5.26783369466782
5.05142491326335 13.5617758210926 2.86064742267361 1.54714707291727 9.42123801119683
5.5422509917739 13.1718597757792 3.66162870102222 1.54714707291727 9.42123801119683
5.01720309624266 13.4698990499648 3.31835101030138 1.701861780209 9.90793654159377
3.85650879301792 14.1055074726845 1.94524024741805 1.85657648750073 5.71562588069099
4.30070430392162 13.9427123272066 2.17409204123194 1.85657648750073 5.71562588069099
-1.32582362886272 14.1821484034341 4.90814059924255 1.39243236562554 5.99808555534375
5.15890203907746 13.8503242428179 2.9215122614539 1.39243236562554 5.99808555534375
5.5353972403921 13.4710271185337 3.85639618511914 1.39243236562554 5.99808555534375
5.15890203907746 13.8503242428179 2.9215122614539 1.54714707291727 16.4330718544127
5.00071152351818 13.7725499899349 3.50581471374468 1.701861780209 9.303696964282
4.90444796458983 14.2332697080007 -0.584302452290779 1.85657648750073 7.14757179516354
5.3697577837244 14.0589849436458 -0.701162942748935 1.85657648750073 7.14757179516354
4.83188515631694 14.4047701095581 2.38590168018735 1.39243236562554 9.77751718813699
5.31569786606944 14.2712806841905 2.14731151216861 1.39243236562554 9.77751718813699
5.56897419664525 13.8821966538352 3.57885252028102 1.39243236562554 9.77751718813699
4.82577474157072 14.3865537991852 2.50519676419672 1.54714707291727 21.8053724198929
5.3267764016729 14.3010237010342 1.90872134414988 1.54714707291727 21.8053724198929
5.01024280026516 14.5402984379929 0.119295084009367 1.85657648750073 15.4939414546825
-11.7415117701011 8.8387738066885 -4.53321319235596 3.55843826770973 9.09565010554455
-10.8422788873453 10.6437542531797 -2.38590168018735 3.55843826770973 9.09565010554455
-7.629784831686 13.0688583890619 -2.74378693221545 3.55843826770973 9.09565010554455
-1.30078738387776 15.1898697969942 -2.02801642815925 3.55843826770973 9.09565010554455
4.45988256336892 14.8861852261996 2.19113419609042 1.39243236562554 8.90726887156136
4.95233180200882 14.7638445050641 1.94767484096926 1.39243236562554 8.90726887156136
5.45405443373834 14.6427324599409 1.46075613072695 1.39243236562554 8.90726887156136
4.95233180200882 14.7638445050641 1.94767484096926 1.54714707291727 21.1729700152721
5.45405443373834 14.6427324599409 1.46075613072695 1.54714707291727 21.1729700152721
-1.44644839893046 15.472454559539 -2.19113419609042 3.403723560418 7.02711975784837
-1.44644839893046 15.472454559539 -2.19113419609042 3.55843826770973 52.7539323783048
-1.44644839893046 15.472454559539 -2.19113419609042 3.71315297500145 17.4097506018071
-1.47696081434729 15.7988415646943 -2.11079260890044 3.403723560418 10.5201660156407
-1.47696081434729 15.7988415646943 -2.11079260890044 3.55843826770973 66.2820945045248
-1.47696081434729 15.7988415646943 -2.11079260890044 3.71315297500145 23.6530525154964
-2.63253608605344 15.9456678872264 -2.27877956393404 3.403723560418 9.26678335039164
-2.11765456552918 15.9193127642411 -2.91177388724905 3.403723560418 9.26678335039164
-1.38435219003441 16.1656930105823 -1.77238410528203 3.403723560418 9.26678335039164
-1.50744148509927 16.1248890016461 -2.02558183460803 3.55843826770973 17.8376986464979
-1.50886858296185 16.1401544662469 -1.89898296994503 3.71315297500145 5.95454323857844
4.50746771718609 15.979635499896 -1.03226766571371 1.54714707291727 7.67805374545312
4.95849320576781 15.6232683858757 2.8387360807127 1.54714707291727 7.67805374545312
5.91765647138157 15.4934815654046 1.29033458214214 1.54714707291727 7.67805374545312
4.81019847532501 15.5944721698418 3.22583645535534 1.701861780209 6.64784467965353
5.76706982430129 15.4830982237119 1.93550187321321 1.701861780209 6.64784467965353
6.0457666646321 15.0707327414414 3.61293682999798 1.701861780209 6.64784467965353
-1.54462391023529 16.5226241602289 -1.16130112392792 3.55843826770973 8.1795328614595
6.13122834804799 15.6606571960922 2.1034888282468 1.54714707291727 11.724349089153
6.11847672747584 15.6280864374875 2.36642493177765 1.701861780209 8.16968288566826
-1.57528942000045 16.8506487940406 -0.920276362357976 3.55843826770973 5.61376177318451
6.09919074882344 15.968770726686 2.41024761569946 1.701861780209 5.9282423937107
4.08511591004047 19.8400010853487 4.33844570825904 0.928288243750363 5.09576265609933
4.94734794990375 19.9712388429515 2.41024761569947 0.928288243750363 5.09576265609933
6.96635910476523 19.1861755206221 3.53502983635921 1.23771765833382 5.06185798701461
6.01334858715975 20.0713403607084 1.79429544724293 1.08300295104209 7.25685393889332
5.99966622219457 20.0256713960416 2.28364875103646 1.23771765833382 11.2978688928332
6.68460870960828 19.928091959796 0.652471071724704 1.23771765833382 11.2978688928332
6.78580885895894 20.2297888833131 0.496657084447164 1.23771765833382 5.93646905426076
1.99339220067696 28.4850148238079 -0.664644039480763 4.17729709687663 6.7061548925068
16.6141014420207 23.2290062823014 -0.443096026320506 4.17729709687663 6.7061548925068
15.4250162095403 24.3453893163789 1.79186085369173 4.02258238958491 11.7533691627883
17.0098711152838 23.307722985919 -1.11991303355733 4.02258238958491 11.7533691627883
16.7966739853396 23.4842700876014 -0.447965213422929 4.17729709687663 24.335090282065
15.8105371943895 24.4528078166444 2.03775480236409 4.02258238958491 6.26848795212572
16.9792465286585 23.7395338929015 -0.452834400525352 4.17729709687663 12.7301034978029
-5.14124281986046 29.6862436723612 0.467441961832622 3.55843826770973 8.47698556418734
-3.72047544758398 29.7464333418246 3.03837275191205 3.55843826770973 8.47698556418734
2.33608458726755 30.026532333016 0.934883923665248 3.55843826770973 8.47698556418734
-4.90681157089714 29.7212973106942 0.701162942748937 3.71315297500145 19.234619409118
2.33270566495884 29.9831018337498 1.8697678473305 3.71315297500145 19.234619409118
15.1845498172391 26.0092172506654 0.934883923665248 3.71315297500145 19.234619409118
15.1135020913732 26.4284662130557 0.236155574467522 3.55843826770973 25.4119434740548
15.1121379856505 26.4260808478513 0.472311148935045 3.71315297500145 62.3730845115267
15.1121379856505 26.4260808478513 0.472311148935045 3.86786768229318 10.3533109938024
5.22984249855442 30.1978304118245 2.62449184820608 0.618858829166909 20.4917143632715
5.23886813922006 30.2499457032992 1.90872134414988 0.773573536458636 16.4869033695719
15.2693113912843 26.7009246276233 0.238590168018734 3.55843826770973 13.3294151724762
15.2679332226159 26.6985146710251 0.477180336037468 3.71315297500145 33.4026540165863
15.2656359983467 26.6944975932083 0.715770504056206 3.86786768229318 6.24037821535588
5.04917155562761 30.5835931967672 2.16922285412952 0.464144121875182 6.45991460159975
6.74361595131101 30.3088626398841 1.20512380784973 0.464144121875182 6.45991460159975
5.27551791981634 30.4615665808654 3.1333219004093 0.618858829166909 57.8334812012378
6.74361595131101 30.3088626398841 1.20512380784973 0.618858829166909 57.8334812012378
5.50071195764589 30.3385268336614 3.85639618511914 0.773573536458636 58.60476022921
6.74361595131101 30.3088626398841 1.20512380784973 0.773573536458636 58.60476022921
6.80947545037514 30.6048650405366 1.46075613072695 0.618858829166909 23.9140108766348
6.80372485612995 30.5790192669436 1.94767484096927 0.773573536458636 29.842817801508
6.05049034105947 30.6093889758698 3.40843097169621 0.928288243750363 5.15512742988993
1.47465339571264 31.6515438987466 0.98357579468948 3.24900885312627 6.29378796761731
2.68646313408752 31.3710186053351 3.68840923008555 3.24900885312627 6.29378796761731
10.10340563777 29.3212403210279 7.9465133511546 1.85657648750073 6.28716167808948
10.1237902596219 29.3803988283277 7.69818480893102 2.01129119479245 9.08994083399508
14.1031095948958 28.6112145633212 -2.73161396445939 3.24900885312627 23.1009686479139
15.0822785274311 28.0821265391838 -2.97994250668297 3.24900885312627 23.1009686479139
16.8863408712035 27.1994945884367 -0 3.24900885312627 23.1009686479139
14.1120815113259 28.6294160403994 -2.48328542223581 3.403723560418 13.4349282107319
15.092801496292 28.1017195564181 -2.73161396445939 3.403723560418 13.4349282107319
16.8843088061327 27.1962214611606 0.496657084447161 3.403723560418 13.4349282107319
14.2314460357679 28.8715728496535 -3.00915762929751 3.24900885312627 21.4012960192384
15.1926623505597 28.2876533422685 -3.76144703662189 3.24900885312627 21.4012960192384
16.7965806799411 27.6127822363058 0.75228940732438 3.24900885312627 21.4012960192384
14.241375375238 28.8917166668832 -2.75839449352272 3.403723560418 13.1132937971002
15.218585440866 28.3359202868779 -3.2599207650723 3.403723560418 13.1132937971002
17.0498412454085 27.4628510833289 0.501526271549584 3.403723560418 13.1132937971002
-6.1395233851299 32.4034820092322 4.38713757928327 2.93957943854282 7.59158557697149
-3.77860416539507 32.2557788662712 7.22587365999597 2.93957943854282 7.59158557697149
-2.48930782816591 31.9959655556313 8.77427515856653 2.93957943854282 7.59158557697149
0.507853809832787 32.7328249654969 -5.93553907785383 2.93957943854282 7.59158557697149
2.82838420840188 33.0282937811276 -2.8387360807127 2.93957943854282 7.59158557697149
4.12857377958492 33.009314659227 -0.516133832856853 2.93957943854282 7.59158557697149
-6.23320008962587 32.8978935813375 2.60501509979639 2.78486473125109 7.17286446441278
-5.20752189245058 33.1618188323395 1.04200603991856 2.78486473125109 7.17286446441278
-3.6151753266213 33.0942435608897 4.42852566965386 2.78486473125109 7.17286446441278
1.81272690618141 33.3365197206692 3.64702113971495 2.78486473125109 7.17286446441278
2.86336074123126 33.4367302298613 1.3025075498982 2.78486473125109 7.17286446441278
14.8199706776916 30.0655226443835 2.08401207983711 2.78486473125109 7.17286446441278
16.6640700558418 29.1398915870196 -1.04200603991856 2.78486473125109 7.17286446441278
-5.204384808501 33.1418416893248 1.56300905987783 2.93957943854282 38.0918304222923
14.8324967042279 30.0909344041407 1.56300905987783 2.93957943854282 38.0918304222923
16.6675821614601 29.1460330864622 -0.781504529938919 2.93957943854282 38.0918304222923
-5.19998971147075 33.1138534418478 2.08401207983711 3.09429414583454 17.1062898413693
16.6700903553051 29.1504190795886 -0.521003019959276 3.09429414583454 17.1062898413693
16.5569995122587 29.5609682067139 -1.0517444141234 2.78486473125109 12.5256086990298
16.5604890517778 29.5671984519165 -0.788808310592554 2.93957943854282 77.2615281371042
16.5629811298914 29.5716478234242 -0.525872207061699 3.09429414583454 35.9672299123419
-16.435155390584 29.9636398554835 1.59222418249237 -3.09429414583454 9.65165204715284
-15.3873327138947 30.5461195807119 0.796112091246189 -3.09429414583454 9.65165204715284
-14.5936319626248 30.9388662310217 0.530741394164123 -3.09429414583454 9.65165204715284
-16.4406048336796 29.9735749699652 1.32685348541031 -2.93957943854282 7.30127629064228
-15.6450916965661 30.3963779023648 1.32685348541031 -2.93957943854282 7.30127629064228
-14.5936319626248 30.9388662310217 0.530741394164123 -2.93957943854282 7.30127629064228
16.7138269133684 29.8409688079528 -0.796112091246189 2.93957943854282 24.6787270640771
16.717850976395 29.8481533946952 -0.265370697082061 3.09429414583454 12.4172097019569
14.9761736921904 33.9757066661493 4.05603285631849 2.47543531666763 6.11317195676718
16.5058976619123 33.4857909447226 1.15886653037671 2.47543531666763 6.11317195676718
14.8898884220722 36.2362594796299 2.13026935731013 2.16600590208418 9.77936223829889
16.4315288987018 35.6222926132313 0.608648387802893 2.16600590208418 9.77936223829889
14.8898884220722 36.2362594796299 2.13026935731013 2.32072060937591 5.77610941525991
16.4335064706782 35.6265798373869 -0 2.32072060937591 5.77610941525991
15.0148933680772 36.5404734220904 1.84055272471595 2.16600590208418 8.28216285378722
16.5629811298914 35.9072709541372 0.613517574905316 2.16600590208418 8.28216285378722
15.0148933680772 36.5404734220904 1.84055272471595 2.32072060937591 5.17552934500996
14.5129254983996 42.1181719863794 1.38284913708818 1.701861780209 14.8279827427737
14.263282944638 42.5215635674794 1.74073438911628 1.701861780209 19.7459906880714
17.0407123145638 41.4705372964994 2.08888126693954 1.701861780209 19.7459906880714
14.6063248410547 42.3892275759498 2.08888126693954 1.85657648750073 5.90683440879788
16.7065251104355 41.6455991347584 1.04444063346977 1.85657648750073 5.90683440879788
-16.422557989011 42.9971899670152 3.22096726825292 1.54714707291727 7.44607588634009
-14.5736393421651 43.4467951104031 5.36827878042154 1.54714707291727 7.44607588634009
-5.34870255533976 45.6588092572699 3.93673777230913 1.54714707291727 7.44607588634009
-1.76317973209451 45.4283277942938 7.87347554461825 1.54714707291727 7.44607588634009
-5.35210521714371 45.687855831587 3.57885252028102 1.701861780209 6.16794102322343
14.2878221978729 43.7777829990912 2.86308201622482 1.701861780209 6.16794102322343
14.4088911208884 44.1487372961356 1.08095953673794 1.54714707291727 35.5748342078185
15.4862940764278 43.7720576534549 1.44127938231726 1.54714707291727 35.5748342078185
14.041901612903 44.2433595131797 1.80159922789657 1.701861780209 26.9765351693108
15.4769649164955 43.7456887543239 2.16191907347588 1.701861780209 26.9765351693108
16.9222916873447 43.2236729809874 1.80159922789657 1.701861780209 26.9765351693108
14.1406120173039 44.5543772107817 1.4510177565221 1.54714707291727 43.3798508455004
15.5867054112733 44.055870599033 1.81377219565263 1.54714707291727 43.3798508455004
17.0366314960429 43.5157248254536 1.81377219565263 1.54714707291727 43.3798508455004
14.1367793265037 44.542301131512 1.81377219565263 1.701861780209 31.1655566801351
15.5815390037691 44.0412677323937 2.17652663478315 1.701861780209 31.1655566801351
17.0309844924918 43.5013009968537 2.17652663478315 1.701861780209 31.1655566801351
14.2355154536616 44.8533998766258 1.46075613072695 1.54714707291727 5.65184963799966
15.6913141724228 44.3515475829191 1.82594516340869 1.54714707291727 5.65184963799966
17.1452864018374 43.793256037101 2.19113419609042 1.54714707291727 5.65184963799966
13.9220658397057 52.5777244214225 7.66896968631647 1.08300295104209 17.3152996669054
16.6035998801218 52.3147832081517 2.13026935731013 1.08300295104209 17.3152996669054
13.9062527184476 52.5180049845714 8.09502355777851 1.23771765833382 17.6103924995753
16.6035998801218 52.3147832081517 2.13026935731013 1.23771765833382 17.6103924995753
14.0166477283154 52.9349200080429 7.28430390522505 1.08300295104209 16.9021948034099
16.6984775937225 52.613724826484 2.14244232506619 1.08300295104209 16.9021948034099
14.0016205016468 52.8781685609734 7.71279237023828 1.23771765833382 17.8882775363913
16.6984775937225 52.613724826484 2.14244232506619 1.23771765833382 17.8882775363913
16.1369844816706 59.0223871925038 1.42423722745878 0.928288243750363 5.80534749996084
-25.7279676543385 61.1457660004427 8.29709482252907 0.928288243750363 5.55812400934219
-25.9551552572042 61.6857060450536 5.73103321955206 0.928288243750363 9.09648364009867
-25.9551552572042 61.6857060450536 5.73103321955206 1.08300295104209 10.875410410373
-26.0930299702018 62.0133827217188 5.2343761351049 1.08300295104209 5.50263152599572
4.26545541721907 7.6155701932715 1.02252929150886 -0.20764342294416 5.62388621460281
5.13807129281285 7.33003663456348 -2.9215122614539 -0.20764342294416 8.20952424869851
-1.83692886754565 10.1313641158937 -1.12478222065975 -0.5191085573604 7.56382047622848
4.78720218447936 8.91342891385416 3.39382341038894 -0.5191085573604 13.7243448774061
5.19535478522522 9.67337993588283 -0.340843097169622 -0.5191085573604 8.03701325429454
5.19644975390149 9.67541868943505 -0.255632322877217 -0.41528684588832 15.1704860965062
8.2451161611822 11.7625856227874 1.45588694362452 -0.726751980304561 10.5023036256651
-7.85305394403528 12.9100483353478 -2.86308201622482 1.34968224913704 5.19916735644346
-7.87553613668879 12.9470079940882 -2.62449184820608 1.45350396060912 9.35755146091173
-1.5702515469784 15.4929340322003 -1.94767484096926 1.34968224913704 33.8668688907823
-1.57173810725192 15.5076012237702 -1.82594516340869 1.45350396060912 66.9590845846563
-1.57173810725192 15.5076012237702 -1.82594516340869 1.5573256720812 21.4020674493659
-1.60004088220956 15.786851402629 -2.11079260890044 1.34968224913704 112.394571300821
-1.60165657791797 15.8027927128443 -1.98662833778865 1.45350396060912 258.436438272277
-1.60317286939696 15.8177532482456 -1.86246406667686 1.5573256720812 75.1209407028716
-2.00346359510795 16.0183549452938 -2.40537842859704 1.34968224913704 91.5798078373331
-2.00346359510795 16.0183549452938 -2.40537842859704 1.45350396060912 214.52557995903
-2.00574177985024 16.0365697867923 -2.27877956393404 1.5573256720812 47.3892449252239
-1.63306160885754 16.1126513934883 -2.02558183460803 1.5573256720812 47.3892449252239
-2.16701270574493 16.2903589605122 -2.58066916428428 1.34968224913704 20.9962854052141
-2.34058487313092 16.5998494937279 2.49789298354308 1.34968224913704 8.61976049956703
-1.82448100595841 16.701767778393 -2.23495688001223 1.34968224913704 8.61976049956703
-1.82632333771642 16.7186329565409 -2.1034888282468 1.45350396060912 18.7403984991453
16.3192923294138 10.3076245915531 -4.29462302433723 2.595542786802 5.19254782551415
5.29624106065088 19.3714501554884 -0.467441961832625 -1.24586053766496 9.60251423253234
-21.3534690547258 14.3518857880019 -8.16562677076364 0.41528684588832 5.86934775572039
-48.5335996495868 44.5254179927663 2.55632322877216 -1.24586053766496 6.77037206652941
-22.1347603908253 60.9617436567105 11.7590868523519 -1.24586053766496 6.77037206652941
-21.996777977141 60.5817237972841 13.8041454353697 -1.14203882619288 7.84530931915385
