VERSION .7
FIELDS x y z velocity SNR
SIZE 4 4 4 4 4
TYPE F F F F F
COUNT 1 1 1 1 1
WIDTH 240
HEIGHT 1
VIEWPOINT 0 0 0 1 0 0 0
POINTS 240
DATA ascii
-0.0242865394691082 3.13097504919308 0.219113419609042 0 6.20818859482375
0.0728177580563772 3.12842298959674 -0.243459355121158 0 6.20818859482375
0.455151999378443 3.05465065794776 -0.559956516778663 0 6.20818859482375
-8.77563119067265 7.50109000546913 -1.2611194595276 1.39243236562554 5.14212747596311
-8.4307561424631 7.9134286944605 -1.08095953673794 1.39243236562554 5.14212747596311
-7.92608268061822 8.48606104728685 0.180159922789656 1.39243236562554 5.14212747596311
9.67904940660519 6.30976587793584 1.17103949813277 1.39243236562554 5.14212747596311
-8.22983132722796 8.62497035121822 0.370058219784161 1.23771765833382 5.81514030957587
-7.86279086560099 8.96657483950031 0.185029109892079 1.23771765833382 5.81514030957587
-7.57500282827378 9.19005572729153 0.64760188462228 1.23771765833382 5.81514030957587
-8.2335476921753 8.6288651500556 -0.0925145549460397 1.39243236562554 8.79526700370828
-7.56333780345569 9.17590362325028 0.925145549460401 1.39243236562554 8.79526700370828
-8.83000516839734 8.47731736901596 0.0949491484972513 1.39243236562554 7.28982195497077
-8.53281769166912 8.75169623166075 0.664644039480761 1.39243236562554 7.28982195497077
-8.16169552676599 9.11511914707132 0.379796593989007 1.39243236562554 7.28982195497077
-7.82725577411458 9.30314633638826 1.42423722745877 1.39243236562554 7.28982195497077
-7.37886614971287 10.110868389423 -0.973837420484632 0.618858829166909 5.03133485698445
-8.26409213080935 10.6577190826113 0.52343761351049 0 9.99381559831173
-8.36592698188946 10.5722706299333 0.628125136212587 0.154714707291727 11.8664233197969
-8.37273402970544 10.5808728986188 0.314062568106295 0.309429414583454 5.34738914227159
-8.45347738053714 10.9019582268561 0.642732697519857 0 9.80876160977346
-1.44974689629317 13.2713554815086 3.53502983635921 0 9.80876160977346
-8.56873803310078 10.8285689845316 0.214244232506618 0.154714707291727 15.6677019988194
-1.55654708705139 13.2873506822112 3.4279077201059 0.154714707291727 15.6677019988194
-8.56951149510853 10.8295464314643 -0.107122116253309 0.309429414583454 5.86443620572416
-8.87802000284206 10.5520404145941 0.749854813773166 0.464144121875182 7.57308992703124
-8.35326255521775 10.993034461754 0.321366348759929 0.464144121875182 7.57308992703124
-8.64524984454915 10.7050567754912 1.1783432787864 0.618858829166909 7.22517189831005
-8.24443185589839 11.0712609639836 0.428488465013239 0.618858829166909 7.22517189831005
-2.16187021772705 13.7669221522097 2.30069090589494 0 6.35942554171733
-2.0354161439887 13.6602393748092 2.95803116472207 0.154714707291727 11.1922092890781
-1.59513501989841 13.6167537565578 3.39625800394016 0.154714707291727 11.1922092890781
6.61843812695841 12.0663596862369 3.17714458433111 0.309429414583454 6.05456324928212
6.32050276291226 12.279914636524 2.95803116472207 0.464144121875182 7.48934133219462
-8.43180530716881 11.3228805313469 0.438226839218085 0.618858829166909 7.94373950094093
-1.52040083829868 13.9181398153275 -1.86246406667686 0.773573536458636 6.31044437327508
6.75789485596308 12.3206092569902 -1.42423722745877 0.773573536458636 6.31044437327508
7.10434669929479 11.9209783805687 2.62936103530851 0.773573536458636 6.31044437327508
7.05246045352703 12.3323973284352 2.57579997718185 0 5.45743367685364
7.13632722352253 12.4790522919125 1.34389564026879 0.154714707291727 8.95974221074118
7.26167530126338 12.4383332260483 1.00792173020159 0.618858829166909 9.11796346636176
7.2528891793496 12.4232837081899 1.23190433691306 0.773573536458636 15.8754776545687
6.37658736817272 12.9362895569203 -0.671947820134396 0.928288243750363 5.4587883412958
6.82406718348309 12.7059262173103 -0.671947820134396 0.928288243750363 5.4587883412958
7.22315711610067 12.3723564366106 1.79186085369172 0.928288243750363 5.4587883412958
8.2149911961408 11.7196089716698 1.90385215704746 0.928288243750363 5.4587883412958
7.41527502874106 12.701430171937 1.14425896906944 0.773573536458636 11.097621872147
-7.88863790573753 17.8965637678581 -2.91420848080026 1.39243236562554 15.8706694080734
-7.96396317889118 18.0674505001982 -1.07365575608431 1.54714707291727 8.92716151780029
0.154892552731122 19.9684569522071 -2.18139582188558 1.23771765833382 19.4906286332577
0.154892552731122 19.9684569522071 -2.18139582188558 1.39243236562554 127.977244939783
0.154892552731122 19.9684569522071 -2.18139582188558 1.54714707291727 53.8129063479635
-11.862929544718 16.5861551936714 -0.632994323315012 -0.928288243750363 5.85752674728462
0.157173810725192 20.2625524477506 -2.37372871243129 1.23771765833382 58.2268571002808
0.157173810725192 20.2625524477506 -2.37372871243129 1.39243236562554 344.044940344445
0.157312748867546 20.2804640920853 -2.21548013160254 1.54714707291727 143.409800186002
0.159440926308576 20.5548247302733 -2.57093079007943 1.23771765833382 27.9474312880083
0.159591869351733 20.5742840238699 -2.41024761569947 1.39243236562554 183.607048206667
0.159591869351733 20.5742840238699 -2.41024761569947 1.54714707291727 71.3963593551939
-8.26981019816007 19.1998372109346 -2.28364875103646 1.39243236562554 16.917270303706
0.47767260204051 20.5219439544823 4.56729750207292 1.39243236562554 16.917270303706
-8.08467112428662 19.2142424694321 -2.77300205482999 1.54714707291727 8.9426196322249
-7.20494447498264 18.8638314749699 5.87223964552233 1.54714707291727 8.9426196322249
-4.39343498996169 20.5129493331327 -1.46805991138058 1.54714707291727 8.9426196322249
0.63906477942536 20.5874610106383 4.24106196621057 1.54714707291727 8.9426196322249
1.72292150488715 20.1193166954459 5.87223964552233 1.54714707291727 8.9426196322249
6.43708981218373 20.2820448846737 1.65552361482388 -1.701861780209 9.82300632872787
8.16706526696886 19.4100625604685 3.47659959113014 -1.54714707291727 5.28573531897769
0.328855973209632 21.1958339221148 -2.48328542223581 1.39243236562554 8.48444667879876
0.329146674553634 21.2145705664526 -2.31773306075343 1.54714707291727 6.92869462067353
6.99384385617392 20.2969358874404 2.85577823557118 -1.701861780209 5.67447462148994
6.4168780650509 20.2183615161786 4.36766083087358 -1.54714707291727 5.79773593361375
7.12696548444018 20.1443897771479 3.52772605570558 -1.54714707291727 5.79773593361375
7.61405778186117 19.9349631820804 3.69571301073918 -1.54714707291727 5.79773593361375
-8.05949182607304 21.1011890665966 0.701162942748936 -1.85657648750073 8.82138555396571
-7.15571941706471 21.3325627237977 2.1034888282468 -1.85657648750073 8.82138555396571
-2.45340578544857 22.459106760173 -0.525872207061703 -1.85657648750073 8.82138555396571
-1.57076767691664 22.4458290478582 2.1034888282468 -1.85657648750073 8.82138555396571
-0.873813096676524 22.5137954255025 1.75290735687234 -1.85657648750073 8.82138555396571
7.10844294802723 21.1916225635817 3.33052397805744 -1.85657648750073 8.82138555396571
-7.15571941706471 21.3325627237977 2.1034888282468 -1.701861780209 20.1255251694433
-2.43264134127789 22.2690237045239 2.97994250668297 -1.701861780209 20.1255251694433
-1.54520140696878 22.0804942290468 4.55755912786808 -1.701861780209 20.1255251694433
7.32468603743095 21.2570777893656 2.27877956393404 -1.701861780209 20.1255251694433
-7.06073118950095 21.6340288637484 2.66587993857668 -1.85657648750073 57.7294710446479
-6.33544398731541 21.7857805992542 3.19905592629202 -1.85657648750073 57.7294710446479
7.10559061960546 21.7714778303845 0.710901316953782 -1.85657648750073 57.7294710446479
-7.04693721878118 21.5917642380761 3.02133059705357 -1.701861780209 132.259501010843
7.10131011253408 21.7583623879398 1.06635197543067 -1.701861780209 132.259501010843
7.08759511748736 21.7163397431536 1.77725329238445 -1.54714707291727 6.56052320292643
5.92736550578909 22.3851397986933 -1.80159922789657 -2.01129119479245 9.88747435984315
7.20552970965293 22.0776904733355 0.360319845579313 -2.01129119479245 9.88747435984315
7.9232202251491 21.8214840266086 0.720639691158629 -2.01129119479245 9.88747435984315
7.20618012088672 22.0796833286118 0.180159922789656 -1.85657648750073 169.081227700891
7.73194731864483 21.8543727850521 1.44127938231726 -1.85657648750073 169.081227700891
8.45119823200714 21.5864278566336 1.44127938231726 -1.85657648750073 169.081227700891
7.20444556044422 22.0743686480678 0.540479768368972 -1.701861780209 384.704641448142
7.73194731864483 21.8543727850521 1.44127938231726 -1.701861780209 384.704641448142
8.44685842735586 21.575342933828 1.62143930510691 -1.701861780209 384.704641448142
7.18881568285605 22.0264788171418 1.62143930510691 -1.54714707291727 16.1535698679204
-11.1695791873744 20.3637410267223 -0.180159922789656 -1.08300295104209 9.97782257062728
7.83643309322111 22.1497021470123 1.46075613072695 -2.01129119479245 6.79694094222345
8.54468527952341 21.8252166474463 2.19113419609042 -2.01129119479245 6.79694094222345
7.30356093333113 22.3780574276471 -0.182594516340868 -1.85657648750073 103.166175742204
7.83643309322111 22.1497021470123 1.46075613072695 -1.85657648750073 103.166175742204
8.5560865716243 21.8543383367798 1.82594516340869 -1.85657648750073 103.166175742204
7.30378065363474 22.3787306490547 -0 -1.701861780209 169.223024021732
7.83240897878742 22.1383279752365 1.64335064706782 -1.701861780209 169.223024021732
8.5560865716243 21.8543383367798 1.82594516340869 -1.701861780209 169.223024021732
7.28596184073249 22.3241339362924 1.64335064706782 -1.54714707291727 8.28994532172699
-11.135249472646 20.7330400487894 -0.547783549022607 -1.23771765833382 10.8650600284849
-11.1329031111969 20.7286712911775 -0.730378065363475 -1.08300295104209 12.1177052939346
-8.12141879846981 22.3673462996383 1.66526198902872 -2.78486473125109 6.12662312120334
-7.03026006806677 22.7918235683216 0.370058219784159 -2.78486473125109 6.12662312120334
8.14166457595478 21.8582739891303 4.99578596708616 -1.85657648750073 5.36967705163038
7.21266116318855 22.7257226041571 0.740116439568321 -1.701861780209 7.28198259257505
7.69510548231005 22.3320774431733 3.33052397805744 -1.701861780209 7.28198259257505
8.40829791263515 22.0144256997446 3.7005821978416 -1.701861780209 7.28198259257505
-0.842228255475479 27.1323689395787 2.96533494537571 1.85657648750073 5.09900126481832
16.7249055919686 21.569138226069 -0.847238555821631 1.85657648750073 5.09900126481832
16.0509064187414 22.4415751486004 -1.28546539503971 1.85657648750073 9.58914467931024
16.9003272343258 21.7953693178405 -1.49970962754633 1.85657648750073 9.58914467931024
17.5099300461383 22.1278191358497 7.47176760866834 3.71315297500145 6.52190255562538
20.8278757418211 20.4465125196558 0.452834400525352 3.71315297500145 6.52190255562538
-5.43384933439836 28.6790403917209 0.226417200262676 3.86786768229318 7.47957537516274
12.0303860046239 26.0809528528228 -5.20759560604157 3.86786768229318 7.47957537516274
12.8439164046076 24.4267913577081 9.50952241103243 3.86786768229318 7.47957537516274
17.5465307994884 22.1740725959283 7.24535040840566 3.86786768229318 7.47957537516274
20.7902392389457 20.409565149853 -1.81133760210142 3.86786768229318 7.47957537516274
13.9330565446604 25.9423572010773 -1.83081435051111 3.71315297500145 26.8012978121307
-25.5791693632915 15.1109487171954 -2.5441502610161 3.71315297500145 44.7057991707526
-25.5954419568165 15.1205617864378 -2.312863873651 3.86786768229318 53.8970318109447
-25.8930328810431 15.2963642580046 -1.8697678473305 3.71315297500145 11.6920228845236
-24.6627422055017 14.5695674241703 9.34883923665247 3.86786768229318 15.0177827323476
-7.82710001878467 32.7128275264251 4.20697765649361 -2.78486473125109 5.59613362055343
-5.09415410307729 32.4398857958083 8.41395531298722 -2.78486473125109 5.59613362055343
-15.7457632384722 29.9455758880564 2.10348882824681 -2.63015002395936 5.60905929170236
6.82893109451908 33.165766482667 1.5776166211851 -2.63015002395936 5.60905929170236
6.59503447175482 33.3642339836981 3.71518975914887 -2.78486473125109 18.5698368070689
6.86447097555533 33.3383714451356 3.44981906206681 -2.63015002395936 14.4990942881268
6.66100747451558 33.6979909504197 3.48146877823256 -2.93957943854282 5.482636935526
6.64966122298891 33.6405903420688 4.01707935949911 -2.78486473125109 25.0356549574087
6.90910680670499 33.5551523047137 4.28488465013238 -2.63015002395936 16.8462626767924
8.28596491407255 33.4484224717767 2.14244232506619 -2.63015002395936 16.8462626767924
-5.24605415946191 33.4071946721764 6.96293755646512 -0.309429414583454 7.75008600848125
-4.26304478368997 34.0844548708407 -3.48146877823256 -0.309429414583454 7.75008600848125
17.0231327308516 29.7677722540876 4.01707935949911 -0.309429414583454 7.75008600848125
-5.24605415946191 33.4071946721764 6.96293755646512 -0.154714707291727 8.13407706744845
6.95741679885551 33.7897772989137 4.86431791532074 -2.78486473125109 9.98841832849538
8.07200056193276 33.7363725443633 3.24287861021382 -2.78486473125109 9.98841832849538
6.96488384020633 33.8260421471498 4.59407803113625 -2.63015002395936 8.89961341498043
16.8583560895345 30.0990120831504 4.86431791532074 -0.309429414583454 20.313116945963
16.7275072283396 29.8653937259834 -6.48575722042765 -0.154714707291727 15.1721766964912
16.5584545833198 30.1884319257625 -7.08953642112812 -0.309429414583454 19.0149594214699
16.5584545833198 30.1884319257625 -7.08953642112812 -0.154714707291727 13.3775433420317
7.08787390589945 50.2684783701374 6.3494199815598 -3.09429414583454 6.57324268388162
9.51380998638127 50.2124597293046 2.38103249308492 -3.09429414583454 6.57324268388162
9.51696450271597 50.2291087925767 1.98419374423744 -2.93957943854282 5.01494416820856
-28.5330917931888 55.4360854950433 7.30378065363474 -3.24900885312627 13.5463169461047
8.24168225542683 61.9562414301737 5.84302452290779 -3.24900885312627 13.5463169461047
8.22866686384087 61.8583991792332 6.81686194339243 -3.09429414583454 27.1463249292598
10.2142131755627 61.8690288386607 2.92151226145389 -3.09429414583454 27.1463249292598
8.22866686384087 61.8583991792332 6.81686194339243 -2.93957943854282 10.4411157433962
10.2142131755627 61.8690288386607 2.92151226145389 -2.93957943854282 10.4411157433962
8.26250632689203 62.1127848589631 7.34029955690292 -3.24900885312627 23.7389405861334
11.2385231306514 61.9847463737967 3.42547312655469 -3.24900885312627 23.7389405861334
8.25469159388494 62.05403817717 7.82965286069644 -3.09429414583454 49.2940560368906
11.2334357178174 61.956687349444 3.91482643034823 -3.09429414583454 49.2940560368906
8.24636454677235 61.9914402116917 8.31900616448997 -2.93957943854282 17.7307356067941
11.2276671965688 61.9248717521103 4.40417973414175 -2.93957943854282 17.7307356067941
8.29575971126745 62.3627647352654 7.86860635751583 -3.24900885312627 6.46276793343928
10.3197759254911 62.5084383269249 2.4589394867237 -3.24900885312627 6.46276793343928
7.82207391292168 62.5400714300233 6.88503056282635 -3.09429414583454 12.3137015741018
10.798483307372 62.3519288986372 3.93430317875792 -3.09429414583454 12.3137015741018
8.26910334807774 62.1623774815169 9.34397004955005 -2.93957943854282 5.34433163956304
11.2770434643309 62.1972007226113 4.91787897344739 -2.93957943854282 5.34433163956304
-32.1646092573543 59.8882075812104 4.22645440490331 -3.24900885312627 5.82075990248564
-29.2299630535162 59.2993154435088 16.3775108190003 -3.24900885312627 5.82075990248564
-20.5735715454689 64.8234083565922 3.69814760429039 -3.24900885312627 5.82075990248564
-15.7803974949496 65.9530886678093 6.33968160735495 -3.24900885312627 5.82075990248564
-12.995787350674 65.7455987269311 12.151056414097 -3.24900885312627 5.82075990248564
8.89324690609077 66.8543308678393 9.50952241103243 -3.24900885312627 5.82075990248564
13.6305760770799 63.6411639387861 20.0756584232907 -3.24900885312627 5.82075990248564
-36.9906091817098 57.2102165928892 6.36889672996949 -3.24900885312627 44.149552712494
-32.1837682221635 59.9238802067458 7.43037951829775 -3.24900885312627 44.149552712494
-20.593412926666 64.8859247725124 6.89963812413361 -3.24900885312627 44.149552712494
-15.5141882976014 64.840485591587 15.3915004307596 -3.24900885312627 44.149552712494
7.91404136610578 67.5576369129792 7.43037951829775 -3.24900885312627 44.149552712494
-32.1553436157478 59.8709556176169 7.96112091246187 -3.09429414583454 27.4825805076296
-20.5583344428551 64.7753991461973 7.96112091246187 -3.09429414583454 27.4825805076296
-15.4550859705713 64.59347147066 16.4529832190879 -3.09429414583454 27.4825805076296
7.92054343333307 67.6131413356382 6.89963812413361 -3.09429414583454 27.4825805076296
-32.1249308795675 59.8143292727138 8.49186230662599 -2.93957943854282 7.11370655772604
-15.3242585064089 64.0466870600107 18.5759487957444 -2.93957943854282 7.11370655772604
7.9265591103664 67.6644937238812 6.36889672996949 -2.93957943854282 7.11370655772604
7.95687620137589 67.9232933601136 6.93128784029936 -3.24900885312627 213.87913110918
11.1845634272412 67.7465865783335 3.19905592629202 -3.24900885312627 213.87913110918
7.95687620137589 67.9232933601136 6.93128784029936 -3.09429414583454 105.769146224995
11.1845634272412 67.7465865783335 3.19905592629202 -3.09429414583454 105.769146224995
7.95687620137589 67.9232933601136 6.93128784029936 -2.93957943854282 30.2649000084022
7.9866472501985 68.1774317470433 7.49854813773167 -3.24900885312627 96.0339167036865
11.2261460126144 67.9984585658693 4.28488465013239 -3.24900885312627 96.0339167036865
7.9866472501985 68.1774317470433 7.49854813773167 -3.09429414583454 62.832760653409
11.2261460126144 67.9984585658693 4.28488465013239 -3.09429414583454 62.832760653409
7.9866472501985 68.1774317470433 7.49854813773167 -2.93957943854282 17.5407855333641
11.2261460126144 67.9984585658693 4.28488465013239 -2.93957943854282 17.5407855333641
0.072897052029964 3.13182964611194 -0.194767484096927 0 7.0202484276659
0.456394823742378 3.06299159518672 -0.511264645754432 0 7.0202484276659
6.07057376329996 11.3029752286026 0.998183355996748 -1.0382171147208 5.34428270488582
-7.07282148263365 12.1148504717699 1.64335064706782 -1.86879080649744 5.00431519186558
-7.39560992974985 17.1702255945802 -6.44193453650584 0.62293026883248 9.65936342578171
-12.701189323952 15.4091873410692 -2.18139582188558 0.41528684588832 7.31942899269972
-7.92257207653382 18.3936620691958 -1.55813987277541 0.41528684588832 7.31942899269972
0.308906836987667 19.9100473994511 -2.6488377837182 0.41528684588832 7.31942899269972
-12.701189323952 15.4091873410692 -2.18139582188558 0.5191085573604 64.1904962158599
-7.90601032611595 18.3552110159876 -2.02558183460803 0.5191085573604 64.1904962158599
0.308906836987667 19.9100473994511 -2.6488377837182 0.5191085573604 64.1904962158599
-12.7116244459119 15.4218473168482 -2.02558183460803 0.62293026883248 60.3389792967803
-7.89952018928724 18.34014300746 -2.18139582188558 0.62293026883248 60.3389792967803
0.309218766174208 19.9301522470804 -2.49302379644066 0.62293026883248 60.3389792967803
0.313733506315599 20.2211418900675 -2.6902258740888 0.41528684588832 24.1357126509799
0.313733506315599 20.2211418900675 -2.6902258740888 0.5191085573604 235.568349849202
0.313733506315599 20.2211418900675 -2.6902258740888 0.62293026883248 221.462747916919
6.72836084440924 19.5264737810787 1.60683174379964 -2.28407765238576 5.62990247565701
0.159280087821766 20.5340897346683 -2.73161396445939 0.41528684588832 28.6687399597674
0.318560175643532 20.5322363806839 -2.73161396445939 0.5191085573604 215.386708121115
0.318881852617152 20.5529695048017 -2.57093079007943 0.62293026883248 192.750297517453
-0.484560213641705 20.8178520276189 -2.93611982276116 0.41528684588832 6.87381853778482
0 20.8866439348152 -2.44676651896764 0.5191085573604 66.9193036744896
0.806683058126397 20.7841899062308 -3.09923759069234 0.5191085573604 66.9193036744896
0.162153141140393 20.9044783718418 -2.28364875103646 0.62293026883248 41.300191634292
0.805715045976195 20.7592490720845 -3.26235535862352 0.62293026883248 41.300191634292
-0.326248222537214 21.0277559345892 3.64215195261252 0.5191085573604 10.1853015467412
0.330107169855575 21.276477603458 -1.65552361482388 0.5191085573604 10.1853015467412
0.329897300465399 21.2629508406746 -1.82107597630626 0.62293026883248 7.95382206144132
-7.13305113040305 20.700931340899 4.14854741126453 -2.69936449827408 6.18302169523453
-7.46367373848117 21.0960966887912 3.15523324237021 -2.69936449827408 8.38356432716713
-8.96691617200817 24.073862131852 -5.93066989075141 -0.726751980304561 5.69332882806166
-9.4769391817917 24.2064211882609 6.00127310373654 -0.62293026883248 5.04380775422043
0.509629427497148 32.8472692821248 9.55334509495424 -1.66114738355328 8.11366895502076
