VERSION .7
FIELDS x y z velocity SNR
SIZE 4 4 4 4 4
TYPE F F F F F
COUNT 1 1 1 1 1
WIDTH 189
HEIGHT 1
VIEWPOINT 0 0 0 1 0 0 0
POINTS 189
DATA ascii
-1.08260320177737 2.83444854065171 -0.803415871899821 0 5.01890479087581
-0.601279885056862 3.04187079849945 -0.486918710242316 0 5.01890479087581
5.94777351598462 7.67049765382409 -0.679251600788031 -4.64144121875182 26.6697158771442
3.57494405108657 8.70003834738636 -2.49058920288945 3.71315297500145 6.14520675208483
4.99632228096918 8.55806943400682 1.63604686641418 4.64144121875182 5.49201043494202
-1.7486308417758 11.1353884586978 -0.788808310592553 3.86786768229318 5.11190885420136
0.876216351945918 11.2623227625482 0.262936103530851 3.86786768229318 5.11190885420136
4.94685352434217 10.0357645699286 1.5776166211851 3.86786768229318 5.11190885420136
5.65290556912226 9.68271373299959 -1.40232588549787 3.86786768229318 5.11190885420136
4.98340768735127 10.3338455765386 1.80159922789657 3.71315297500145 5.67617775075085
5.67076795905699 10.1246238016267 0.450399806974142 3.71315297500145 5.67617775075085
5.63661896552488 9.45815508049395 3.69327841718797 3.71315297500145 5.67617775075085
5.74008928848551 10.0374985826252 1.08095953673794 3.86786768229318 9.95661032214458
5.73521216079131 10.4561123759861 0.185029109892079 3.71315297500145 7.31142189627299
5.81085709289889 10.3747397980993 0.925145549460401 3.86786768229318 5.58369857194651
-7.31357396895993 11.0846855605617 -2.40781302214825 4.33201180416836 9.85872018388829
3.9490647438064 13.1811787443458 1.1783432787864 2.63015002395936 11.9546884340121
4.36962090328222 13.0266723114086 1.39258751129302 2.63015002395936 11.9546884340121
5.07318877759948 12.6463154228818 2.2495644413195 2.63015002395936 11.9546884340121
3.95157700385939 13.1895641598705 1.0712211625331 2.78486473125109 12.8278683972677
4.35365573379495 12.9790770998536 1.82107597630626 2.78486473125109 12.8278683972677
-10.8310459718801 8.37252672538995 -1.82107597630626 4.17729709687663 21.8376179186647
-1.80119082829416 13.5403198474591 -2.03532020881288 4.17729709687663 21.8376179186647
-10.8419829889832 8.38098116905397 -1.71395386005295 4.33201180416836 46.65977808271
-1.80517432864668 13.5702655189773 -1.82107597630626 4.33201180416836 46.65977808271
-10.8522471159179 8.38891546065393 -1.60683174379964 4.48672651146009 15.6287795582747
-1.80699716483053 13.5839685561964 -1.71395386005295 4.48672651146009 15.6287795582747
4.03600028096638 13.4713519698769 1.31468051765425 2.63015002395936 8.72213365816891
4.46131816596892 13.3000393195112 1.64335064706782 2.63015002395936 8.72213365816891
4.85774007821956 13.0417818871211 2.41024761569946 2.63015002395936 8.72213365816891
5.16679759948712 12.8796611034491 2.62936103530851 2.63015002395936 8.72213365816891
5.45402299344759 12.6624857293806 3.06758787452659 2.63015002395936 8.72213365816891
4.44782882671116 13.2598250295081 1.97202077648138 2.78486473125109 10.1821577086703
4.84387274951917 13.0045516785559 2.62936103530851 2.78486473125109 10.1821577086703
5.32746256056624 12.6613879293171 3.28670129413563 3.24900885312627 5.86196965412732
5.94514309874939 12.6038526617336 2.30069090589494 3.24900885312627 5.86196965412732
-1.94568319595435 13.7991356716382 -2.30069090589494 4.17729709687663 48.6832980988444
-1.84212698348267 13.8480543894468 -2.0815774862859 4.33201180416836 84.4296408907461
-1.84422170863634 13.8638013320404 -1.97202077648138 4.48672651146009 33.1849624484726
-2.79134739216112 14.1214072376287 -1.11991303355733 4.17729709687663 35.644658595118
-1.88080348045786 14.138802116671 -2.23982606711465 4.33201180416836 40.0655313780469
-1.88080348045786 14.138802116671 -2.23982606711465 4.48672651146009 12.5803048231013
-2.84121888618617 14.3737067825203 -1.71638845360416 4.17729709687663 8.12612877119158
-2.84121888618617 14.3737067825203 -1.71638845360416 4.33201180416836 5.68333974809256
-1.92618711790906 14.4799702801311 -2.059666144325 4.33201180416836 5.68333974809256
-1.47454747968332 14.5486669788934 -1.94524024741805 4.33201180416836 5.68333974809256
-5.17822996330739 13.9022147450018 4.05603285631849 2.16600590208418 5.77554716737585
-4.32081714626162 14.0079173622455 4.65250827636533 2.16600590208418 5.77554716737585
3.56722508583398 14.4000189429055 4.05603285631849 2.16600590208418 5.77554716737585
5.18820565877876 13.5836490544119 5.01039352839343 2.16600590208418 5.77554716737585
2.72197557065783 15.0127346290488 4.84240657335983 1.85657648750073 5.20343200076105
5.5761318983204 21.7621577516599 2.45407029962127 -2.32072060937591 12.961280711789
-5.1786817033807 20.905076868881 -7.8199144864916 -2.32072060937591 8.6865170585954
-10.4829550773085 20.3670179915483 0.533175987715337 2.63015002395936 5.07949612972883
-1.7701679816074 28.4717244546729 4.47965213422931 4.79615592604354 13.2723742872746
15.0074182367119 24.1730398686875 4.92761734765224 4.79615592604354 13.2723742872746
16.5907631357324 23.66858975865 4.07550960472818 4.64144121875182 6.52951306525607
16.5719188239578 23.6417062282766 4.30192680499086 4.79615592604354 23.4880153560392
2.09835701013096 29.9849324778751 2.10348882824681 4.33201180416836 8.12393637533109
4.35640616633208 29.2370438456745 5.84302452290779 4.33201180416836 8.12393637533109
15.1135020913732 26.4284662130557 0.236155574467522 4.17729709687663 5.70437472903601
14.873772574282 26.5557245355176 0.708466723402572 4.33201180416836 49.0970945706506
14.8666078926629 26.5429326691293 1.18077787233762 4.48672651146009 31.1572138936799
15.0311805851803 26.8367617610247 -0 4.17729709687663 9.3103969954982
15.0293717660126 26.8335322842183 0.477180336037468 4.33201180416836 98.904618969731
15.0239440018644 26.8238415209071 0.954360672074941 4.48672651146009 65.5114713116641
15.180448297463 27.1032652475901 0.723074284709841 4.33201180416836 31.2942092303272
15.1772495529038 27.0975541894878 0.964099046279787 4.48672651146009 21.9794974581207
-5.25808924758457 33.4838348515549 -0.525872207061699 3.71315297500145 9.74835717926397
14.7204347126914 30.5250360163335 -0.788808310592554 3.71315297500145 9.74835717926397
16.4805435842196 29.4244633251196 -3.41816934590106 3.71315297500145 9.74835717926397
-5.25729811167551 33.478796849559 -0.788808310592554 3.86786768229318 8.99455614434337
16.5330514003958 29.5182111013056 -2.10348882824681 3.86786768229318 8.99455614434337
16.6457741317694 29.7194669554139 -3.18444836498475 3.71315297500145 15.93288920269
16.6861352096587 29.7915278707621 -2.1229655766565 3.86786768229318 14.8992277595089
14.5813680396835 32.3332107677074 4.71824230224804 3.403723560418 6.01183844851382
17.8150348025335 29.8933390667944 8.32630994514361 3.403723560418 6.01183844851382
14.5657353772297 32.2985463817181 4.99578596708616 3.55843826770973 6.13269084673355
17.8150348025335 29.8933390667944 8.32630994514361 3.55843826770973 6.13269084673355
16.4959542785338 33.4656186363807 1.73829979556507 3.24900885312627 9.92163737607739
16.6400913084298 33.7580318422149 1.46075613072695 3.24900885312627 25.2705121951486
16.6345757430593 33.7468423224007 1.75290735687234 3.403723560418 9.34808467922493
16.7731972075848 34.0280660084208 1.76751491817961 3.24900885312627 9.8399854138234
4.79742831505818 38.3570281800224 4.52834400525354 1.39243236562554 23.0104114072999
6.00701764974496 38.2530568546043 3.92456480455306 1.39243236562554 23.0104114072999
-20.4238600091329 32.8975160474659 3.92456480455306 1.54714707291727 16.5635719202917
4.79289087570024 38.3207498496571 4.83023360560377 1.54714707291727 16.5635719202917
6.00701764974496 38.2530568546043 3.92456480455306 1.54714707291727 16.5635719202917
6.06814650469809 38.6423291524937 3.04324193901448 1.23771765833382 5.32538119914105
4.84039227284757 38.7005392512521 4.26053871462027 1.39243236562554 50.8196098331518
6.07475433583032 38.6844082264578 2.43459355121158 1.39243236562554 50.8196098331518
4.83154322147202 38.6297881548963 4.86918710242316 1.54714707291727 37.238086744664
6.67879835400478 38.5643009526112 2.73891774511303 1.54714707291727 37.238086744664
4.84258928770859 38.7181051126682 6.44193453650584 1.54714707291727 14.5613491254882
-9.43042864351154 39.4138295122173 4.74745742486258 2.93957943854282 7.59057583944103
-7.77411675848757 39.3292031539226 7.59593187978013 2.93957943854282 7.59057583944103
14.663797627994 38.3924412183911 1.27572702083487 2.78486473125109 14.9877509949935
15.9446687831847 37.8945200596429 0.637863510417432 2.78486473125109 14.9877509949935
14.6549639514145 38.3693130753667 1.9135905312523 2.93957943854282 29.9681516228606
15.9422697367938 37.8888184227623 0.956795265626153 2.93957943854282 29.9681516228606
18.7950503629684 36.5163378142527 5.46322792891879 2.78486473125109 12.3533849189218
14.7668339052421 38.662208595026 1.92819809255957 2.93957943854282 24.5026140950594
16.0639664523418 38.1780460443101 0.964099046279788 2.93957943854282 24.5026140950594
18.7950503629684 36.5163378142527 5.46322792891879 2.93957943854282 24.5026140950594
-7.20384861970041 43.634796958018 7.65923131211163 2.63015002395936 5.9021769170862
13.9556719874785 46.5812081842718 1.50944800175118 2.32072060937591 8.88994880215333
16.603928019263 45.7291782577566 -0 2.32072060937591 8.88994880215333
-9.76015275746216 45.5701562569845 -13.9623940161984 2.47543531666763 6.687258135242
13.9354864463947 46.5138329340954 3.01889600350236 2.47543531666763 6.687258135242
16.6034285217728 45.7278025826909 -0.377362000437794 2.47543531666763 6.687258135242
15.1845498172391 46.5253498841094 1.51918637595603 2.32072060937591 8.31046009621183
16.7110501355163 46.0242052142583 -0 2.32072060937591 8.31046009621183
15.1877501003959 46.5351555283591 1.13938978196702 2.47543531666763 6.88353112819477
16.7105474154616 46.0228206638696 -0.379796593989005 2.47543531666763 6.88353112819477
-17.4529741879627 46.8567438718108 4.67441961832623 2.32072060937591 12.9862455520147
-15.8895305573899 47.3697174960312 5.06395458652008 2.32072060937591 12.9862455520147
-13.7570721042066 47.3066378852737 9.73837420484632 2.32072060937591 12.9862455520147
-7.37886614971287 49.521606781711 3.89534968193853 2.32072060937591 12.9862455520147
-5.36600251898796 49.1217654103938 8.95930426845861 2.32072060937591 12.9862455520147
-3.89523249777661 50.0668191454099 -0.389534968193852 2.32072060937591 12.9862455520147
13.8859046297324 47.7496561079544 -7.01162942748935 2.32072060937591 12.9862455520147
17.4267219758967 45.6262706334405 11.6860490458156 2.32072060937591 12.9862455520147
13.9876877123478 48.0996590297725 6.66348254966609 2.16600590208418 9.38015369037072
16.8420105450672 47.6039944056665 1.95984780872532 2.16600590208418 9.38015369037072
19.3612122988309 46.0143674235993 7.83939123490129 2.16600590208418 9.38015369037072
13.70406934388 48.5829398501401 2.35181737047039 2.32072060937591 58.8060703731924
16.8364280510525 47.5882154692308 2.35181737047039 2.32072060937591 58.8060703731924
13.708613234357 48.5990486096765 1.95984780872532 2.47543531666763 14.0753914270404
16.8364280510525 47.5882154692308 2.35181737047039 2.47543531666763 14.0753914270404
13.7891877870097 48.8846972405137 2.36642493177765 2.16600590208418 7.41171427315016
16.5525118804907 48.0372852645024 1.97202077648138 2.16600590208418 7.41171427315016
13.7891877870097 48.8846972405137 2.36642493177765 2.32072060937591 54.7350175628936
16.5470253444116 48.0213627084186 2.36642493177765 2.32072060937591 54.7350175628936
13.783782425004 48.8655344378014 2.76082908707393 2.47543531666763 12.4727507493127
16.5405389100048 48.0025383328676 2.76082908707393 2.47543531666763 12.4727507493127
13.848409473213 52.2995556364214 4.63303152795564 2.01129119479245 12.2602508183958
16.4257085390617 51.7542814489333 0.421184684359602 2.01129119479245 12.2602508183958
13.8282515170943 52.2234276052867 5.47540089667484 2.16600590208418 18.4869436578992
16.8428254318493 51.6062942718342 1.26355405307881 2.16600590208418 18.4869436578992
14.3596618887175 52.5216793083005 4.23619277910815 2.01129119479245 10.67911167974
16.5191637194948 52.0487409359925 0.847238555821627 2.01129119479245 10.67911167974
13.9081836067885 52.5252971290166 5.50705061284059 2.16600590208418 15.9641186411755
16.5166782341805 52.0409096448073 1.27085783373245 2.16600590208418 15.9641186411755
13.7463542459512 53.6483596632098 7.36708008596624 2.01129119479245 10.7440088060916
16.4631316793394 53.3728182150638 1.30007295634699 2.01129119479245 10.7440088060916
-19.4164337841085 52.1281275573895 5.20029182538793 2.16600590208418 5.05199221646545
-9.89953201706057 54.5996991030987 6.50036478173492 2.16600590208418 5.05199221646545
13.4142700919174 54.1501415752971 3.03350356480963 2.16600590208418 5.05199221646545
13.8506398128293 54.0553584571775 6.5368836850031 2.01129119479245 20.6511036910359
16.5521326693686 53.6613558854361 1.74316898266749 2.01129119479245 20.6511036910359
13.8375397862959 54.004232542445 6.97267593066997 2.16600590208418 14.251251624554
16.5476463567163 53.6468114382245 2.17896122833436 2.16600590208418 14.251251624554
14.3987037050692 54.3777830206591 5.25872207061701 2.01129119479245 6.8139856636309
16.6345757430593 53.9286330518276 2.62936103530851 2.01129119479245 6.8139856636309
16.6280549888937 53.9074930261335 3.06758787452659 2.16600590208418 5.2494235803788
6.29080048390922 8.61994979532183 0.0827761807411935 0.41528684588832 5.76254048295135
6.3729989121187 8.55815601517411 -0.165552361482387 0.5191085573604 5.70910596574547
5.40414728223969 10.2777045545266 -0.180159922789656 -0.10382171147208 5.93237609578358
3.49515573183358 11.3311558907471 -3.03837275191205 -0.5191085573604 5.42609251731635
-10.7929381400717 8.56213043917088 -0.964099046279786 1.66114738355328 10.6130774973573
-10.2824856397209 9.21692284884709 -0.214244232506618 1.66114738355328 10.6130774973573
-7.46032837145745 11.5382528546243 -1.39258751129302 1.66114738355328 10.6130774973573
-10.7798794357959 8.55177085701397 -1.1783432787864 1.76496909502536 35.5897766907313
-7.45420410018526 11.5287809671992 -1.49970962754633 1.76496909502536 35.5897766907313
-10.7723635126814 8.54580841071424 -1.28546539503971 1.86879080649744 19.5888951391447
-7.45420410018526 11.5287809671992 -1.49970962754633 1.86879080649744 19.5888951391447
-1.84212698348267 13.8480543894468 -2.0815774862859 1.66114738355328 56.6042636754353
-1.84422170863634 13.8638013320404 -1.97202077648138 1.76496909502536 216.442835380703
-1.84620101793411 13.8786806444086 -1.86246406667686 1.86879080649744 76.2770228473208
-1.8852044132727 14.1718858060858 -2.01584346040319 1.66114738355328 83.2869710405745
-1.8852044132727 14.1718858060858 -2.01584346040319 1.76496909502536 305.029080168728
-1.88722770722153 14.1870957698399 -1.90385215704746 1.86879080649744 103.789586760947
-2.50453881041786 14.4615518111179 -1.48753665979027 1.66114738355328 18.7397717204497
-2.03949224249195 14.4644463260608 -2.059666144325 1.66114738355328 18.7397717204497
-2.03717572291024 14.4480171519484 -2.17409204123194 1.76496909502536 53.8352153571797
-1.92825439650896 14.4955108952712 -1.94524024741805 1.86879080649744 16.2524801055601
-1.86294946145167 14.8948979115684 -1.28546539503971 1.76496909502536 8.67864696726453
-2.51700398188074 16.0284357456877 -1.77238410528203 1.76496909502536 5.75131328353182
16.0881196503808 10.1616108341427 -4.07550960472818 2.80318620974616 5.08844299701582
-0.201259696732502 25.9460220621035 6.20821355558953 0.726751980304561 5.05895404881526
17.6760085600178 19.7408643266378 3.10410677779477 0.726751980304561 5.05895404881526
-1.49450472529915 27.4843309699196 -4.76693417327227 0.41528684588832 6.72545866326556
16.6875032621371 22.4092704848144 -4.1631549725718 0.41528684588832 30.246264698694
16.6674784137762 22.3823795691222 -4.38226839218085 0.5191085573604 27.4067340361449
16.8526726183737 22.6310726754458 -4.43096026320508 0.41528684588832 28.0467572807067
16.8526726183737 22.6310726754458 -4.43096026320508 0.5191085573604 26.5365770841094
16.635364250167 25.7284973918255 -6.81686194339242 0.10382171147208 13.9887772606555
16.0715166924741 29.3006744785985 10.9069791094279 -0.10382171147208 7.08018529635468
7.10844294802723 37.5172938892846 -5.68964512918147 -0.934395403248721 8.13463277320506
