VERSION .7
FIELDS x y z velocity SNR
SIZE 4 4 4 4 4
TYPE F F F F F
COUNT 1 1 1 1 1
WIDTH 263
HEIGHT 1
VIEWPOINT 0 0 0 1 0 0 0
POINTS 263
DATA ascii
-0.972067541883512 2.82105133909366 -0.973837420484632 0 5.10671353407441
-0.831768212508348 2.94874055461475 -0.681686194339242 0 5.10671353407441
-0.597095143411744 3.02070021933008 -0.608648387802895 0 5.10671353407441
-0.505681917034457 3.06299159518672 0.4625727747302 0 5.10671353407441
0.072771463337956 3.12643405907661 -0.267805290633274 0 5.10671353407441
0.456394823742378 3.06299159518672 0.511264645754432 0 5.10671353407441
-8.06093924806154 10.824852893442 -0 -0.154714707291727 5.95462295053096
-8.06069675008646 10.8245272483991 0.104687522702098 0 13.1599758849896
-8.24815481404196 11.0762604402224 0.107122116253309 0 5.43700578391286
-11.5636187069744 7.53831535284192 -0.428488465013239 4.17729709687663 5.60152113835241
-11.8093224288541 7.69848944590326 -0.87645367843617 4.17729709687663 5.91157112816566
-11.4523280648993 10.2655357772741 -0 1.85657648750073 5.55130017818954
-10.7336503113375 11.0089832428286 -0.357885252028103 1.85657648750073 5.55130017818954
-2.38838057364698 15.2093539924973 3.04324193901448 -0.154714707291727 6.29668764854222
-1.77582085352208 15.1591651970066 3.65189032681737 -0.154714707291727 6.29668764854222
1.40904216688637 15.0723253700195 4.13880903705969 -0.154714707291727 6.29668764854222
7.70562921195364 13.4745712838253 2.312863873651 -0.154714707291727 6.29668764854222
-2.37220004550481 15.1063153967998 3.53016064925679 0 5.52402663513184
-1.76511391594136 15.0677662052568 4.01707935949911 0 5.52402663513184
1.3958603253538 14.9313210699183 4.625727747302 0 5.52402663513184
-11.5629277435309 10.6079951769093 -0.243459355121157 1.701861780209 5.82563005457072
-7.57196964139931 14.0984672331768 0.372492813335373 -1.701861780209 7.35117394858613
-2.54062624873565 15.3889561486095 3.60076386224193 -0.309429414583454 9.807388952199
7.7076142574417 13.7612216419499 2.73161396445939 -0.309429414583454 9.807388952199
8.31597057040373 13.1251428413288 3.84909240446551 -0.309429414583454 9.807388952199
7.87712434318553 13.7744589772311 2.11079260890044 -0.154714707291727 10.7602074403789
-2.31434077586392 15.5321795430146 3.10410677779477 0 11.8585781254106
7.8925433570312 13.8014216814406 1.86246406667686 0 11.8585781254106
8.36944461463463 13.4809942094785 2.11079260890044 0 11.8585781254106
-7.72253074444313 14.3788012649258 -0 -1.85657648750073 5.15100298296211
-7.21526691196327 14.6377327894074 -0.253197729326004 -1.85657648750073 5.15100298296211
-6.83551602185994 14.8188737271042 -0.253197729326004 -1.85657648750073 5.15100298296211
-7.72043963436792 14.3749077671606 0.379796593989008 -1.701861780209 5.5724906261404
-7.21526691196327 14.6377327894074 -0.253197729326004 -1.701861780209 5.5724906261404
7.81548721899638 13.666676238045 4.30436139854207 -0.309429414583454 15.8748983908837
8.08256033531924 14.1336978977822 1.13938978196702 -0.154714707291727 14.1779650374964
8.06103013643195 14.0960487724893 1.64578524061903 0 9.71362786019835
8.25590518277932 14.4368201269392 0.387100374642642 -0.309429414583454 10.7111240130958
8.24919311702589 14.4250829662261 0.774200749285282 -0.154714707291727 7.04821699145494
-7.36442394110889 15.6127636880272 -0.133902645316636 -2.16600590208418 5.52690998727947
-6.67496115516789 15.8638886032304 -1.33902645316637 -2.16600590208418 5.52690998727947
-7.49854813773166 15.5493676947683 -0 -2.01129119479245 8.06486100030489
-0.131938619408432 17.0092789842797 2.94585819696601 -0.618858829166909 7.00923048609127
8.31833373339616 14.5459868065567 4.15098200481575 -0.618858829166909 7.00923048609127
-7.36198942079778 15.960227619713 -0.136337238867848 -2.16600590208418 10.6204377777878
-7.36021735634571 15.956385920086 -0.409011716603547 -2.01129119479245 7.46051750524642
-2.37231310302519 16.8248718148552 4.499128882639 -0.773573536458636 8.05983637762258
-0.135411283086319 17.4569682626775 2.04505858301773 -0.773573536458636 8.05983637762258
-4.44466091034032 16.7855948378048 2.72674477735697 -0.618858829166909 45.0878260009818
-3.71960967135154 16.7176095757738 3.9537799271676 -0.618858829166909 45.0878260009818
-3.0762341788573 16.966606123079 3.40843097169621 -0.618858829166909 45.0878260009818
-2.23068717096349 16.7690270791989 4.7718033603747 -0.618858829166909 45.0878260009818
-0.134686694252737 17.3635556312996 2.72674477735697 -0.618858829166909 45.0878260009818
-2.22553768338205 16.7303161842687 4.90814059924255 -0.464144121875182 17.805639513864
0 17.2696191142502 3.27209373282836 -0.464144121875182 17.805639513864
-7.35468585986445 16.3085251939389 -0.13877183241906 -2.32072060937591 7.12966785463317
-7.49345351759774 16.2452316843507 -0.13877183241906 -2.16600590208418 12.5339248730045
-7.49367895062924 16.2457204058484 -0 -2.01129119479245 6.34623700013057
7.40295794482008 16.049044233167 2.7754366483812 -0.773573536458636 30.2239117167031
9.00674746280192 14.8066657783959 4.44069863740992 -0.773573536458636 30.2239117167031
7.40295794482008 16.049044233167 2.7754366483812 -0.618858829166909 180.790786946994
8.14580659519851 15.8262425295708 1.80403382144778 -0.618858829166909 180.790786946994
9.00674746280192 14.8066657783959 4.44069863740992 -0.618858829166909 180.790786946994
7.40295794482008 16.049044233167 2.7754366483812 -0.464144121875182 71.1231022481341
8.29016273928228 15.7663806875331 1.66526198902872 -0.464144121875182 71.1231022481341
9.00674746280192 14.8066657783959 4.44069863740992 -0.464144121875182 71.1231022481341
-15.561244282939 8.21838364632496 -4.65981205701896 -2.32072060937591 9.60985207017016
-7.45145036858297 16.5230940359512 -1.69447711164326 -2.32072060937591 9.60985207017016
-6.49236841544773 16.9981800814251 -0.564825703881087 -2.32072060937591 9.60985207017016
-15.5937717266421 8.2355624147143 -4.51860563104869 -2.16600590208418 11.1256316980399
-10.4879705288575 14.0840582755836 4.80101848298924 -2.16600590208418 11.1256316980399
-7.60217394108576 16.4809292120975 -1.41206425970272 -2.16600590208418 11.1256316980399
-6.49060871504249 16.9935728714728 -0.706032129851358 -2.16600590208418 11.1256316980399
7.53283439999236 16.3306064126963 2.82412851940543 -0.773573536458636 25.7810719157409
8.14153980292962 16.1621544822285 1.9768899635838 -0.773573536458636 25.7810719157409
9.04618793506833 15.1793564369846 4.37739920507842 -0.773573536458636 25.7810719157409
7.53283439999236 16.3306064126963 2.82412851940543 -0.618858829166909 156.557641741966
8.28871548283357 16.1038959072826 1.83568353761353 -0.618858829166909 156.557641741966
9.02797310489808 15.1487922477838 4.51860563104869 -0.618858829166909 156.557641741966
7.52330835769014 16.3099546846417 2.9653349453757 -0.464144121875182 63.0435267867086
8.30079825141616 16.1273711547958 1.55327068567299 -0.464144121875182 63.0435267867086
-7.89645258925332 16.7406777822135 -0.574564078085934 -2.32072060937591 11.7042805389854
-6.46209559560114 17.3490635428244 0.430923058564451 -2.32072060937591 11.7042805389854
-7.89930537426478 16.746725758076 -0.287282039042966 -2.16600590208418 13.3511805351331
9.14468366309252 15.3446306689518 4.88379466373043 -0.618858829166909 13.373653687667
7.79474317391587 16.5250512676063 3.01646140995115 -0.464144121875182 7.41007057680103
9.10319720492615 15.2750170659253 5.1710767027734 -0.464144121875182 7.41007057680103
-11.6293210859913 14.4001092767084 0.574564078085934 0.309429414583454 5.31961393926632
-11.0590275239707 14.8509177910374 0.287282039042966 0.309429414583454 5.31961393926632
-11.6293210859913 14.4001092767084 0.574564078085934 0.464144121875182 9.14983772819625
-11.0573635746953 14.8486833112114 0.430923058564451 0.464144121875182 9.14983772819625
-11.490935868441 14.5214372603726 -0.143641019521483 0.928288243750363 5.03122806548838
13.3328708162804 12.800329693376 1.14912815617187 0.928288243750363 5.03122806548838
13.9935740608023 11.9611975762886 2.01097427330077 0.928288243750363 5.03122806548838
15.6097000686853 9.85943048552083 1.43641019521483 0.928288243750363 5.03122806548838
-8.00995338620147 16.9813023219365 -1.46075613072695 -2.32072060937591 6.55324789659555
-6.57023790168998 17.6393978023918 0.58430245229078 -2.32072060937591 6.55324789659555
-8.17137054045017 16.9445661706578 -0.876453678436169 -2.16600590208418 6.27616364670014
-11.8289207512699 14.6472653205009 0.438226839218086 0.464144121875182 6.78091516646848
-11.2424070762251 15.0971740417958 0.58430245229078 0.464144121875182 6.78091516646848
-11.6856974933298 14.7675633156331 -0.146075613072694 0.928288243750363 6.55525067251801
-12.1554130042887 16.3232290408465 -1.42423722745878 1.39243236562554 17.9582258494642
-7.89170118985091 18.3219898077211 -4.27271168237632 1.39243236562554 17.9582258494642
0.466447005509255 20.0396657959989 -3.79796593989006 1.39243236562554 17.9582258494642
-12.1554130042887 16.3232290408465 -1.42423722745878 1.54714707291727 13.7979687812186
-7.90484979028009 18.3525166253557 -4.11446310154757 1.54714707291727 13.7979687812186
0.467782377902625 20.0970365501474 -3.48146877823256 1.54714707291727 13.7979687812186
0.473623113286321 20.3479683467066 -3.85639618511914 1.39243236562554 76.8099763256059
0.474316294089115 20.3777490323154 -3.69571301073918 1.54714707291727 66.1881954706912
0.475611447899952 20.4333919011023 -3.37434666197925 1.701861780209 5.91632380036774
0.482175681838091 20.7154069055365 -3.58859089448587 1.23771765833382 6.8992193736348
0.482175681838091 20.7154069055365 -3.58859089448587 1.39243236562554 84.9812121019079
0.482817681959043 20.7429887480887 -3.42547312655469 1.54714707291727 95.8334693335185
0.483429027585718 20.7692536011153 -3.26235535862352 1.701861780209 7.57634393510225
1.12657459123776 20.7180000194932 -3.42547312655469 1.701861780209 7.57634393510225
0.491792455636358 21.1285662369864 -2.97994250668297 1.39243236562554 25.1539859946645
0.491792455636358 21.1285662369864 -2.97994250668297 1.54714707291727 35.3159734341951
-5.32864293803727 20.796274251469 2.85577823557118 -1.54714707291727 9.24031696664188
7.36447208980113 20.2826256882158 1.84785650536959 -1.54714707291727 9.24031696664188
0.668522931987746 21.5364548949029 -2.18383041543679 1.39243236562554 6.87100834889086
0.669497462709195 21.5678493855358 -1.84785650536959 1.54714707291727 12.127827172558
6.29344549192021 21.0062471315269 -1.36337238867849 -1.701861780209 7.86706128031278
6.94596291153627 20.7072386228779 -2.38590168018735 -1.701861780209 7.86706128031278
7.48025415648535 20.6015031707195 1.5337939372633 -1.701861780209 7.86706128031278
7.48409734174295 20.6120877566992 1.36337238867849 -1.54714707291727 30.892694400653
7.48025415648535 20.6015031707195 1.5337939372633 -1.39243236562554 8.79347699666132
7.59445084580465 20.9160143367682 1.20999299495215 -1.54714707291727 20.2445096762747
8.11225431256406 20.7206821642899 1.20999299495215 -1.54714707291727 20.2445096762747
7.58275587227073 20.8838049987831 1.72856142136022 -1.39243236562554 6.36928965607393
-7.5804860405069 22.5988729449541 0.925145549460401 -1.85657648750073 6.0674843022571
8.10593690063157 22.3247073249817 2.22034931870496 -1.85657648750073 6.0674843022571
7.49651767775952 22.9692754851516 0.562391110329876 -1.85657648750073 18.997953324576
7.48025415648535 22.9194441745935 1.68717333098963 -1.701861780209 5.96527034919228
8.80973379028173 22.5022153876159 0.374927406886582 -1.701861780209 5.96527034919228
7.59570337066438 23.2731797247529 -0.189898296994503 -1.85657648750073 13.4202069185101
8.16464413722159 23.0773916684426 0.379796593989005 -1.85657648750073 13.4202069185101
8.9228031839826 22.7910222813737 0.569694890983511 -1.85657648750073 13.4202069185101
6.62641598313031 27.6946509760005 2.21548013160254 -2.47543531666763 13.6718710475411
8.18147913949627 27.308121270985 1.77238410528203 -2.47543531666763 13.6718710475411
-12.1616581803323 25.783020741674 1.77238410528203 -2.32072060937591 7.84966211373273
-10.1022189033623 26.449413396311 3.76631622372431 -2.32072060937591 7.84966211373273
-8.70701076950608 26.678217488942 5.31715231584609 -2.32072060937591 7.84966211373273
8.41477135705331 27.2803541093558 0.886192052641016 -2.32072060937591 7.84966211373273
9.24998963341171 26.8445293331949 3.10167218424355 -2.32072060937591 7.84966211373273
6.70308489347389 28.0150834266769 2.01584346040319 -2.47543531666763 19.1024654388368
8.25713537341339 27.5606464654503 2.46380867382612 -2.47543531666763 19.1024654388368
-11.6921145791956 25.3476063837517 -7.39142602147836 -2.32072060937591 12.4612449203743
6.48591384654507 28.0947424036504 1.56787824698026 -2.32072060937591 12.4612449203743
8.49057419840025 27.526103906551 2.01584346040319 -2.32072060937591 12.4612449203743
6.94229031814448 28.0243353539487 4.30192680499086 -2.47543531666763 18.4466545123601
8.55297314612166 27.7283988136448 3.16984080367748 -2.47543531666763 18.4466545123601
8.77029863846573 27.633541837598 3.39625800394016 -2.32072060937591 12.9439702914988
9.0833012563674 27.8311687960271 3.66162870102222 -2.32072060937591 6.36916300500409
-10.3463384832117 27.7772560193937 3.2380094231114 -2.16600590208418 6.35821043046686
-9.45417225431962 28.1846884795256 2.312863873651 -2.16600590208418 6.35821043046686
8.0655038532901 28.5933965111216 2.5441502610161 -2.16600590208418 6.35821043046686
9.71373604133041 28.1903745226392 0.231286387365099 -2.16600590208418 6.35821043046686
15.4495010009613 25.3982471151759 2.312863873651 0.773573536458636 6.96123246511989
15.4583823720874 25.4128476682015 2.0815774862859 0.928288243750363 15.5022898448496
-21.5070456029674 20.648011837953 -0.462572774730199 1.701861780209 5.79170372403541
-21.8778219819073 19.6106471113461 5.0883005220322 2.47543531666763 5.28031111783626
-11.9068542160845 27.6438826484816 1.40232588549787 -2.47543531666763 6.57180295057749
-11.6733864863574 27.743277981274 1.40232588549787 -2.32072060937591 5.06212670804009
8.16816736296531 28.9573537409194 1.63604686641418 -2.16600590208418 8.9871834608517
10.0254834928479 28.3370598083028 2.10348882824681 -2.16600590208418 8.9871834608517
15.6022017396577 25.6492798893633 2.57093079007943 0.773573536458636 13.3260671011
17.0287513541995 24.7880926779208 1.8697678473305 0.773573536458636 13.3260671011
15.6121273272872 25.6655970848094 2.33720980916312 0.928288243750363 29.9695735862768
17.0200068599511 24.7753636569054 2.10348882824681 0.928288243750363 29.9695735862768
-11.8045814081603 28.0550792901369 0.708466723402572 -2.63015002395936 8.96053308190408
-12.0348730559652 27.9411011851524 1.18077787233762 -2.47543531666763 16.8555532575324
15.7417773006825 25.8787354937821 3.0700224680778 0.928288243750363 9.64667760965612
17.1874181599069 25.0190577911563 2.36155574467523 0.928288243750363 9.64667760965612
-11.9262781237083 28.3443069116847 0.715770504056206 -2.63015002395936 6.95458820556392
-11.9262781237083 28.3443069116847 0.715770504056206 -2.47543531666763 12.0123137341107
-12.1334286538818 36.172062196345 3.26722454572594 -3.09429414583454 10.138344180359
-10.9897552901691 36.6815786101074 -0 -3.09429414583454 10.138344180359
-12.1598729611763 36.2508977139454 2.07914289273469 -2.93957943854282 6.42808612871316
-12.240665129277 36.4917545577015 2.99455006799024 -3.09429414583454 8.55666537146417
7.33536350446595 44.4314024388727 3.85639618511914 -3.09429414583454 6.95963733097012
7.37555191269089 44.6748296852707 4.58920884403383 -3.09429414583454 7.16432246411578
9.52885282741186 44.4902168117167 1.05904819477704 -3.09429414583454 7.16432246411578
-26.4999595368162 44.4665017200933 -1.60683174379964 -3.09429414583454 5.72956762818656
-20.3534763904312 46.1749281018486 11.6495301425474 -3.09429414583454 5.72956762818656
-13.6514943068447 49.9314964112448 1.60683174379964 -3.09429414583454 5.72956762818656
-9.88158946018988 49.9908930412149 9.23928252684794 -3.09429414583454 5.72956762818656
-26.1734696472181 44.8318499034679 4.44556782451235 -3.24900885312627 5.66760637423647
-22.5767670904831 46.8163231602938 3.6372827655101 -3.24900885312627 5.66760637423647
8.44373529314957 51.1449774327926 5.25385288351459 -3.24900885312627 5.66760637423647
10.5026469569237 51.0077392203875 1.61657011800449 -3.24900885312627 5.66760637423647
-26.1353711454629 44.7665919787351 5.25385288351459 -3.09429414583454 18.4118639453698
-22.5637959630693 46.7894255761393 4.04142529501122 -3.09429414583454 18.4118639453698
-13.2788045280083 50.14839989683 4.84971035401347 -3.09429414583454 18.4118639453698
-9.9269490916072 50.2203671042397 9.69942070802693 -3.09429414583454 18.4118639453698
8.43680373157332 51.1029919194998 5.65799541301571 -3.09429414583454 18.4118639453698
10.0959618318689 51.0754013935174 2.02071264750561 -3.09429414583454 18.4118639453698
-25.6392674699764 44.8345135337328 6.87042300151908 -2.93957943854282 19.9191034879413
-22.5337288960141 46.7270769891117 4.84971035401347 -2.93957943854282 19.9191034879413
-13.2578344353295 50.069204771146 5.65799541301571 -2.93957943854282 19.9191034879413
-9.89596580080314 50.0636228493917 10.5077057670292 -2.93957943854282 19.9191034879413
8.43680373157332 51.1029919194998 5.65799541301571 -2.93957943854282 19.9191034879413
8.5010528440535 51.4921584783499 4.87892547662801 -3.24900885312627 11.5717427758247
10.5706871908413 51.3381872038717 0.406577123052333 -3.24900885312627 11.5717427758247
8.49460116840951 51.4530797064841 5.28550259968034 -3.09429414583454 41.0933399839442
10.569733107876 51.33355355149 0.813154246104665 -3.09429414583454 41.0933399839442
8.48762785043822 51.4108412684125 5.69207972273268 -2.93957943854282 64.5082093233231
10.1632049114192 51.4155836699723 0.813154246104665 -2.93957943854282 64.5082093233231
8.55195735210173 51.8004947566634 4.90814059924254 -3.24900885312627 7.85628502016017
10.6343046316922 51.6471552046149 -0 -3.24900885312627 7.85628502016017
8.54546704366945 51.7611819801757 5.31715231584609 -3.09429414583454 24.872581936456
10.6339847189301 51.6456014985057 0.409011716603544 -3.09429414583454 24.872581936456
8.53845196930312 51.7186906173251 5.72616403244964 -2.93957943854282 44.6799345594842
10.6330249228932 51.6409400997025 0.818023433207088 -2.93957943854282 44.6799345594842
8.37591412613632 56.2130708669979 5.76024834216659 -3.24900885312627 7.19844699602025
8.36903823975346 56.1669248962188 6.20334436848711 -3.09429414583454 11.03651180994
8.36903823975346 56.1669248962188 6.20334436848711 -2.93957943854282 13.2184104927448
11.0690665867479 55.9983316483142 2.21548013160254 -2.93957943854282 13.2184104927448
8.41502196634551 56.4755343736705 6.23742867820407 -3.24900885312627 22.866785254182
10.687586986749 56.4074783860277 1.78212247948688 -3.24900885312627 22.866785254182
8.41502196634551 56.4755343736705 6.23742867820407 -3.09429414583454 28.1414241794031
10.687586986749 56.4074783860277 1.78212247948688 -3.09429414583454 28.1414241794031
8.41502196634551 56.4755343736705 6.23742867820407 -2.93957943854282 17.1060642315189
8.44553755113309 56.6803328833472 7.16744341476689 -3.09429414583454 9.67859140615932
10.2954483066191 56.7833286163583 2.23982606711465 -3.09429414583454 9.67859140615932
8.5724783812112 57.5322678207924 4.98117840577889 -3.09429414583454 6.23561593041687
10.8627933307941 57.3321911464544 1.81133760210142 -3.09429414583454 6.23561593041687
8.24027179210982 58.4414917428135 5.98179635532685 -3.24900885312627 19.7265713504098
8.23350725611372 58.3935164351375 6.44193453650584 -3.09429414583454 12.4277477102012
8.28387111376119 58.750705984839 6.0134460714926 -3.24900885312627 15.8866477735068
11.0897171620395 58.5298610341588 2.7754366483812 -3.24900885312627 15.8866477735068
8.27707078656934 58.7024768395562 6.47601884622281 -3.09429414583454 9.52875143479793
11.0853699925958 58.5069173269644 3.2380094231114 -3.09429414583454 9.52875143479793
8.30999200497567 62.4697549585915 2.93611982276116 -3.403723560418 6.10564946865145
-1.43252620300114 2.66726158320233 -0.827761807411937 0 6.52234187648957
0.0728177580563772 3.12842298959674 -0.243459355121158 0 6.52234187648957
8.52638978776382 7.82223185608426 0.990879575343113 -0.20764342294416 5.22498256602906
-10.0799262128868 10.1156994122158 2.12783476375892 -0.41528684588832 6.35676472431972
7.88017132443909 12.4373184551066 -0.915407175255555 -1.66114738355328 6.38695108627829
1.94430373461122 14.6161606164617 0.457703587627778 -1.5573256720812 5.90574975941922
7.84176412587383 12.3767001588974 -1.71638845360416 -1.5573256720812 5.90574975941922
8.38327257653251 12.4518795930384 -1.28546539503971 -1.34968224913704 7.28030130411017
7.27502965546208 13.5455861652091 -0.357885252028103 -1.76496909502536 7.32697752101245
7.42461676163561 13.8241066842775 -0.243459355121157 -1.76496909502536 10.5945128445997
-12.4167310472902 16.0131360265216 -2.37372871243129 0.5191085573604 8.65603570630436
-7.73923702384782 18.8343252159495 -1.26598864663002 0.5191085573604 8.65603570630436
-12.4167310472902 16.0131360265216 -2.37372871243129 0.62293026883248 12.23161765074
-7.74274197947753 18.8428549294076 -1.10774006580127 0.62293026883248 12.23161765074
0.636437295529403 20.5028166615745 -2.89229713883936 0.5191085573604 47.9510974695208
0.636437295529403 20.5028166615745 -2.89229713883936 0.62293026883248 68.4550646605386
0.636437295529403 20.5028166615745 -2.89229713883936 0.726751980304561 13.252572016962
-0.161856697919312 20.8662614686108 -2.60988428689881 0.5191085573604 77.5416730078828
0.644572036780957 20.7648772127733 -3.26235535862352 0.62293026883248 126.049821319837
0.644572036780957 20.7648772127733 -3.26235535862352 0.726751980304561 19.4066921211985
-0.164106757149698 21.1563348781431 -2.81439014520059 0.5191085573604 27.8731466815103
-0.164272469530048 21.1776982069482 -2.6488377837182 0.62293026883248 49.7321326829696
-0.164272469530048 21.1776982069482 -2.6488377837182 0.726751980304561 6.11463873148251
0.812049395039972 20.9224535828866 -4.13880903705969 0.726751980304561 6.11463873148251
0.839024653706938 21.6174711529917 -1.00792173020159 0.62293026883248 8.50466642850264
0.679632408526186 21.8943464928242 -1.70421548584811 0.62293026883248 5.2957835360327
8.76427311999736 26.8536689131765 -0.219113419609042 -2.49172107532992 5.07288020277178
24.8308554972246 15.1778615603764 2.26417200262677 -1.14203882619288 10.3081027658479
-20.799473783887 20.4186306081406 4.57703587627777 -1.0382171147208 5.62946707416027
-12.1384124266603 35.227063095174 2.6074496933476 -2.90700792121824 7.49823364098945
