VERSION .7
FIELDS x y z velocity SNR
SIZE 4 4 4 4 4
TYPE F F F F F
COUNT 1 1 1 1 1
WIDTH 214
HEIGHT 1
VIEWPOINT 0 0 0 1 0 0 0
POINTS 214
DATA ascii
5.50591949263481 4.59285881270473 -0.839934775167996 -3.09429414583454 6.21604869928713
5.59736406611105 9.58757814876205 2.1034888282468 2.32072060937591 5.11680001034627
5.38656296997246 9.82047501562462 1.48997125334149 2.78486473125109 7.47550129331074
5.62580046395796 9.44000181056665 2.62936103530851 3.24900885312627 5.73936511665441
6.64760959079101 8.40078186053088 3.59346008158829 3.24900885312627 5.73936511665441
5.41428116372422 10.0810052328559 1.98175915068623 2.78486473125109 6.36962214388568
5.3988250842789 10.0522271156772 2.16191907347588 2.93957943854282 6.89462193323164
-1.87808120656161 11.3758209597682 3.05298031321932 2.16600590208418 6.41433552937465
5.43144208224095 10.1129576387499 -3.2380094231114 2.93957943854282 11.5396738726182
5.92524345343324 10.1491941544731 2.03532020881288 2.93957943854282 11.5396738726182
6.48901251953365 9.83495397501361 1.8502910989208 3.403723560418 8.00451900547477
6.89755898880779 9.64382224598201 1.29520376924456 3.403723560418 8.00451900547477
6.46315839117389 9.79576863491495 2.12783476375892 3.55843826770973 6.20120977917816
5.88667011226489 10.7322418924617 -0.0949491484972513 2.16600590208418 6.52411774424887
5.67843993255206 10.3526084808097 3.22827104890655 2.32072060937591 5.18696421581499
5.90993180052149 10.3344963971454 2.84847445491755 2.93957943854282 6.26726970242271
6.06778146963137 10.6105227358187 -0.664644039480761 3.09429414583454 7.03070216714477
6.77664373641697 10.0655145207844 1.61413552445328 3.403723560418 9.59964918455247
-9.73368578028145 12.3007480842998 0.486918710242317 2.63015002395936 7.23717113210006
-9.2503421948247 12.6752526189458 0.243459355121157 2.63015002395936 7.23717113210006
-10.0464082448213 12.4400535073471 0.744985626670743 2.63015002395936 9.58202378602486
-9.55949836817805 12.8372340227612 0.24832854222358 2.63015002395936 9.58202378602486
-12.1819429627738 11.6953721653855 -1.44614856941968 2.78486473125109 15.7779678265996
-11.5566526214938 12.3731310408984 -0.788808310592552 2.78486473125109 15.7779678265996
-1.04025994361374 16.73174228861 -2.49789298354308 2.78486473125109 15.7779678265996
-12.173449496104 11.6872179445045 -1.5776166211851 2.93957943854282 9.3586603762041
-1.04144284722993 16.7507683393389 -2.36642493177765 2.93957943854282 9.3586603762041
-1.59280087821766 17.0379663932978 -2.27634497038283 2.63015002395936 5.80448083568793
-1.05691432866656 16.9996146414673 -2.81195555164937 2.63015002395936 5.80448083568793
-1.05825259770008 17.0211396196414 -2.67805290633274 2.78486473125109 110.221638299905
-1.19196451872408 17.0328382812865 -2.5441502610161 2.93957943854282 115.509796199614
-1.19460065866325 17.0705079808164 -2.27634497038283 3.09429414583454 10.839031561706
-1.6233985224146 17.3652650786958 -2.18139582188558 2.63015002395936 9.72317670318216
-1.07613095282413 17.3086985440395 -2.86308201622482 2.63015002395936 9.72317670318216
-1.75868173261581 17.3520861160644 -2.18139582188558 2.78486473125109 207.974519774638
-1.07613095282413 17.3086985440395 -2.86308201622482 2.78486473125109 207.974519774638
-1.21218024827463 17.3217153801966 -2.72674477735697 2.93957943854282 259.798431534862
-1.2136366008827 17.3425262500371 -2.59040753848912 3.09429414583454 15.3406401115695
-1.79008676355538 17.6619447967084 -2.22034931870496 2.78486473125109 64.5708847249499
-1.09534757698171 17.6177824466116 -2.91420848080026 2.78486473125109 64.5708847249499
-1.78828098599892 17.6441280382324 -2.35912115112402 2.93957943854282 69.7485001315122
-1.23226602410442 17.6087354769266 -2.91420848080026 2.93957943854282 69.7485001315122
-2.0841170497855 17.7909131908973 -3.24774779731625 2.78486473125109 13.1495936660428
-0.984153822265674 18.0988450010066 -1.69447711164326 2.78486473125109 13.1495936660428
-0.984840470507001 18.111472640923 -1.55327068567299 2.93957943854282 15.7161187588341
-1.57529083261962 18.3953680182213 -1.43641019521483 2.78486473125109 6.46268601793497
-1.00303408007417 18.446057857294 -1.29276917569335 2.78486473125109 6.46268601793497
-1.57700622558155 18.4153994207897 -1.14912815617187 2.93957943854282 10.4771487911286
-1.00245780257612 18.4354599640797 -1.43641019521483 2.93957943854282 10.4771487911286
-16.3852457813887 12.6659889139909 -0.482049523139894 0.309429414583454 5.88626341468674
-7.34122599017975 19.2206408223227 2.41024761569947 0.309429414583454 5.88626341468674
-5.70733737479941 19.625901531487 3.37434666197925 0.309429414583454 5.88626341468674
5.84135173053127 19.4972496689208 3.85639618511914 0.309429414583454 5.88626341468674
-8.51210821485613 18.8750320435949 -0.642732697519858 0.464144121875182 11.467057576172
-2.78367264611831 19.7423077863268 5.62391110329875 0.464144121875182 11.467057576172
-7.27620401185796 19.5347351156811 2.77300205482999 0.309429414583454 57.6387439212466
-3.08990020019227 20.7371728398415 1.63117767931176 0.309429414583454 57.6387439212466
-1.62941019705405 20.9433931597555 -0.978706607587055 0.309429414583454 57.6387439212466
5.82096320948637 20.0166282918929 2.77300205482999 0.309429414583454 57.6387439212466
-2.91617870360895 20.6820646123246 2.44676651896764 0.464144121875182 67.6243325254392
5.81472256370045 19.9951684952059 2.93611982276116 0.464144121875182 67.6243325254392
6.9969520210501 19.7769063245446 1.46805991138058 0.464144121875182 67.6243325254392
6.9528171668865 19.6521590240322 2.77300205482999 0.618858829166909 8.93634783585288
5.90784325738915 20.3153839380406 2.81439014520059 0.154714707291727 9.48979865662081
7.11339575816501 20.1060349042567 0.827761807411938 0.154714707291727 9.48979865662081
5.91380890308175 20.3358980880279 2.6488377837182 0.309429414583454 290.642144522693
7.10825040753291 20.0914915549309 1.15886653037671 0.309429414583454 290.642144522693
5.90150946763628 20.2936038458806 2.97994250668297 0.464144121875182 255.941889857814
7.10503267118714 20.0823966132911 1.3244188918591 0.464144121875182 255.941889857814
6.37837702068319 20.097052052934 3.31104722964775 0.618858829166909 12.4480634518681
7.08246758381221 20.0186163246917 2.15218069927104 0.618858829166909 12.4480634518681
7.21278350176133 20.3869546660328 1.17590868523519 0.309429414583454 253.493125610631
6.3401497187916 20.5545132595896 2.51980432550399 0.464144121875182 225.104213068725
7.20581626048443 20.3672617372176 1.51188259530239 0.464144121875182 225.104213068725
6.34575426970317 20.5726829907688 2.35181737047039 0.618858829166909 8.74328332098018
2.97158989346175 21.0750507511244 5.45348955471394 -0.309429414583454 5.41955356513559
7.32018610915328 20.6905284648829 1.02252929150886 0.309429414583454 23.8058223786587
7.3140042203397 20.6730553372115 1.36337238867849 0.464144121875182 21.0101041433763
-16.0712682552747 15.4293501446821 -0.518568426408068 -1.701861780209 7.07382252207072
5.14538701798728 20.7706743322238 6.2228211168968 0.154714707291727 7.56544672919184
-16.2897735966734 15.6391279523431 -0.876453678436169 -1.85657648750073 5.25817014245638
-16.476833465595 15.4657832034498 -0.175290735687233 -1.701861780209 9.95656313319071
-16.4773291546 15.4662484760219 -0 -1.54714707291727 8.55151425170034
-8.7316635421597 19.8090944531866 -6.48575722042765 0.154714707291727 7.41571234898601
6.23406984826954 21.4371839174568 3.50581471374468 0.154714707291727 7.41571234898601
-9.43718144410646 20.4590845391556 -1.75290735687234 0.464144121875182 5.15803356258675
5.42812471615619 21.9120175644392 1.0517444141234 0.464144121875182 5.15803356258675
8.19832335726461 20.4365710916451 5.08343133492978 0.464144121875182 5.15803356258675
-16.4881316455776 15.8295631900571 -1.59952796314601 -2.47543531666763 5.08869028013774
-15.283918513151 17.0693378385192 -0.177725329238445 -2.47543531666763 5.08869028013774
-14.7401042745287 17.5194667246037 0.888626646192227 -2.47543531666763 5.08869028013774
-13.4382798067682 18.4137611049851 2.31042928009979 -2.47543531666763 5.08869028013774
-3.29024146311517 22.081718335494 5.15403454791491 -2.47543531666763 5.08869028013774
18.9340529697468 12.7257713971138 2.13270395086134 -2.47543531666763 5.08869028013774
6.32824799031692 21.7610356228775 3.37678125553046 0.154714707291727 6.87889999569028
6.39061581666474 22.6556722704436 -0.182594516340868 0.154714707291727 6.68794201196188
15.3701738468745 20.6402586248317 -0.399273342398698 4.48672651146009 5.41476061835812
15.3720236823499 20.642742727029 -0 4.64144121875182 8.64115658177029
15.5576149913486 20.8919690958662 0.404142529501121 4.64144121875182 8.11505338169451
16.9734756090616 19.7620186483661 0.202071264750561 4.64144121875182 8.11505338169451
2.34759025233107 30.1744187691176 3.30617804254533 2.78486473125109 12.0415795049396
15.091661603955 26.3902744967797 1.65308902127266 2.78486473125109 12.0415795049396
2.34951900010186 30.1992096553797 3.0700224680778 2.93957943854282 10.3426320198118
15.091661603955 26.3902744967797 1.65308902127266 2.93957943854282 10.3426320198118
15.2582825565017 26.6816388799747 1.19295084009367 2.78486473125109 27.1181275723277
15.2582825565017 26.6816388799747 1.19295084009367 2.93957943854282 22.8970611298596
15.4139793172823 26.9539005011989 1.20512380784973 2.78486473125109 9.97342012758384
15.6496337582729 26.8058473389944 1.44614856941968 2.93957943854282 7.4818288157321
-18.4979007633027 25.3466909825487 -0.730378065363476 -1.39243236562554 5.10725013621884
-18.5023543644389 25.3527935156524 0.243459355121157 -1.23771765833382 8.02200527733966
-18.6856912335459 25.6040102902706 -0.491787897344738 -1.23771765833382 9.50061588474462
-18.9332644595054 25.4250523741468 0.245893948672369 -1.08300295104209 7.02221518426041
-19.1207225234609 25.67678556597 -0.24832854222358 -1.08300295104209 6.52529860378799
1.48237693614674 31.8173197887384 3.22827104890655 2.47543531666763 5.99613399266395
14.8367949909873 27.6250537088972 6.45654209781311 2.47543531666763 5.99613399266395
17.8796550400978 26.557088498779 -0 2.47543531666763 5.99613399266395
15.218585440866 28.3359202868779 -3.2599207650723 2.32072060937591 13.848765752876
15.0453355226621 28.6134898532151 -0.250763135774792 2.47543531666763 20.3154882252459
15.1900356041332 28.8886830721828 -0.506395458652007 2.32072060937591 8.95578710524714
16.2046546768643 28.3365275653878 -0 2.32072060937591 8.95578710524714
15.1914067413288 28.8912907255764 -0.253197729326004 2.47543531666763 13.0089704835195
16.2027046444087 28.3331176100674 0.506395458652007 2.47543531666763 13.0089704835195
-6.23469948804574 34.3867483290001 6.05239956831199 1.701861780209 5.21257337498744
-4.53963610848126 34.1263812441933 8.52838120989417 1.701861780209 5.21257337498744
0 35.0382288142679 5.50218142573817 1.701861780209 5.21257337498744
14.6760394344679 31.8165262868048 5.50218142573817 1.701861780209 5.21257337498744
16.4747337587718 31.3319451421331 2.20087257029527 1.701861780209 5.21257337498744
14.8405605730265 32.1731954789979 4.99578596708616 1.701861780209 14.9437597885704
16.5918936410539 31.5547619146693 3.05298031321932 1.701861780209 14.9437597885704
14.8237041964958 32.1366521493493 5.27332963192428 1.85657648750073 14.3244813469794
16.5918936410539 31.5547619146693 3.05298031321932 1.85657648750073 14.3244813469794
15.2797554379053 32.3934652283126 4.47965213422931 1.701861780209 8.34028066775006
16.4470041479621 31.9543894749397 3.35973910067198 1.701861780209 8.34028066775006
15.5860631185692 32.3200467467842 3.91969561745065 1.85657648750073 8.24978170792173
16.4470041479621 31.9543894749397 3.35973910067198 1.85657648750073 8.24978170792173
14.9884779099282 34.0036206381162 3.76631622372431 1.39243236562554 7.39639436281742
16.5133512702617 33.5009122047767 0.289716632594177 1.39243236562554 7.39639436281742
14.9761736921904 33.9757066661493 4.05603285631849 1.54714707291727 19.6894652101763
16.5118608177621 33.4978884988361 0.579433265188354 1.54714707291727 19.6894652101763
15.1144315058099 34.2893653493608 3.79796593989006 1.39243236562554 13.6531039006426
16.652118927995 33.7824324754051 0.292151226145389 1.39243236562554 13.6531039006426
15.1144315058099 34.2893653493608 3.79796593989006 1.54714707291727 40.8265174473548
16.6506159506845 33.7793833601709 0.584302452290777 1.54714707291727 40.8265174473548
15.1020238912844 34.261216806201 4.09011716603546 1.701861780209 8.20990970760863
16.6481106869724 33.7743008897327 0.876453678436171 1.701861780209 8.20990970760863
15.2278740903785 34.5467269462526 4.12420147575242 1.54714707291727 10.9260142685927
16.7893710836068 34.0608782215057 0.5891716393932 1.54714707291727 10.9260142685927
14.6544894770644 41.4209594048969 0.68168619433924 0.773573536458636 17.8366992865639
14.31153374845 41.5337100622861 1.02252929150887 0.928288243750363 14.8655733244511
14.415928020461 41.8366741961155 0.686555381441663 0.773573536458636 26.9884978212068
15.7864979408923 41.3318711575039 1.0298330721625 0.773573536458636 26.9884978212068
14.4137589895104 41.8303794198739 1.0298330721625 0.928288243750363 23.0528547163825
15.7831714927264 41.3231619220851 1.37311076288333 0.928288243750363 23.0528547163825
14.5194791354623 42.1371913917344 0.345712284272043 0.773573536458636 5.77076812078904
15.8951088791996 41.6162339924544 1.38284913708818 0.773573536458636 5.77076812078904
14.5159842305707 42.1270487774616 1.03713685281614 0.928288243750363 5.01561393073555
15.890800647173 41.6049542715368 1.72856142136022 0.928288243750363 5.01561393073555
14.4736586619528 43.1487336566923 -0 0.773573536458636 5.06243162311086
14.216315373099 43.5586866095538 0.710901316953779 0.618858829166909 7.09008087648735
15.6355940136127 43.0622720710967 1.06635197543067 0.618858829166909 7.09008087648735
14.216315373099 43.5586866095538 0.710901316953779 0.773573536458636 9.40000287760332
15.632299363132 43.0531982146602 1.42180263390756 0.773573536458636 9.40000287760332
14.0584045801101 45.5767885881444 -1.11017465935248 0.464144121875182 5.6957134213092
17.0098711152838 44.5348806286873 1.8502910989208 0.464144121875182 5.6957134213092
-25.3187344762023 51.3645405430696 4.45530619871719 0.464144121875182 11.190701117761
52.3046528744325 23.0191506917263 5.79189805833234 0.464144121875182 11.190701117761
-25.0377074705582 51.9194532785286 3.58372170738345 0.309429414583454 13.7769898051948
-22.8434766200618 53.0351993488991 0.895930426845859 0.309429414583454 13.7769898051948
-25.4717225952008 51.6749101015596 4.03168692080638 0.464144121875182 33.9166386831259
-25.4717225952008 51.6749101015596 4.03168692080638 0.618858829166909 9.10278829722323
-25.1737819676808 52.2016242202597 3.60319845579314 0.309429414583454 6.30413377520548
-22.9593313342389 53.3041767013435 1.80159922789657 0.309429414583454 6.30413377520548
-25.6233137885323 51.9824456935603 3.60319845579314 0.464144121875182 15.5981159912879
-22.9593313342389 53.3041767013435 1.80159922789657 0.464144121875182 15.5981159912879
14.0074162022847 62.9556689882668 10.1279091730402 -0.154714707291727 7.51923931426195
16.6607030432991 62.9203929476785 5.06395458652009 -0.154714707291727 7.51923931426195
16.6607030432991 62.9203929476785 5.06395458652009 0 6.11770664187965
16.7408025771611 63.22289483685 5.08830052203221 -0.154714707291727 9.95183328908373
16.7408025771611 63.22289483685 5.08830052203221 0 7.41187989622682
-0.661232596049574 10.63539306483 -0.579433265188356 -0.41528684588832 5.8290451237024
5.2976755674364 9.26386478099215 -0 -0.41528684588832 5.8290451237024
6.18126169157013 8.64233116471018 -0.993314168894325 -0.31146513441624 6.41642681557445
6.37357417448697 8.55892852199 0.0827761807411935 -0.10382171147208 5.30112092784292
6.29021372249905 8.97369740463649 -0.766896968631648 -0.31146513441624 8.51437869901177
6.63022527506656 8.72548832940389 -0.766896968631648 -0.10382171147208 8.07381594159311
5.59710577700485 9.20137651340989 -3.41816934590106 -0.41528684588832 7.43066636251745
6.47325822026078 9.23483096972065 -0.701162942748936 -0.41528684588832 7.43066636251745
6.78990862332831 8.93563430994812 -1.31468051765425 -0.10382171147208 11.4685248022301
7.00254795066061 7.98557043421867 -3.85639618511914 -0.10382171147208 11.4685248022301
2.09581814413313 11.0614132837289 0.964099046279786 0.20764342294416 5.4107402240161
6.8769587338838 8.86881379930425 -1.31468051765425 0.20764342294416 5.4107402240161
-7.74876697672857 7.43926596049785 -3.50581471374468 0.62293026883248 5.81514487991424
6.11154179117407 9.26284732101101 -3.42303853300348 -0.31146513441624 5.2184645186534
7.04661445012289 9.08760891143696 -1.62143930510691 -0.31146513441624 5.2184645186534
-1.20218370372086 17.1788675654493 -1.20512380784973 1.14203882619288 27.4575832651492
-1.20218370372086 17.1788675654493 -1.20512380784973 1.24586053766496 13.3282503854735
-1.15677231382208 16.5299515548433 -5.86250127131749 1.0382171147208 8.14156112025218
-1.17742896228319 16.8251292611798 -5.96718879401958 1.0382171147208 6.78887035578056
-1.19042921376596 17.0108992045326 -5.41210146434334 1.14203882619288 52.6305298331926
-1.19640582188246 17.0963032563478 -5.13455779950522 1.24586053766496 33.0718272908871
-1.95962774714052 17.9389357619776 -2.40050924149462 1.14203882619288 15.464385041049
-1.95295706666469 17.8778706394209 -2.82412851940543 1.24586053766496 9.21501061677717
-1.81254601520308 17.8835396773885 -4.45287160516598 1.14203882619288 10.6209204130767
-1.14743303432132 18.4555350242638 -1.00548713665038 1.24586053766496 7.62093135552264
-0.571635550540247 18.4152295478155 -1.86733325377928 1.24586053766496 7.62093135552264
-18.6771360859193 9.46430535095313 -4.13880903705969 -1.45350396060912 6.22029828189693
-5.94534486203771 20.4443412348976 -1.48997125334149 -1.45350396060912 6.22029828189693
5.43335888917072 21.9331466462174 -0.350581471374466 -1.66114738355328 5.63114528767088
16.9304475146271 25.6603252931784 -6.32994323315011 -0.62293026883248 6.03666560521008
16.9575020728935 25.7013300430635 -6.08648387802895 -0.5191085573604 15.85523992001
16.9116939946176 26.1558730117678 -5.90145476813687 -0.5191085573604 14.9065087426957
16.8839391723967 32.1101793618353 -5.6969489098351 -0.830573691776641 5.75671571885838
17.0067123794528 32.3436716564442 -6.0329228199023 -0.934395403248721 9.70520913354433
-11.1958314597588 39.6908679263707 6.47601884622281 -1.66114738355328 5.12543715181738
