VERSION .7
FIELDS x y z velocity intensity
SIZE 4 4 4 4 4
TYPE F F F F F
COUNT 1 1 1 1 1
WIDTH 971
HEIGHT 1
VIEWPOINT 0 0 0 1 0 0 0
POINTS 971
DATA ascii
6.170200 -1.436300 11.268200 -10.656000 7.050000
5.701680 1.278720 12.012000 -10.922400 6.440000
6.819740 -1.484170 11.389500 -10.478400 4.490000
5.789870 1.319970 12.444500 -10.922400 4.180000
5.970800 1.361220 12.833400 -11.011200 4.680000
6.875760 1.700060 12.330200 -10.744800 10.160000
-1.320270 1.233240 14.538800 2.397600 11.680000
-1.359530 1.211410 14.971200 2.397600 9.470000
-1.399280 1.114470 15.408900 2.397600 7.560000
-1.372090 2.359220 16.145100 2.397600 12.040000
7.334010 3.774580 14.641600 -11.011200 6.720000
-2.064180 0.896118 16.653800 2.397600 4.090000
-7.350130 1.809070 15.484900 -10.656000 6.870000
-2.117110 0.919096 17.080800 2.397600 3.990000
7.262070 3.968150 15.608800 -11.100000 7.300000
-7.655990 1.854300 15.813500 -10.656000 4.920000
7.211980 -2.552160 16.401300 -11.188800 8.410000
-8.093730 0.965050 16.158300 -10.567200 7.810000
7.383700 -2.612930 16.791900 -11.188800 10.440000
-8.186260 1.159650 16.581700 -10.656000 10.250000
6.024430 -0.716123 17.507300 -11.455200 11.400000
6.267980 -0.732777 17.878500 -11.366400 7.170000
7.687610 -2.673690 17.123600 -11.188800 8.130000
8.110810 1.303640 17.087500 -11.011200 8.470000
-8.376640 1.186620 16.967300 -10.656000 6.480000
6.551170 -0.749431 18.234900 -11.366400 9.280000
-8.563530 1.333270 17.345900 -10.656000 6.000000
6.926690 1.714310 18.492400 -11.277600 4.030000
-6.940430 1.179370 18.529100 -11.011200 10.290000
-7.237010 1.205010 18.876700 -11.011200 11.210000
7.397650 -0.863309 19.295700 -11.366400 7.090000
-7.500890 1.294490 19.231600 -11.011200 9.690000
7.535320 1.647150 19.654800 -11.366400 7.070000
-7.808240 1.321460 19.572700 -11.011200 5.940000
-7.111160 1.481410 20.283600 -11.188800 6.700000
-7.710610 1.217800 21.462200 -11.188800 6.680000
-7.982360 1.240780 21.821300 -11.188800 7.070000
17.673700 1.528120 15.057700 -8.080800 9.790000
-8.301240 1.263760 22.162100 -11.188800 4.870000
18.001000 1.556420 15.336500 -8.080800 8.870000
18.328300 1.584720 15.615400 -8.080800 8.920000
7.788790 1.916070 23.214700 -11.544000 8.040000
18.182100 1.641310 17.068400 -8.613600 10.020000
7.925440 1.949690 23.621900 -11.544000 11.550000
18.323600 1.748060 17.536400 -8.613600 9.490000
18.638000 1.697910 17.837300 -8.613600 9.840000
17.956400 -4.889510 18.562200 -9.057600 7.770000
18.250800 -4.969670 18.866500 -9.057600 5.950000
-16.237300 0.965305 21.733900 -11.366400 6.330000
18.545100 -5.049830 19.170800 -9.057600 11.190000
-13.017400 1.531410 23.772800 -14.208000 6.500000
-13.229900 1.321490 24.160900 -14.208000 11.370000
-13.784900 1.321490 23.848500 -14.030400 4.040000
-7.702340 0.980627 26.462000 -11.455200 6.950000
-14.000300 1.342140 24.221200 -14.030400 7.600000
-7.964070 1.925830 26.783200 -11.455200 11.900000
18.436400 1.867700 21.573400 -9.412800 8.680000
-14.019500 1.604330 24.691700 -14.030400 6.630000
-15.873200 1.779930 23.530200 -12.432000 14.830000
18.715700 1.896000 21.900300 -9.412800 5.890000
-16.113800 1.806900 23.886700 -12.432000 6.320000
-18.428500 2.014720 22.691200 -13.320000 8.960000
8.071610 1.952600 28.548800 -11.632800 5.550000
18.615500 1.312950 25.321900 -9.945600 6.300000
18.872900 1.232400 25.672000 -9.945600 6.590000
-7.191110 1.366910 31.919900 -11.632800 5.170000
18.949900 1.769260 27.177800 -10.123200 7.220000
-7.285730 1.384890 32.339900 -11.632800 7.780000
19.196000 1.792240 27.530800 -10.123200 4.510000
8.955640 0.597664 32.389600 -11.721600 8.010000
9.071280 0.394790 32.807800 -11.721600 8.340000
9.185740 0.506391 33.221700 -11.721600 8.650000
9.300560 0.512720 33.637000 -11.721600 11.390000
18.811600 1.734450 30.874500 -10.478400 8.920000
19.035500 1.755100 31.242100 -10.478400 5.250000
19.259500 1.775750 31.609600 -10.478400 7.090000
-13.138300 1.564750 35.075800 -13.764000 12.940000
9.778240 -9.570440 35.364700 -11.721600 8.990000
19.150300 2.518570 33.130800 -10.656000 5.890000
7.456630 -9.679190 36.351600 -11.810400 8.060000
7.540410 -9.787950 36.760100 -11.810400 6.210000
19.614500 1.151910 33.934000 -10.656000 10.000000
19.031600 1.164570 34.756200 -10.744800 8.590000
19.238500 1.177230 35.134000 -10.744800 6.720000
19.449500 0.845508 35.519400 -10.744800 10.380000
19.656400 0.854503 35.897200 -10.744800 9.580000
19.273700 1.873750 37.040900 -10.833600 5.970000
19.472400 1.893070 37.422700 -10.833600 10.320000
19.671100 1.912380 37.804600 -10.833600 11.250000
9.372300 1.121300 41.601700 -11.810400 8.400000
19.869800 1.931700 38.186500 -10.833600 7.270000
9.466970 1.132630 42.021900 -11.810400 10.840000
19.246600 1.951020 38.985000 -10.922400 8.930000
19.437200 1.970340 39.371000 -10.922400 8.730000
7.079740 1.291160 43.358600 -11.899200 16.540000
19.627700 1.989650 39.757000 -10.922400 10.490000
19.818300 2.008970 40.143000 -10.922400 12.440000
19.566300 2.047600 41.221500 -11.011200 7.670000
19.750900 2.066920 41.610300 -11.011200 14.420000
19.935500 2.086240 41.999200 -11.011200 6.160000
19.731000 1.831940 43.058100 -11.100000 15.670000
19.907900 1.996400 43.444100 -11.100000 12.590000
20.087200 2.014390 43.835500 -11.100000 6.250000
20.263900 2.182820 44.221000 -11.100000 11.590000
19.931500 1.915210 45.327900 -11.188800 7.340000
-5.427470 1.915210 49.218100 -11.899200 14.380000
20.104800 1.931870 45.722000 -11.188800 12.640000
-21.500200 -2.803240 47.890200 -10.833600 9.470000
-21.676400 -2.826220 48.282700 -10.833600 13.190000
-22.249200 -1.569640 48.553500 -10.833600 7.060000
-23.086800 -1.582300 48.638100 -10.744800 6.130000
-13.233500 2.747410 52.139200 -11.899200 7.920000
-8.632850 2.320140 54.862600 -11.810400 5.570000
-8.699780 2.338130 55.287900 -11.810400 7.120000
20.500600 1.832740 52.561700 -11.366400 8.660000
-8.766700 2.356110 55.713200 -11.810400 7.150000
20.657100 1.846730 52.962900 -11.366400 8.050000
-8.833620 2.374100 56.138500 -11.810400 7.980000
-18.626700 -2.264950 55.517200 -11.277600 10.720000
-19.206400 -0.867194 55.814800 -11.277600 8.920000
-18.468000 -2.114480 56.484100 -11.277600 5.780000
-18.274500 -1.944670 57.006000 -11.366400 8.920000
-17.954300 -2.704380 57.528700 -11.366400 9.530000
-18.082600 -2.723700 57.939600 -11.366400 9.280000
20.326900 1.111040 59.071100 -11.455200 7.840000
-16.488900 -1.358210 62.927300 -11.544000 7.490000
-16.598100 -1.367200 63.344000 -11.544000 7.330000
20.967300 1.172340 62.493700 -11.544000 8.930000
21.101700 1.590370 62.894000 -11.544000 6.830000
21.235600 1.962050 63.293300 -11.544000 8.910000
12.855100 2.012690 67.266200 -11.810400 8.040000
-18.189400 1.846180 67.815400 -11.544000 6.460000
-18.301000 1.857510 68.231500 -11.544000 8.320000
21.178400 1.264290 67.859200 -11.632800 6.140000
21.306800 1.271950 68.270500 -11.632800 7.070000
21.435100 1.279610 68.681700 -11.632800 7.970000
21.416700 1.076080 70.044000 -11.632800 11.050000
21.542700 1.082410 70.456100 -11.632800 11.700000
21.668700 1.088740 70.868100 -11.632800 15.200000
21.243600 1.325590 71.442400 -11.632800 14.060000
21.365100 1.565090 71.851000 -11.632800 8.760000
21.487900 1.574080 72.264000 -11.632800 11.280000
21.610700 1.583080 72.676900 -11.632800 10.880000
21.726800 2.476300 73.067200 -11.632800 6.840000
-27.864300 1.601070 71.441800 -11.100000 6.970000
21.854800 1.838220 73.497700 -11.632800 8.900000
-28.571800 1.848550 71.620100 -11.100000 6.070000
21.980400 1.371560 73.920200 -11.632800 9.960000
-28.731400 1.858880 72.020200 -11.100000 15.070000
21.671800 1.619060 74.455200 -11.632800 15.320000
21.792200 1.628050 74.868800 -11.632800 10.730000
21.913900 1.394550 75.287000 -11.632800 8.860000
22.034300 1.402210 75.700600 -11.632800 11.170000
18.824100 0.879541 101.685000 -11.899200 6.370000
18.902900 0.562044 102.110000 -11.899200 7.460000
18.981400 0.564376 102.534000 -11.899200 6.930000
18.265700 0.566709 103.102000 -11.899200 8.000000
20.507200 2.467280 137.204000 -11.988000 6.560000
20.570900 2.474940 137.630000 -11.988000 8.490000
-61.502100 -13.276700 134.213000 -10.744800 7.700000
-61.680900 -13.315300 134.604000 -10.744800 7.940000
-61.824100 -14.272200 134.916000 -10.744800 7.010000
-60.958100 -14.313400 135.780000 -10.744800 6.810000
-7.976490 1.779050 153.183000 -11.988000 6.810000
-7.998890 1.784050 153.613000 -11.988000 7.120000
-8.021300 1.789050 154.043000 -11.988000 5.690000
-8.044130 0.837236 154.482000 -11.988000 10.980000
-8.066530 0.839568 154.912000 -11.988000 11.630000
-8.088770 1.322980 155.339000 -11.988000 8.120000
-6.092310 1.834020 158.012000 -11.988000 6.730000
-6.109100 1.348630 158.448000 -11.988000 7.110000
-6.125710 1.352290 158.878000 -11.988000 4.330000
-6.142310 1.355960 159.309000 -11.988000 7.770000
6.102400 0.016991 4.052210 -4.972800 10.010000
6.461380 0.000000 4.290590 -5.328000 12.030000
6.820350 0.000000 4.528960 -5.416800 9.350000
6.395490 -0.073295 5.776010 -7.992000 4.360000
6.644700 -0.076960 6.142040 -8.080800 6.360000
5.591540 -0.349735 7.105980 -9.235200 6.650000
6.411950 -0.424974 6.969430 -8.702400 6.090000
5.785810 -0.366389 7.500450 -9.235200 5.530000
6.632890 -0.444291 7.350460 -8.791200 7.170000
5.927210 -0.383043 7.933690 -9.324000 6.360000
5.543570 -1.154970 10.653800 -10.300800 8.680000
5.702610 -1.876910 10.959500 -10.389600 4.710000
9.176190 1.196450 9.633250 -8.524800 7.990000
5.530250 -1.484170 12.068400 -10.567200 5.980000
9.472190 1.235050 9.944000 -8.613600 6.600000
6.323110 -1.574420 12.152000 -10.389600 7.020000
5.887040 -1.579920 12.847000 -10.656000 6.310000
7.163550 -1.623620 12.175700 -10.212000 8.290000
5.862690 -1.582760 13.332800 -10.656000 10.490000
5.953500 -0.897346 13.827600 -10.656000 6.550000
6.043390 -0.827186 14.262800 -10.833600 7.700000
7.356050 -0.468361 14.137100 -10.389600 8.420000
7.444330 -0.341801 14.580100 -10.478400 7.850000
7.754350 -0.441724 14.902600 -10.478400 7.200000
7.953180 -0.453050 15.284700 -10.478400 8.890000
6.342790 1.559690 17.339200 -10.922400 5.770000
6.397810 -1.186620 17.808000 -10.922400 7.090000
6.543220 -1.213590 18.212800 -11.011200 9.220000
6.807120 -0.521008 18.608600 -11.011200 6.780000
6.942490 1.330030 18.978600 -10.922400 6.900000
7.101800 -0.671540 19.414100 -10.922400 10.340000
8.475020 1.582040 19.273700 -10.656000 8.960000
7.402280 -0.685530 19.762100 -10.922400 7.330000
7.555690 -0.449738 20.171700 -10.922400 9.880000
7.538830 2.213920 20.984000 -10.922400 9.460000
8.125080 0.360803 23.175600 -11.011200 7.090000
18.298000 1.538310 18.200200 -8.436000 7.640000
9.083040 1.591150 23.691800 -10.922400 7.400000
18.603000 1.563950 18.503500 -8.436000 13.430000
18.907900 1.589580 18.806800 -8.436000 7.180000
18.143600 1.866570 20.106400 -8.791200 5.380000
18.435400 1.811110 20.429800 -8.791200 10.820000
18.723500 1.839400 20.749100 -8.791200 8.640000
7.852240 1.236290 26.407200 -11.188800 5.240000
19.007600 1.955460 21.063900 -8.791200 13.610000
7.974940 1.255610 26.819800 -11.188800 6.470000
8.307270 1.274920 27.169200 -11.100000 9.350000
18.442800 1.652950 22.708800 -9.235200 7.540000
8.437180 0.937358 27.594000 -11.100000 6.310000
18.714100 1.677250 23.042800 -9.235200 7.180000
8.563110 0.951348 28.005900 -11.100000 6.480000
18.393800 1.701560 23.844900 -9.412800 6.600000
18.656600 1.725870 24.185500 -9.412800 6.470000
18.916000 1.845970 24.521800 -9.412800 6.650000
18.986500 1.871610 25.009400 -9.412800 6.230000
18.614300 1.626470 25.838300 -9.679200 13.640000
18.865900 1.648440 26.187400 -9.679200 7.240000
19.117400 1.670420 26.536600 -9.679200 7.900000
19.369000 1.692400 26.885800 -9.679200 6.700000
18.993800 1.402880 27.693200 -9.768000 7.040000
19.237300 1.420860 28.048300 -9.768000 5.910000
19.263700 1.332320 28.556200 -9.856800 7.410000
19.504500 1.348980 28.913100 -9.856800 9.850000
9.494370 0.620651 33.581000 -11.188800 6.520000
18.823200 1.802300 29.848200 -10.034400 5.030000
9.611010 0.737571 33.993600 -11.188800 6.730000
19.052800 1.824280 30.212200 -10.034400 8.090000
9.728210 0.746565 34.408100 -11.188800 8.990000
19.280000 1.930100 30.572500 -10.034400 12.150000
9.614900 -2.907380 34.773900 -11.277600 7.600000
19.509500 1.953080 30.936500 -10.034400 11.740000
18.758300 2.204910 31.882900 -10.212000 6.950000
8.776710 -2.941990 35.437500 -11.366400 8.120000
18.976400 2.230550 32.253600 -10.212000 17.050000
8.596560 -3.319190 35.893400 -11.366400 7.060000
19.197900 2.139110 32.630200 -10.212000 19.300000
19.416100 2.163410 33.001000 -10.212000 12.550000
19.341300 1.757850 34.064600 -10.300800 7.750000
19.553900 1.777170 34.438900 -10.300800 9.230000
19.769100 1.672660 34.817900 -10.300800 10.130000
19.465900 2.219910 38.861600 -10.478400 12.110000
19.658600 2.241880 39.246300 -10.478400 9.140000
10.135600 -0.639318 42.319400 -11.366400 10.160000
10.236000 -0.645648 42.738400 -11.366400 11.130000
19.818300 2.008970 40.143000 -10.567200 10.420000
10.336700 -0.514726 43.159100 -11.366400 8.810000
20.008800 2.028290 40.529000 -10.567200 7.730000
20.199400 2.047600 40.915000 -10.567200 5.220000
20.392700 1.924460 41.306500 -10.478400 5.550000
19.543800 2.250660 42.649500 -10.656000 4.920000
19.971500 2.271310 42.926000 -10.656000 9.660000
20.153100 2.291950 43.316300 -10.656000 9.350000
19.932000 1.580920 44.397100 -10.744800 7.770000
20.106200 1.746740 44.785200 -10.744800 11.670000
20.282600 1.762060 45.178100 -10.744800 6.030000
20.107100 1.777390 45.727300 -10.744800 15.600000
19.924400 1.792710 46.276400 -10.744800 9.280000
20.094700 1.808030 46.671900 -10.744800 10.960000
20.265000 1.823350 47.067500 -10.744800 7.190000
20.432900 1.998480 47.457500 -10.744800 12.460000
19.958200 1.854000 48.132100 -10.833600 5.930000
20.498800 1.706830 48.378400 -10.833600 9.310000
20.290200 1.720820 48.932800 -10.833600 6.410000
20.834800 1.734810 49.171500 -10.833600 5.370000
20.105000 1.930610 50.396800 -10.833600 14.040000
20.033000 1.620270 51.362900 -10.922400 16.250000
20.189500 1.632930 51.764200 -10.922400 14.060000
20.346000 1.645590 52.165500 -10.922400 6.170000
20.346100 2.198330 53.069800 -10.922400 12.610000
20.502600 2.037870 53.478000 -10.922400 7.020000
20.656700 2.053190 53.880100 -10.922400 16.680000
20.810900 2.068510 54.282200 -10.922400 10.830000
-19.345600 -1.057410 56.219400 -10.833600 15.790000
-19.812800 -1.065070 56.513200 -10.833600 9.760000
-17.836300 -1.759520 57.150600 -10.922400 6.470000
-17.959000 -2.331560 57.543600 -11.011200 10.330000
-18.087300 -2.348220 57.954600 -11.011200 5.980000
-18.003700 -2.381530 58.881700 -10.922400 9.820000
21.409100 1.664960 59.591300 -11.100000 6.320000
21.554700 1.676290 59.996700 -11.100000 7.270000
11.561200 0.582696 67.528100 -11.455200 9.400000
12.026500 0.586361 67.884400 -11.455200 8.820000
12.626300 1.233640 68.205100 -11.455200 6.980000
12.704700 1.241300 68.628700 -11.455200 13.250000
-13.558700 -4.179070 68.788700 -11.188800 10.080000
-17.383100 1.038100 68.488400 -11.100000 7.840000
-18.017700 1.484140 68.761600 -11.100000 7.940000
-18.126900 1.493130 69.178300 -11.100000 6.730000
21.433800 1.502130 68.677600 -11.188800 7.310000
21.562200 1.511120 69.088900 -11.188800 6.430000
21.690500 1.520120 69.500100 -11.188800 6.090000
21.817400 1.755600 69.906500 -11.188800 5.100000
22.078900 0.859543 70.744500 -11.188800 6.100000
21.795600 0.864540 71.283000 -11.188800 10.020000
21.921600 0.869538 71.695000 -11.188800 11.490000
21.483300 2.215220 72.248500 -11.188800 8.890000
21.607900 1.993420 72.667600 -11.188800 9.390000
21.732000 1.827890 73.084800 -11.188800 9.910000
21.854800 1.838220 73.497700 -11.188800 12.470000
21.977500 1.848550 73.910600 -11.277600 15.010000
21.667200 2.278510 74.439300 -11.188800 11.520000
21.787600 2.291170 74.852800 -11.277600 15.800000
22.035400 1.158370 75.704400 -11.188800 8.930000
22.155900 1.164700 76.118100 -11.188800 10.660000
22.276300 1.171030 76.531800 -11.188800 7.970000
-1.577080 1.709010 81.838000 -11.455200 8.840000
20.637100 1.187380 138.073000 -11.455200 8.920000
20.700800 1.191050 138.499000 -11.455200 7.610000
-62.598900 -8.845260 134.548000 -10.389600 15.850000
-61.999300 -8.870900 135.298000 -10.389600 13.590000
-62.154300 -9.819590 135.637000 -10.389600 7.370000
-61.257100 -10.773200 136.446000 -10.389600 6.770000
-8.044130 0.837236 154.482000 -11.544000 7.430000
-6.872340 0.839568 154.969000 -11.544000 7.570000
-6.891430 0.841900 155.400000 -11.544000 4.700000
-6.910370 1.326640 155.827000 -11.544000 5.870000
-6.929250 1.814040 156.253000 -11.455200 5.270000
-6.967140 2.310410 157.107000 -11.544000 4.840000
-6.142440 0.862890 159.312000 -11.544000 7.320000
-6.159040 0.865222 159.743000 -11.544000 6.240000
-6.175640 0.867554 160.173000 -11.544000 6.510000
6.102400 -0.016991 4.052210 -5.061600 8.850000
6.461360 -0.017991 4.290580 -5.328000 12.240000
6.820330 -0.018990 4.528950 -5.505600 10.990000
6.441420 -0.069630 5.052900 -7.370400 7.000000
6.728890 -0.073295 5.383920 -7.459200 8.740000
6.999510 -0.076960 5.734420 -7.548000 6.570000
5.669350 -1.005410 6.980710 -9.235200 6.010000
5.982040 -0.589684 7.879680 -9.412800 5.980000
5.969500 -0.615323 8.422300 -9.590400 9.970000
6.218230 -0.640961 8.773230 -9.590400 9.570000
6.996880 -1.443110 11.286900 -10.300800 7.070000
5.765810 -1.817760 12.392800 -10.744800 6.850000
5.243160 -1.404990 13.142900 -10.833600 6.880000
5.480220 -1.447560 13.509700 -10.833600 9.010000
7.037990 -1.194600 14.255800 -10.567200 9.290000
7.324910 -0.784633 14.623400 -10.567200 10.850000
7.385940 1.523420 16.451700 -10.833600 6.430000
8.351900 -0.377780 16.051000 -10.478400 5.350000
7.561800 1.559690 16.843400 -10.833600 5.970000
5.729980 -1.830740 17.525100 -11.100000 5.710000
8.363310 1.595960 16.940300 -10.567200 5.940000
6.001270 -1.873320 17.886900 -11.188800 4.590000
7.569090 1.546310 18.253900 -10.922400 5.120000
7.336620 1.579920 18.810500 -10.922400 5.300000
6.441540 -0.234875 19.199100 -11.188800 9.150000
7.640550 1.613540 19.152400 -10.922400 6.690000
7.103990 -0.431749 19.420100 -11.100000 4.440000
7.404570 -0.440743 19.768200 -11.100000 6.820000
7.683570 1.765200 20.513100 -11.100000 7.620000
18.349500 1.537210 16.253900 -7.992000 4.370000
18.671400 1.564180 16.539100 -7.992000 8.190000
6.836650 2.199930 23.487800 -11.188800 11.310000
8.698790 2.277120 23.779800 -11.100000 7.140000
18.379600 1.806900 22.190600 -9.235200 8.590000
18.379600 1.806900 22.190600 -9.235200 7.710000
18.653900 1.833870 22.521800 -9.235200 10.510000
18.928200 1.860830 22.853000 -9.235200 7.200000
18.633800 2.292350 24.156000 -9.501600 6.860000
18.896300 2.324630 24.496200 -9.501600 6.260000
19.158700 2.356920 24.836500 -9.501600 8.230000
18.420100 1.429460 25.988700 -9.768000 14.080000
18.669000 1.448780 26.339900 -9.768000 7.600000
18.917900 1.468090 26.691100 -9.768000 9.470000
19.166900 1.487410 27.042300 -9.679200 6.490000
18.774500 1.610560 27.831100 -9.856800 5.730000
19.015200 1.631210 28.187900 -9.856800 7.680000
19.255900 1.651860 28.544700 -9.856800 5.680000
19.496600 1.672510 28.901500 -9.856800 11.930000
9.182760 1.012670 33.211000 -11.366400 5.100000
18.576600 2.320480 29.966700 -10.123200 7.050000
9.299540 0.728576 33.633300 -11.366400 9.910000
18.806900 2.238400 30.338100 -10.123200 14.630000
9.414910 0.628313 34.050600 -11.366400 14.570000
19.033500 2.265360 30.703700 -10.123200 6.050000
9.263250 0.746565 34.536200 -11.366400 9.730000
19.260100 2.292330 31.069200 -10.123200 11.790000
9.162710 -1.846260 34.967900 -11.366400 8.440000
8.519790 -1.868240 35.572800 -11.366400 17.450000
19.239200 1.680580 32.131000 -10.212000 13.400000
8.142630 -0.773550 36.143500 -11.455200 17.990000
19.457500 1.817040 32.495700 -10.212000 13.690000
19.427500 1.719210 33.020400 -10.212000 9.280000
19.343900 1.636690 34.069200 -10.300800 5.370000
19.553900 1.777170 34.438900 -10.300800 7.880000
19.766400 1.796480 34.813300 -10.300800 5.780000
19.376400 2.044180 37.949700 -10.567200 8.350000
19.572100 2.064820 38.333000 -10.567200 9.800000
19.770700 1.951020 38.721900 -10.567200 10.390000
19.966400 1.970340 39.105300 -10.567200 6.190000
20.162200 1.989650 39.488600 -10.567200 7.760000
19.815400 2.147420 40.137200 -10.656000 7.660000
20.006000 2.168060 40.523100 -10.656000 7.880000
20.199400 2.047600 40.915000 -10.656000 5.230000
20.390000 2.066920 41.300900 -10.656000 7.440000
19.603000 2.481560 42.134000 -10.744800 17.760000
19.786900 2.395740 42.529300 -10.744800 17.430000
19.968500 2.417720 42.919500 -10.744800 11.170000
20.153100 2.291950 43.316300 -10.744800 7.360000
19.922400 2.182820 44.375800 -10.744800 9.930000
20.098700 2.202140 44.768500 -10.744800 13.750000
20.275000 2.221460 45.161200 -10.744800 10.330000
20.099600 2.240770 45.710200 -10.833600 14.030000
19.922100 1.948520 46.271100 -10.833600 7.620000
20.092400 1.965180 46.666600 -10.833600 6.200000
20.262700 1.981830 47.062100 -10.833600 9.700000
20.432900 1.998480 47.457500 -10.833600 9.260000
20.328600 1.854000 47.976800 -10.833600 14.280000
20.496600 1.869320 48.373300 -10.833600 13.720000
20.664600 1.884640 48.769800 -10.833600 7.020000
20.832600 1.899960 49.166300 -10.833600 13.670000
20.234200 1.915290 49.880700 -10.922400 17.100000
20.398200 1.762790 50.285000 -10.922400 16.120000
20.560100 1.776780 50.684100 -10.922400 6.780000
20.660900 1.696230 53.890900 -11.100000 8.560000
20.813100 1.888710 54.287900 -11.100000 6.690000
20.826500 1.619660 57.969800 -11.100000 6.870000
20.973400 1.487100 58.378600 -11.100000 8.600000
21.119000 1.497430 58.784000 -11.100000 6.930000
21.413100 1.126370 59.602500 -11.100000 4.440000
21.556000 1.528410 60.000200 -11.100000 8.110000
21.701600 1.538740 60.405600 -11.100000 6.140000
21.026600 1.349210 61.104400 -11.188800 8.890000
21.164000 1.710270 61.503900 -11.188800 6.240000
-17.066600 -2.548070 63.629400 -11.100000 16.600000
-17.183600 -1.949390 64.065500 -11.100000 15.100000
12.235300 0.779585 66.092900 -11.455200 8.960000
11.801000 0.575367 66.611600 -11.544000 10.320000
11.876600 -0.157919 67.038100 -11.455200 9.860000
11.951800 -0.158919 67.462400 -11.455200 5.400000
12.547100 1.439160 67.777400 -11.544000 5.670000
-13.003900 -3.699360 68.044800 -11.277600 7.400000
12.625500 1.448160 68.201000 -11.544000 5.490000
12.703100 1.672990 68.619800 -11.544000 7.600000
21.565200 1.857510 67.271100 -11.188800 7.170000
-18.016500 1.703970 68.756800 -11.188800 7.690000
-18.125700 1.714300 69.173500 -11.188800 7.570000
21.431100 1.891490 68.668900 -11.277600 8.900000
21.560700 1.734950 69.084100 -11.277600 8.420000
21.689000 1.745280 69.495300 -11.277600 10.460000
21.820200 1.302600 69.915600 -11.277600 5.490000
21.116800 1.948120 71.016100 -11.277600 10.680000
21.240900 1.786590 71.433200 -11.277600 7.760000
21.365100 1.565090 71.851000 -11.277600 7.320000
21.483300 2.215220 72.248500 -11.277600 12.230000
21.610700 1.583080 72.676900 -11.277600 13.210000
21.733500 1.592070 73.089900 -11.277600 14.120000
21.857600 1.363900 73.507200 -11.277600 12.530000
21.549900 1.848550 74.036400 -11.277600 11.040000
21.669100 2.038730 74.445700 -11.277600 15.160000
-28.332000 1.869200 72.640900 -10.744800 14.400000
21.789400 2.050050 74.859300 -11.277600 8.500000
-28.488500 1.879530 73.042200 -10.744800 6.240000
21.909800 2.061380 75.272900 -11.277600 11.650000
21.446200 2.072710 75.854000 -11.277600 12.680000
21.563400 2.084030 76.268500 -11.277600 9.420000
21.680600 2.095360 76.683000 -11.277600 10.320000
-61.808400 -9.304170 134.882000 -10.389600 4.970000
-62.780300 -8.870900 134.938000 -10.389600 7.820000
-62.154300 -9.819590 135.637000 -10.389600 8.040000
-60.389800 -10.340200 137.337000 -10.389600 4.490000
-6.853100 1.315650 154.536000 -11.632800 5.920000
-6.872190 1.319310 154.966000 -11.544000 8.800000
-6.890790 2.285090 155.385000 -11.632800 10.080000
-6.009070 2.291420 155.853000 -11.544000 9.490000
-6.025670 2.297750 156.284000 -11.544000 5.360000
-6.142440 0.862890 159.312000 -11.544000 6.430000
-6.159110 0.370811 159.745000 -11.544000 6.070000
-6.175710 0.371810 160.175000 -11.544000 5.500000
6.102400 0.016991 4.052210 -5.416800 8.030000
6.461360 0.017991 4.290580 -5.505600 9.410000
6.820330 -0.018990 4.528950 -5.772000 6.060000
6.472010 -0.349735 6.314540 -8.347200 5.430000
6.716160 -0.366389 6.680240 -8.524800 7.750000
4.736670 0.979233 8.650260 -10.300800 5.700000
5.204920 -0.796069 8.396250 -10.034400 4.100000
5.587500 -0.796069 8.146660 -9.768000 4.490000
5.764740 -0.830681 8.545550 -9.768000 4.600000
4.338370 -1.738370 11.123200 -10.833600 2.720000
5.683200 3.690140 11.511600 -10.656000 5.100000
4.697590 -1.775480 12.841800 -11.100000 5.210000
5.427660 3.809170 12.089700 -10.833600 12.540000
4.946320 -1.830970 13.205400 -11.100000 6.160000
5.239300 -0.656779 13.666000 -11.011200 10.940000
5.771660 -0.629496 13.919200 -10.833600 6.560000
5.938610 -0.503655 14.321800 -10.922400 8.840000
6.104680 -0.419072 14.722300 -10.922400 11.330000
6.269670 -0.430398 15.120200 -10.922400 6.230000
7.205040 -0.298832 15.179200 -10.744800 7.490000
7.241500 1.543810 15.564600 -10.744800 5.650000
7.284290 -0.209888 16.565800 -10.833600 8.520000
8.073500 -0.214886 16.675900 -10.922400 6.350000
6.493560 1.479070 17.751400 -11.100000 6.290000
-8.107190 1.420610 17.079900 -10.567200 5.980000
7.644720 1.512690 17.755600 -11.011200 6.430000
6.934780 1.424050 18.514000 -11.100000 6.090000
6.691630 -1.033030 19.086900 -11.188800 8.930000
7.988190 1.455000 18.553400 -11.011200 7.200000
6.834000 -1.055000 19.493000 -11.188800 8.210000
7.401110 0.249867 20.232400 -11.100000 9.250000
-7.811870 1.414930 20.029000 -10.833600 9.380000
7.707960 0.254864 20.578200 -11.100000 7.180000
-7.968110 1.443220 20.429600 -10.833600 9.290000
7.834230 1.799810 20.915300 -11.100000 8.190000
8.148950 1.834420 21.255400 -11.100000 5.970000
17.988000 0.827404 14.736900 -7.636800 4.410000
7.973080 1.671710 21.795900 -11.188800 4.460000
18.020200 1.659180 15.962300 -8.169600 3.570000
18.345900 1.613020 16.250700 -8.169600 4.240000
18.667700 1.641310 16.535800 -8.169600 3.850000
18.237800 1.811110 20.606500 -9.057600 11.410000
18.108700 1.692140 21.863500 -9.324000 12.500000
18.383000 1.717780 22.194800 -9.324000 8.200000
-7.577370 1.743410 28.250700 -11.277600 8.900000
18.657400 1.743410 22.526000 -9.324000 13.750000
18.931800 1.769050 22.857300 -9.324000 8.710000
18.379600 2.073970 23.826400 -9.501600 11.420000
18.642100 2.103600 24.166800 -9.501600 12.530000
-6.720970 0.898746 29.833000 -11.366400 9.210000
18.904700 2.133230 24.507200 -9.501600 6.590000
18.979100 2.065790 24.999700 -9.590400 17.680000
18.409300 1.798790 25.973400 -9.856800 9.070000
18.658000 1.823100 26.324400 -9.856800 5.710000
18.910000 1.746280 26.679900 -9.856800 9.540000
19.155600 1.871720 27.026400 -9.856800 5.260000
18.547900 1.999800 27.957500 -9.945600 14.290000
-6.936900 1.506730 32.852000 -11.366400 5.270000
18.789100 1.920330 28.321000 -9.945600 14.380000
-7.026780 1.420860 33.277700 -11.455200 10.080000
19.026900 1.944640 28.679500 -9.945600 11.050000
9.183550 0.906101 33.213900 -11.455200 7.110000
19.264800 1.968950 29.038000 -9.945600 16.140000
9.298350 0.917427 33.629000 -11.455200 5.860000
9.414340 0.737571 34.048500 -11.455200 16.290000
19.058400 1.603310 30.221200 -10.123200 6.290000
9.529150 0.746565 34.463800 -11.455200 11.680000
19.285300 1.734450 30.580900 -10.123200 13.790000
9.171480 0.951406 35.001400 -11.455200 17.820000
19.509500 1.953080 30.936500 -10.123200 9.940000
8.320460 -1.189190 35.649100 -11.455200 17.690000
8.418350 -1.203180 36.068500 -11.455200 10.870000
18.972800 2.346270 32.247500 -10.389600 12.580000
9.393070 0.085956 35.847100 -11.544000 7.390000
19.190900 2.373240 32.618200 -10.389600 12.690000
7.249570 0.202896 36.780100 -11.544000 9.750000
19.408900 2.400210 32.988800 -10.389600 8.090000
7.619510 0.087955 37.145700 -11.544000 8.950000
7.792680 0.089954 37.989900 -11.544000 9.250000
10.024700 -2.725790 38.257400 -11.455200 6.220000
8.033400 -2.755420 39.163400 -11.455200 9.910000
19.446100 1.075990 36.005600 -10.567200 9.890000
19.650800 1.087320 36.384700 -10.567200 9.020000
19.855500 1.098650 36.763700 -10.567200 7.590000
20.058500 1.240520 37.139500 -10.567200 6.290000
19.376400 2.044180 37.949700 -10.656000 16.010000
19.572100 2.064820 38.333000 -10.656000 7.460000
19.767800 2.085470 38.716300 -10.656000 10.740000
19.963500 2.106120 39.099600 -10.656000 18.000000
20.465900 1.989650 39.332100 -10.656000 19.710000
19.810000 2.389650 40.126200 -10.744800 17.000000
20.000500 2.412630 40.512000 -10.744800 7.960000
20.193400 2.329800 40.902800 -10.744800 7.690000
19.608400 2.230010 42.145600 -10.833600 10.550000
19.786900 2.395740 42.529300 -10.833600 11.570000
19.968500 2.417720 42.919500 -10.833600 11.740000
20.150000 2.439700 43.309600 -10.833600 10.510000
19.746100 2.163510 43.983100 -10.922400 16.480000
19.919600 2.333250 44.369400 -10.922400 16.440000
20.095900 2.353900 44.762100 -10.922400 11.730000
20.272100 2.374550 45.154800 -10.922400 9.650000
19.919600 2.104320 46.265300 -11.011200 6.050000
20.089900 2.122300 46.660800 -11.011200 16.180000
20.260200 2.140290 47.056200 -11.011200 17.340000
20.424700 2.477790 47.438500 -11.011200 14.150000
19.955900 2.015140 48.126600 -11.011200 13.750000
20.120900 2.031790 48.524300 -11.011200 16.490000
20.285800 2.048450 48.922000 -11.011200 14.830000
20.453100 1.899960 49.325400 -11.011200 9.390000
20.504700 1.860720 53.483600 -11.188800 8.650000
20.656700 2.053190 53.880100 -11.100000 7.450000
20.810900 2.068510 54.282200 -11.100000 8.340000
10.914700 -1.708880 57.112800 -11.544000 6.300000
10.584400 -1.708880 57.174900 -11.632800 8.920000
11.327900 -1.721540 57.471300 -11.544000 5.140000
11.411200 -1.734200 57.893900 -11.544000 8.220000
11.496200 -1.425140 58.324900 -11.544000 6.730000
20.679100 1.797490 57.559400 -11.188800 5.790000
20.824700 1.810150 57.964800 -11.188800 7.130000
20.972200 1.630980 58.375200 -11.188800 8.200000
20.461500 1.848130 59.462200 -11.188800 7.250000
20.947400 1.860780 59.749400 -11.188800 8.120000
21.091700 1.676290 60.161100 -11.188800 8.500000
-3.313400 2.661870 63.631400 -11.632800 11.990000
-3.335790 2.679860 64.061400 -11.632800 13.790000
-3.731380 2.498100 64.478800 -11.632800 11.130000
-17.451000 -1.367200 63.114400 -11.188800 8.850000
-3.756250 2.514760 64.908700 -11.632800 7.080000
-17.075600 -1.376200 63.663100 -11.188800 12.020000
20.907800 1.800880 65.220100 -11.366400 7.270000
21.418300 1.812200 65.507600 -11.277600 7.040000
12.467100 1.800880 67.345200 -11.632800 8.840000
21.172000 1.662660 66.044400 -11.277600 8.930000
12.937000 1.812200 67.695100 -11.632800 6.180000
-29.932300 -0.593690 63.059900 -10.478400 8.910000
13.017900 1.823530 68.118200 -11.632800 7.700000
-14.085800 -4.395880 68.669200 -11.366400 5.180000
-18.414900 1.484140 68.656300 -11.277600 6.800000
-18.526500 1.493130 69.072400 -11.277600 11.510000
-18.636800 1.724620 69.483700 -11.277600 9.770000
21.159800 1.902810 69.203500 -11.366400 5.850000
21.285700 1.914140 69.615500 -11.366400 10.440000
21.814200 2.151930 69.896400 -11.366400 6.950000
21.940400 2.392360 70.300900 -11.366400 7.630000
21.113000 2.406350 71.003200 -11.366400 10.450000
21.239600 1.959440 71.429000 -11.366400 5.600000
21.362400 1.970770 71.841900 -11.366400 13.260000
22.039500 2.215220 72.080800 -11.366400 14.760000
21.609200 1.817570 72.671900 -11.366400 12.810000
21.732000 1.827890 73.084800 -11.366400 11.760000
21.854800 1.838220 73.497700 -11.366400 15.000000
-27.605100 1.610060 72.004000 -10.833600 13.440000
21.976300 2.027400 73.906300 -11.366400 7.170000
-27.759400 1.619060 72.406200 -10.833600 7.450000
-27.911600 1.869200 72.803400 -10.833600 12.080000
22.219900 2.291170 74.725600 -11.366400 11.950000
-28.065800 1.879530 73.205700 -10.833600 5.890000
-28.220100 1.889860 73.607900 -10.833600 4.880000
21.440100 2.803980 75.832200 -11.366400 15.370000
21.561500 2.329140 76.261900 -11.366400 14.400000
21.678700 2.341800 76.676400 -11.366400 8.510000
21.793800 2.602220 77.083500 -11.366400 8.970000
18.190200 0.886871 102.675000 -11.632800 11.860000
18.265300 0.890536 103.099000 -11.632800 6.100000
18.340500 0.894200 103.524000 -11.632800 6.640000
18.415600 0.897865 103.948000 -11.632800 7.460000
20.571900 2.044550 137.637000 -11.632800 5.990000
20.635600 2.050880 138.063000 -11.632800 8.770000
20.698300 2.490270 138.482000 -11.632800 11.910000
20.759300 3.366630 138.890000 -11.632800 10.640000
20.822900 3.376960 139.316000 -11.632800 4.770000
-61.243100 -11.235700 136.415000 -10.478400 7.960000
-62.471700 -11.268000 136.329000 -10.478400 7.590000
-6.852890 1.794050 154.531000 -11.721600 4.390000
-6.872190 1.319310 154.966000 -11.721600 5.710000
-8.110920 1.809040 155.764000 -11.632800 9.270000
-8.133330 1.814040 156.195000 -11.721600 9.170000
-7.043780 1.844020 158.835000 -11.721600 6.380000
-6.142120 1.849020 159.304000 -11.721600 6.060000
-6.158720 1.854010 159.734000 -11.721600 7.360000
-6.175060 2.354720 160.159000 -11.721600 9.810000
6.461380 0.000000 4.290590 -5.772000 6.420000
6.820330 -0.018990 4.528950 -5.860800 5.150000
5.506200 -1.131620 8.162300 -10.034400 6.620000
5.741950 -1.236400 8.511760 -10.034400 7.380000
4.081200 -2.050000 10.230200 -10.922400 3.270000
4.163160 -2.022630 10.674000 -10.922400 6.500000
5.055690 -1.943750 11.261200 -10.833600 5.180000
5.719010 -2.010770 11.417400 -10.744800 6.300000
4.599770 -1.536210 13.367200 -11.277600 6.840000
6.249620 -1.492640 13.166400 -10.922400 7.070000
6.039060 -1.536550 13.733900 -11.011200 8.440000
6.033560 -1.210150 14.239600 -11.011200 11.800000
7.039590 -1.145430 14.259100 -10.922400 11.770000
7.133650 -0.341801 14.734600 -10.922400 9.750000
-8.610820 1.207340 14.380800 -9.945600 6.760000
-8.835380 1.131940 14.755800 -9.945600 5.920000
7.724860 1.732460 16.274400 -10.833600 4.990000
6.107140 1.602510 17.419700 -11.188800 5.940000
8.036970 1.773710 16.600400 -10.833600 5.720000
-7.794060 1.388320 16.752300 -10.567200 5.500000
6.249160 1.639780 17.824900 -11.188800 6.740000
-7.980530 1.245140 17.153100 -10.567200 5.940000
6.309330 0.044977 18.335300 -11.277600 7.720000
6.301580 -0.643559 18.782000 -11.277600 8.630000
-8.093440 1.546310 18.027600 -10.656000 7.880000
7.877150 1.579920 18.590600 -11.011200 7.970000
-7.227760 1.579920 18.852600 -10.922400 5.670000
6.585590 -0.720148 19.138100 -11.366400 7.020000
6.722240 -0.991115 19.535200 -11.366400 5.970000
7.160600 5.392150 19.116900 -11.277600 8.530000
-7.662210 1.076980 19.645300 -10.922400 8.610000
7.389820 -1.215400 20.201500 -11.277600 9.140000
-7.275040 1.098960 20.249800 -11.011200 3.940000
-8.394620 1.098960 19.811900 -10.833600 9.400000
7.537620 -1.239710 20.605500 -11.277600 4.930000
-8.406510 1.120940 20.273500 -10.833600 6.310000
7.401350 -1.264020 21.111300 -11.277600 6.440000
-8.571340 1.142920 20.671000 -10.833600 7.500000
-7.518380 -5.269540 21.848800 -11.100000 7.370000
-7.783550 -5.365350 22.201500 -11.100000 6.360000
18.356300 1.385560 16.259900 -8.169600 9.340000
7.483130 -1.537210 23.343000 -11.366400 9.120000
7.611310 -1.718430 23.742900 -11.366400 9.480000
8.575390 -1.748060 23.869200 -11.277600 7.200000
7.416080 -1.748060 24.254500 -11.455200 9.720000
18.304400 1.378640 18.206500 -8.702400 8.000000
8.533390 -1.777690 24.340300 -11.366400 9.500000
18.609500 1.401620 18.510000 -8.702400 8.310000
18.358900 1.300840 19.955000 -9.057600 6.220000
18.647400 1.406670 20.268700 -9.057600 8.300000
18.938800 1.428650 20.585400 -9.057600 5.940000
-6.979850 1.955460 27.500100 -11.366400 6.160000
-7.300560 1.985090 27.861400 -11.277600 5.100000
-7.412540 1.833870 28.288700 -11.277600 10.780000
18.202800 1.887800 23.977100 -9.679200 9.460000
18.462800 1.914770 24.319600 -9.679200 8.820000
-7.343190 1.725870 29.649400 -11.366400 10.130000
-7.446620 1.750180 30.067000 -11.366400 5.720000
-7.714870 2.453920 30.396100 -11.366400 17.690000
18.412400 1.700330 25.977800 -9.856800 5.900000
18.661200 1.723300 26.328900 -9.856800 7.990000
-6.238650 1.922880 31.651300 -11.544000 7.110000
18.906800 1.847410 26.675400 -9.856800 9.240000
19.155600 1.871720 27.026400 -9.856800 6.250000
18.554400 1.792240 27.967300 -10.034400 6.810000
18.792300 1.815210 28.325800 -10.034400 4.900000
-7.020440 2.025440 33.247700 -11.455200 14.540000
19.026900 1.944640 28.679500 -10.034400 4.570000
8.725340 1.838190 33.298800 -11.544000 14.990000
19.264800 1.968950 29.038000 -10.034400 10.790000
9.041680 0.296845 33.710100 -11.544000 11.420000
18.820900 1.884150 29.844600 -10.212000 16.190000
9.153020 0.409782 34.125200 -11.544000 6.970000
19.050500 1.907120 30.208600 -10.212000 16.340000
9.264270 0.525380 34.540000 -11.544000 7.820000
19.280000 1.930100 30.572500 -10.212000 11.840000
9.173200 0.643638 35.008000 -11.544000 14.240000
19.511900 1.868240 30.940200 -10.212000 7.730000
19.551100 1.899640 34.434000 -10.478400 10.350000
7.422140 -2.848090 38.837500 -11.544000 10.480000
8.987140 -2.848090 38.505500 -11.544000 10.210000
19.763600 1.920290 34.808300 -10.478400 10.350000
8.880960 -2.785050 39.420700 -11.632800 6.430000
19.442600 1.329090 35.999100 -10.656000 10.380000
19.647200 1.343080 36.378000 -10.656000 7.100000
19.568000 1.357070 36.908900 -10.656000 11.460000
19.083300 2.044180 38.097900 -10.744800 6.320000
6.869340 1.648750 42.070100 -11.721600 10.230000
19.276100 2.064820 38.482700 -10.744800 12.970000
9.445770 3.095750 41.927800 -11.632800 6.550000
19.471600 1.951020 38.873100 -10.744800 6.960000
19.664400 1.970340 39.258000 -10.744800 9.750000
9.400820 2.106120 42.883000 -11.632800 4.990000
9.491530 2.263860 43.296800 -11.632800 10.400000
7.213380 2.147420 44.177100 -11.632800 12.450000
19.608400 2.230010 42.145600 -10.922400 6.240000
19.790000 2.250660 42.535800 -10.922400 6.600000
19.971500 2.271310 42.926000 -10.922400 16.010000
20.150000 2.439700 43.309600 -10.922400 6.900000
19.740300 2.461680 43.970100 -11.011200 5.250000
-6.581080 0.708947 47.804700 -11.721600 13.690000
19.922400 2.182820 44.375800 -11.011200 8.670000
20.098700 2.202140 44.768500 -11.011200 10.300000
20.275000 2.221460 45.161200 -11.011200 11.410000
19.919600 2.104320 46.265300 -11.011200 5.320000
20.089900 2.122300 46.660800 -11.011200 6.250000
20.260200 2.140290 47.056200 -11.011200 16.780000
20.435300 1.838680 47.463000 -11.011200 5.850000
19.953400 2.176260 48.120600 -11.100000 7.320000
20.118400 2.194240 48.518300 -11.100000 13.140000
20.285800 2.048450 48.922000 -11.100000 8.200000
-21.297900 -0.791235 49.466600 -10.744800 9.370000
-21.852000 -0.797565 49.695400 -10.656000 6.680000
-20.958900 -0.803895 50.545300 -10.744800 15.900000
-8.337040 2.356110 55.779100 -11.632800 11.990000
-8.400680 2.374100 56.204900 -11.632800 5.150000
20.500200 2.214990 53.471800 -11.188800 7.040000
-8.464320 2.392090 56.630700 -11.632800 7.790000
20.654400 2.231640 53.873900 -11.188800 9.360000
20.808500 2.248290 54.275900 -11.188800 7.300000
20.698200 1.734200 55.258600 -11.277600 7.690000
9.171380 -1.916690 58.285000 -11.721600 6.350000
20.849200 1.746860 55.661900 -11.277600 6.680000
8.785550 -1.930680 58.779900 -11.721600 9.900000
8.847270 -2.314910 59.192800 -11.721600 7.160000
-18.407800 -1.772180 57.421600 -11.100000 9.700000
10.515700 -2.331560 59.356600 -11.632800 13.790000
20.679100 1.797490 57.559400 -11.277600 5.920000
20.824700 1.810150 57.964800 -11.277600 11.630000
-3.731800 2.298340 64.486200 -11.721600 5.910000
-3.381370 2.313670 64.936800 -11.721600 5.770000
-15.355100 -0.560708 64.112200 -11.366400 6.850000
-15.952300 -0.564372 64.410200 -11.366400 5.140000
21.370600 2.182500 63.695500 -11.366400 8.750000
21.507600 2.196490 64.103800 -11.366400 9.780000
21.282600 2.012690 65.092600 -11.366400 7.390000
12.024400 1.439160 67.872100 -11.721600 6.630000
21.416400 2.025340 65.502000 -11.366400 6.410000
12.625500 1.448160 68.201000 -11.721600 6.670000
21.552100 1.823530 65.917000 -11.366400 8.900000
12.704700 1.241300 68.628700 -11.721600 11.820000
21.565200 1.857510 67.271100 -11.366400 8.890000
21.696700 1.868830 67.681300 -11.366400 13.060000
-18.527600 1.271950 69.076500 -11.277600 8.830000
-19.174300 1.279610 69.346900 -11.366400 6.790000
21.560700 1.734950 69.084100 -11.455200 8.070000
21.689000 1.745280 69.495300 -11.455200 8.630000
21.818900 1.529110 69.911400 -11.455200 11.170000
21.657300 2.635430 70.830900 -11.455200 11.090000
21.789500 1.959440 71.263200 -11.455200 10.020000
21.916700 1.796910 71.679300 -11.455200 10.260000
22.042700 1.807240 72.091200 -11.455200 9.410000
21.610700 1.583080 72.676900 -11.455200 8.860000
21.733500 1.592070 73.089900 -11.455200 13.900000
21.856300 1.601070 73.502800 -11.455200 8.110000
-28.018900 1.848550 71.838200 -10.922400 12.570000
21.551400 1.610060 74.041500 -11.455200 14.500000
-28.175500 1.858880 72.239500 -10.922400 11.590000
21.097300 1.619060 74.620000 -11.455200 8.590000
-28.332000 1.869200 72.640900 -10.922400 11.780000
21.208000 2.532260 75.011300 -11.455200 10.590000
-28.488500 1.879530 73.042200 -10.922400 6.880000
-15.162700 1.637050 76.926600 -11.455200 14.010000
-28.645100 1.889860 73.443500 -10.922400 5.490000
21.449000 1.646040 75.863700 -11.455200 16.360000
21.564700 1.900180 76.272900 -11.455200 4.990000
21.678700 2.341800 76.676400 -11.455200 14.240000
22.384900 2.849950 76.905100 -11.455200 6.810000
12.574300 4.319750 79.910700 -11.721600 7.120000
12.641200 4.342730 80.335700 -11.721600 10.860000
18.265300 0.890536 103.099000 -11.721600 9.970000
18.340500 0.894200 103.524000 -11.721600 13.970000
20.697000 2.923300 138.474000 -11.721600 10.000000
20.758100 3.692360 138.882000 -11.721600 12.390000
-59.972600 -12.586300 136.388000 -10.567200 9.220000
-61.197800 -12.622600 136.314000 -10.567200 14.080000
-61.373700 -12.658900 136.706000 -10.567200 13.820000
-7.996670 4.043470 153.570000 -11.810400 6.160000
-8.020090 3.220130 154.020000 -11.721600 6.420000
-6.871980 1.799040 154.961000 -11.810400 7.410000
-6.890790 2.285090 155.385000 -11.810400 6.740000
-6.909880 2.291420 155.816000 -11.721600 8.060000
-6.928970 2.297750 156.246000 -11.810400 7.890000
-6.948050 2.304080 156.677000 -11.810400 6.070000
-7.063320 0.369811 159.276000 -11.810400 6.320000
-6.159040 0.865222 159.743000 -11.810400 4.950000
-6.175640 0.867554 160.173000 -11.810400 5.770000
-6.192240 0.869886 160.604000 -11.810400 6.920000
5.555070 -1.256900 10.144900 -10.567200 1.780000
4.892270 -1.762210 11.362800 -11.011200 4.770000
5.304890 -1.762210 11.176100 -10.833600 0.970000
6.081610 -1.822970 11.260500 -10.922400 3.110000
4.621550 -2.200140 12.338300 -11.188800 4.160000
6.137520 -1.278720 11.795300 -10.922400 6.670000
4.770640 -2.271110 12.736300 -11.188800 4.850000
6.147080 -1.319970 12.272000 -10.833600 7.160000
5.372210 -2.342080 12.955800 -11.100000 5.710000
-1.362340 1.273640 14.096900 2.486400 4.600000
-1.319640 1.312240 14.531900 2.486400 8.090000
-1.359100 1.269520 14.966400 2.486400 6.730000
7.963090 -0.599545 13.299000 -10.478400 17.670000
-1.308920 1.305790 15.401800 2.486400 10.430000
-8.010840 2.150660 13.615800 -10.212000 14.350000
-2.339000 1.955070 15.649100 2.397600 11.260000
-8.065590 1.125870 14.205400 -10.212000 9.840000
7.328750 3.825210 14.631100 -10.922400 6.840000
-8.052130 1.155500 14.705100 -10.300800 7.190000
-8.935210 1.349860 14.168700 -9.945600 7.180000
7.196940 3.923290 15.162200 -11.011200 7.690000
-8.258600 1.185130 15.082100 -10.300800 6.880000
7.615540 4.021370 15.425700 -11.011200 6.210000
7.125380 0.395770 17.565300 -11.188800 8.370000
7.425560 0.404764 17.907800 -11.188800 6.460000
-8.095360 1.485180 18.031800 -10.744800 7.260000
6.843120 -0.720148 19.047500 -11.366400 10.350000
-8.271350 1.517470 18.423800 -10.744800 8.230000
7.094230 -1.166790 19.393400 -11.366400 10.190000
-7.487460 1.788850 19.197200 -11.011200 5.380000
7.385370 -1.582040 19.717000 -11.366400 9.540000
-7.644960 1.777320 19.601000 -11.011200 5.090000
7.401610 0.000000 20.233700 -11.366400 10.650000
-7.814900 1.281920 20.036700 -11.011200 7.460000
-7.973980 1.171850 20.444600 -11.011200 8.770000
-7.267240 1.799810 21.119000 -11.188800 9.830000
-8.130340 1.194820 20.845500 -11.011200 9.270000
-7.333400 2.195730 22.429100 -11.277600 4.540000
-7.949060 2.235650 22.673600 -11.188800 4.470000
17.982300 1.748060 17.886200 -8.880000 8.460000
18.287100 1.777690 18.189300 -8.880000 8.640000
18.591900 1.807320 18.492500 -8.880000 3.730000
18.900600 1.754510 18.799500 -8.880000 9.950000
-7.689830 0.937358 27.811500 -11.455200 8.040000
-7.586020 1.041920 28.283000 -11.455200 11.000000
18.955100 8.125120 21.417000 -9.501600 14.470000
18.202800 1.887800 23.977100 -9.768000 11.280000
18.462800 1.914770 24.319600 -9.768000 8.060000
-17.463900 1.914770 25.046600 -13.497600 12.270000
-7.337500 2.103600 29.626400 -11.544000 7.010000
18.726400 1.845970 24.666800 -9.768000 4.820000
-7.034950 2.133230 30.141300 -11.544000 8.390000
18.986500 1.871610 25.009400 -9.768000 13.420000
18.409300 1.798790 25.973400 -10.034400 5.470000
18.658000 1.823100 26.324400 -10.034400 14.590000
-5.866200 2.421490 31.688200 -11.721600 5.690000
18.906800 1.847410 26.675400 -10.034400 11.230000
19.152200 1.974160 27.021500 -10.034400 5.350000
-6.033540 1.487410 32.592200 -11.632800 6.390000
18.551200 1.896030 27.962500 -10.212000 5.600000
-6.111900 1.506730 33.015400 -11.632800 12.300000
18.792300 1.815210 28.325800 -10.212000 4.940000
-7.025830 1.526040 33.273200 -11.632800 13.010000
19.026900 1.944640 28.679500 -10.212000 9.280000
8.479580 0.506391 33.409000 -11.632800 7.190000
19.264800 1.968950 29.038000 -10.212000 10.640000
9.041030 0.512720 33.707700 -11.632800 7.070000
9.152650 0.519050 34.123800 -11.632800 15.290000
9.264640 0.414779 34.541400 -11.632800 5.760000
9.376270 0.419777 34.957600 -11.632800 15.360000
18.995900 1.448900 32.286700 -10.478400 15.390000
6.353920 8.871480 35.865000 -11.721600 18.630000
19.214200 1.465550 32.657800 -10.478400 17.430000
19.169100 0.981073 36.156600 -10.744800 6.370000
19.370900 0.991400 36.537200 -10.744800 7.940000
19.572700 1.001730 36.917800 -10.744800 6.200000
19.086100 1.912380 38.103300 -10.833600 7.340000
9.690890 1.385050 41.520700 -11.721600 6.970000
19.574900 1.931700 38.338500 -10.833600 12.210000
9.785410 1.798560 41.925600 -11.721600 6.620000
19.770700 1.951020 38.721900 -10.833600 11.550000
9.881940 1.951020 42.339200 -11.721600 7.830000
19.966400 1.970340 39.105300 -10.833600 10.720000
9.649930 1.970340 42.834100 -11.721600 7.730000
19.523700 0.935456 40.326300 -10.922400 11.000000
19.711400 0.944450 40.714000 -10.922400 8.020000
19.900300 0.812210 41.104300 -10.922400 11.660000
19.608400 2.230010 42.145600 -11.011200 9.620000
19.790000 2.250660 42.535800 -11.011200 10.080000
19.974400 2.124870 42.932200 -11.011200 5.520000
20.156000 2.144190 43.322500 -11.011200 4.350000
19.751200 1.865250 43.994500 -11.100000 6.880000
19.925100 2.032370 44.381800 -11.100000 13.610000
19.755700 2.050360 44.928100 -11.100000 7.700000
20.277800 2.068350 45.167300 -11.100000 7.010000
-5.476400 1.468370 49.661800 -11.899200 16.990000
20.448900 2.122300 46.504600 -11.100000 7.440000
-8.832430 2.549850 56.131000 -11.721600 14.980000
20.502600 2.037870 53.478000 -11.366400 15.120000
-8.461970 2.746220 56.615000 -11.810400 10.680000
20.656700 2.053190 53.880100 -11.366400 5.900000
20.810900 2.068510 54.282200 -11.366400 7.780000
20.689000 2.464030 55.234200 -11.366400 9.050000
20.840100 2.482010 55.637400 -11.366400 5.580000
-19.471900 -2.500000 56.586400 -11.188800 7.940000
-19.941100 -2.517990 56.879200 -11.100000 6.990000
-18.540800 -1.597000 57.836700 -11.277600 5.860000
-18.672300 -1.608330 58.246900 -11.277600 9.570000
21.310100 0.759596 61.928400 -11.455200 7.530000
21.233600 2.168510 63.287200 -11.455200 8.430000
20.881000 1.974710 63.864400 -11.455200 5.840000
21.012900 2.196490 64.267700 -11.455200 5.570000
20.906000 2.012690 65.214500 -11.544000 8.280000
21.035400 2.238470 65.618400 -11.544000 7.120000
12.622800 2.038000 68.186400 -11.810400 7.290000
21.164700 2.466890 66.021600 -11.544000 12.400000
12.700000 2.266450 68.603400 -11.810400 11.870000
20.921700 1.248960 67.036700 -11.544000 7.130000
21.047300 1.693640 67.439200 -11.544000 5.430000
-18.414900 1.484140 68.656300 -11.455200 11.270000
