VERSION .7
FIELDS x y z velocity intensity
SIZE 4 4 4 4 4
TYPE F F F F F
COUNT 1 1 1 1 1
WIDTH 986
HEIGHT 1
VIEWPOINT 0 0 0 1 0 0 0
POINTS 986
DATA ascii
-2.381180 1.294420 8.180730 2.397600 7.210000
-2.500240 1.359140 8.589770 2.397600 11.700000
-2.619300 1.423860 8.998810 2.397600 11.300000
-2.502010 0.887689 9.548500 2.486400 6.690000
-2.613960 0.774878 9.975740 2.397600 9.340000
-3.277890 0.865292 10.225100 2.397600 7.820000
-3.402260 1.141430 10.613100 2.397600 7.720000
6.380240 1.037980 9.150480 -8.791200 7.590000
-3.533120 1.185330 11.021300 2.397600 6.210000
5.931410 -0.598799 10.982400 -9.412800 9.610000
6.540940 -1.426820 10.551400 -9.146400 7.920000
6.049060 -0.579510 11.409700 -9.412800 13.430000
6.766490 -1.476020 10.915300 -9.146400 9.680000
5.908340 -0.532929 12.447400 -9.590400 12.770000
6.084370 -0.933851 12.818300 -9.590400 11.170000
6.511880 1.796550 13.000300 -9.501600 7.630000
6.710210 1.722020 13.396200 -9.501600 6.670000
6.945370 0.371775 13.865700 -9.590400 7.240000
-8.331920 1.580450 12.989100 -8.702400 6.090000
-8.563360 1.624350 13.349900 -8.702400 7.960000
6.816940 0.582247 14.876300 -9.679200 5.480000
-8.900220 1.668250 13.642500 -8.702400 7.470000
6.409200 1.556970 15.456700 -9.768000 3.170000
14.208700 -1.188540 11.145900 4.351200 4.130000
-8.034540 1.830740 16.595400 -9.324000 6.420000
-8.221390 1.873320 16.981300 -9.324000 8.430000
13.940200 1.915890 13.341300 -7.636800 7.760000
6.804390 0.766086 18.601100 -9.945600 7.160000
-8.994060 1.301730 17.615300 -9.235200 9.730000
14.250000 1.958470 13.637800 -7.636800 6.830000
7.094650 1.033030 18.940800 -9.945600 9.370000
-9.189580 1.330030 17.998300 -9.235200 9.190000
7.394470 1.055000 19.287400 -9.945600 9.170000
14.286600 -2.361630 14.768600 3.285600 5.250000
14.603800 -2.151160 15.096500 3.285600 8.280000
6.019950 -0.449738 20.682000 -10.212000 7.270000
14.213500 2.062450 16.059600 -8.080800 7.310000
5.977930 -0.390780 21.143600 -10.123200 12.380000
6.095450 -0.329154 21.559300 -10.123200 13.830000
7.991060 -1.937920 20.843500 -9.945600 11.680000
6.210070 -0.741492 21.964600 -10.123200 12.380000
7.980760 -1.975190 21.306500 -9.856800 10.440000
7.227360 -0.755482 22.104800 -10.123200 12.240000
8.131340 -2.012460 21.708500 -9.856800 9.720000
7.203630 2.195730 22.471200 -10.123200 12.180000
5.141890 2.384220 23.455300 -10.300800 9.630000
7.466730 2.235650 22.836900 -10.123200 10.140000
7.595550 2.426800 23.230900 -10.212000 4.680000
7.957460 2.275570 23.124800 -10.034400 8.900000
-8.614430 0.360803 22.998200 -9.768000 8.760000
5.652690 2.469370 24.219000 -10.212000 6.360000
6.757700 1.826490 24.440400 -10.212000 3.860000
6.872240 1.857450 24.854600 -10.212000 5.750000
-8.542840 1.259540 24.826000 -9.856800 5.770000
-8.489370 1.197650 25.302800 -9.856800 7.410000
-17.968200 1.384690 20.301900 -10.034400 7.300000
17.787600 7.454260 19.711900 -8.347200 4.800000
7.619630 0.324827 26.950200 -10.212000 7.110000
17.985100 2.012240 21.376700 -8.347200 5.540000
7.736850 0.329825 27.364800 -10.212000 9.330000
18.257600 2.130910 21.700700 -8.347200 12.190000
7.854080 0.334822 27.779400 -10.212000 13.270000
7.971550 0.249203 28.194900 -10.212000 17.880000
6.496220 -3.212080 28.835400 -10.300800 12.670000
5.480830 1.794690 29.606500 -10.300800 18.900000
5.732620 1.820330 29.996800 -10.300800 7.050000
6.815630 -0.911405 30.253200 -10.300800 15.530000
6.905330 -1.507320 30.651400 -10.389600 9.400000
-13.687600 1.677350 28.271800 -13.497600 8.440000
-13.653800 1.700330 28.765200 -13.586400 8.790000
-7.765170 1.049280 31.353200 -10.123200 8.490000
-7.868700 1.063270 31.771200 -10.123200 6.500000
-13.618300 1.948520 29.718700 -13.675200 7.680000
7.975580 -0.487401 32.202800 -10.300800 6.490000
7.385990 -0.493731 32.784900 -10.300800 6.890000
4.885940 -2.476600 34.034000 -10.478400 8.250000
4.747740 -2.507560 34.487400 -10.389600 7.380000
18.353700 2.184460 29.607100 -9.146400 5.740000
4.808400 -2.320480 34.928100 -10.389600 5.000000
18.576600 2.320480 29.966700 -9.146400 6.170000
6.497470 -2.238400 35.098200 -10.389600 8.330000
18.803200 2.348780 30.332100 -9.146400 8.330000
18.333500 1.734450 31.160800 -9.235200 8.010000
18.548900 1.868240 31.527000 -9.235200 8.050000
-6.450550 2.433670 36.410400 -10.300800 10.580000
18.767100 1.890220 31.897900 -9.235200 9.170000
-6.525550 2.461970 36.833800 -10.300800 6.430000
18.985300 1.912200 32.268800 -9.235200 9.140000
-6.385080 2.490270 37.294700 -10.300800 14.420000
19.201200 2.022010 32.635700 -9.235200 8.790000
-6.457640 2.518570 37.718500 -10.300800 16.710000
7.277510 -0.929438 38.080700 -10.389600 11.570000
18.604500 1.858340 33.976200 -9.412800 14.390000
7.360460 0.090954 38.514800 -10.389600 13.290000
18.811200 1.878990 34.353700 -9.412800 6.280000
7.441350 0.091953 38.938000 -10.389600 11.040000
7.749630 0.092953 39.317100 -10.389600 10.980000
8.658530 -0.099949 42.211000 -10.389600 9.040000
8.416270 -0.100948 42.699200 -10.389600 6.370000
8.499320 0.373805 43.120600 -10.389600 6.380000
8.582640 0.377470 43.543300 -10.389600 8.310000
-24.733700 -1.524960 39.898900 -8.791200 6.630000
19.731000 1.831940 43.058100 -9.768000 7.070000
-24.649600 -1.538950 40.456100 -8.791200 7.840000
19.238300 1.848600 43.751200 -9.768000 6.780000
19.406600 2.163510 44.134000 -9.768000 7.480000
19.579800 2.182820 44.528000 -9.768000 7.320000
19.753100 2.202140 44.922100 -9.768000 6.950000
19.929000 2.068350 45.322200 -9.768000 7.130000
19.478500 2.395200 45.970500 -9.856800 4.950000
19.643400 2.571570 46.359700 -9.856800 16.380000
19.811300 2.593550 46.756000 -9.856800 7.790000
19.979200 2.615530 47.152200 -9.856800 19.040000
19.414800 2.477790 47.860700 -9.856800 8.090000
19.576500 2.498440 48.259500 -9.856800 10.970000
19.738300 2.519080 48.658400 -9.856800 12.570000
19.900100 2.539730 49.057200 -9.856800 17.070000
20.061900 2.560380 49.456000 -9.856800 16.970000
19.935200 2.581030 49.971000 -9.945600 12.220000
20.105000 1.930610 50.396800 -9.945600 6.340000
20.264600 1.945930 50.796700 -9.945600 20.390000
20.334300 2.511210 52.135500 -9.945600 5.740000
20.490800 2.530530 52.536600 -9.945600 9.680000
20.647200 2.549850 52.937600 -9.945600 6.250000
-11.422100 2.022540 55.683400 -11.721600 8.300000
-11.508600 2.037870 56.105300 -11.721600 5.720000
-11.921700 2.053190 56.459100 -11.721600 5.200000
-12.010700 2.068510 56.880500 -11.721600 9.420000
10.667200 0.317170 57.622500 -10.389600 10.120000
10.745400 0.502072 58.044900 -10.389600 6.230000
10.824200 0.137930 58.470600 -10.389600 7.970000
8.116570 -12.223700 58.958500 -10.389600 7.640000
11.372100 -0.917833 61.430000 -10.389600 11.980000
11.445700 -2.042600 61.827700 -10.478400 7.790000
8.996430 -2.056590 62.666400 -10.478400 5.820000
20.603400 1.664960 59.874700 -10.034400 5.550000
20.743600 1.676290 60.282000 -10.034400 7.020000
20.883700 1.687610 60.689300 -10.034400 5.860000
21.023900 1.698940 61.096600 -10.034400 5.690000
21.283800 3.340850 61.852000 -10.034400 9.010000
21.423800 3.362830 62.258900 -10.034400 13.860000
21.563900 3.384810 62.665800 -10.034400 7.170000
18.026100 1.202990 65.194400 -9.235200 9.430000
20.765300 2.841730 64.775900 -10.123200 8.280000
18.138600 1.631680 65.601200 -9.235200 9.320000
20.896800 2.859710 65.185800 -10.123200 8.760000
21.285700 1.642010 65.102000 -9.146400 7.000000
21.144300 3.913590 65.958100 -10.123200 6.620000
21.271900 4.153430 66.355900 -10.123200 7.800000
21.407000 3.962210 66.777500 -10.123200 13.110000
21.556600 2.731260 67.244100 -10.123200 6.140000
21.165900 2.747920 67.819200 -10.123200 6.040000
21.294200 2.764570 68.230300 -10.123200 6.370000
21.425000 2.558820 68.649200 -10.123200 12.300000
21.553200 2.574150 69.060200 -10.123200 15.400000
21.529000 2.847840 70.411000 -10.212000 14.210000
21.360600 2.202560 71.835700 -10.212000 11.520000
21.485200 1.982100 72.254800 -10.212000 17.140000
21.606100 2.227880 72.661400 -10.212000 14.590000
21.306100 2.240540 73.198600 -10.212000 6.960000
21.548700 2.027400 74.032100 -10.212000 5.920000
22.100300 1.858880 74.323500 -10.212000 9.540000
21.841000 1.532470 83.352400 -10.300800 12.720000
21.951300 1.272310 83.773300 -10.300800 6.800000
22.059400 1.547800 84.185900 -10.300800 6.760000
22.168600 1.555460 84.602600 -10.300800 8.870000
21.829700 2.333210 86.007600 -10.300800 6.490000
-12.034400 -2.240980 92.700500 -10.389600 6.460000
-12.807300 -2.251300 93.031800 -10.389600 6.190000
-13.464000 -3.077890 93.786500 -10.300800 13.070000
-17.325300 -3.091880 93.588500 -10.300800 9.040000
22.992000 1.996840 92.834100 -10.300800 11.730000
23.095600 2.005830 93.252300 -10.300800 5.950000
23.199100 2.014830 93.670500 -10.300800 5.900000
23.302700 2.023820 94.088700 -10.300800 5.320000
23.508200 2.344250 94.918400 -10.300800 8.650000
22.875000 2.582390 95.510100 -10.300800 8.700000
23.075600 2.605040 96.347900 -10.300800 6.400000
23.177300 2.385560 96.772500 -10.300800 6.690000
23.277600 2.395880 97.191400 -10.300800 6.910000
23.378000 2.406210 97.610400 -10.300800 8.360000
23.481300 1.792990 98.041900 -10.300800 10.530000
23.580300 2.113770 98.455000 -10.300800 9.540000
23.682000 1.808320 98.879900 -10.300800 6.380000
23.309500 0.237879 99.869800 -10.300800 11.770000
23.407500 0.238878 100.289000 -10.300800 10.640000
23.505400 0.239878 100.709000 -10.300800 6.170000
20.692100 1.092100 126.725000 -10.478400 7.180000
20.025600 1.494210 127.265000 -10.478400 8.830000
20.091700 1.898960 127.685000 -10.478400 11.650000
20.158700 1.905290 128.111000 -10.389600 16.240000
-55.091800 -11.171700 120.225000 -9.412800 16.100000
-55.270700 -11.208000 120.615000 -9.412800 11.420000
-55.467300 -10.729600 121.044000 -9.412800 7.980000
-54.985200 -12.910900 122.476000 -9.324000 8.410000
-55.160900 -12.952200 122.867000 -9.324000 7.100000
-55.336600 -12.993400 123.258000 -9.324000 7.530000
-58.685100 -9.122020 160.427000 -9.768000 9.160000
-58.823000 -9.674600 160.804000 -9.768000 6.830000
-60.104800 -18.620800 160.464000 -9.679200 9.060000
-5.551410 2.645890 180.011000 -10.478400 12.570000
-5.564690 2.652220 180.442000 -10.478400 11.720000
-4.597430 1.561190 183.499000 -10.478400 6.090000
-4.608220 1.564850 183.930000 -10.478400 7.060000
4.863070 1.003950 6.509320 -8.169600 7.300000
5.392010 1.056790 6.639230 -8.080800 6.050000
5.172260 -0.321768 7.418010 -8.436000 8.810000
5.562970 0.977589 7.069680 -8.169600 9.680000
7.166850 -1.104260 6.106020 -6.837600 9.410000
5.418550 -0.337091 7.771250 -8.436000 5.780000
6.990120 -1.009730 6.952740 -7.281600 9.820000
7.368230 -1.154450 6.526750 -6.926400 7.810000
5.603190 -0.291143 8.169540 -8.524800 6.840000
6.508170 0.291143 7.468660 -7.814400 8.390000
7.498240 -1.085440 7.038950 -7.192800 9.680000
5.913600 -0.215874 8.481240 -8.524800 5.620000
6.715740 0.303802 7.858450 -7.903200 8.510000
6.091730 -0.224869 8.881840 -8.613600 10.410000
6.868550 0.316460 8.292740 -7.992000 6.000000
5.489900 1.373830 9.669010 -8.968800 5.160000
5.171200 1.426670 10.323800 -9.057600 6.390000
6.344510 0.755121 10.234600 -8.791200 6.460000
7.250310 3.904480 9.398960 -8.436000 4.100000
6.540940 1.426820 10.551400 -8.791200 6.600000
7.349560 4.039120 9.837520 -8.436000 7.260000
6.102820 1.476020 11.299700 -8.968800 5.800000
6.336520 -0.794792 11.732400 -9.057600 4.340000
6.817350 1.525220 11.385600 -8.880000 7.300000
6.349680 -0.948101 12.203000 -9.146400 9.470000
6.448040 -1.065460 12.628800 -9.146400 10.800000
6.638520 -1.233240 13.001900 -9.146400 4.890000
5.646360 -1.350830 13.919200 -9.412800 11.310000
7.546120 -0.268183 13.055100 -8.880000 11.210000
13.204000 1.722420 8.767930 -5.594400 9.760000
5.807690 -1.389430 14.316900 -9.412800 9.850000
7.658000 -0.275845 13.487500 -8.968800 6.740000
13.560900 1.768970 9.004900 -5.683200 8.090000
7.376460 1.078740 15.540400 -9.324000 5.130000
-8.468510 1.105710 15.465500 -8.791200 7.450000
13.656300 0.531653 11.863900 -6.837600 6.340000
13.863800 0.544311 12.280500 -6.926400 4.860000
14.158800 1.303640 12.541800 -6.926400 8.020000
7.002550 1.522910 17.553100 -9.501600 7.710000
13.829700 1.632230 13.493200 -7.192800 5.260000
6.864870 1.595960 17.600900 -9.501600 5.400000
14.003500 1.668510 13.928600 -7.281600 9.070000
7.318510 1.668510 18.345100 -9.501600 5.520000
14.195800 2.043620 14.902900 -7.636800 6.170000
7.602950 1.033030 18.742600 -9.501600 4.620000
14.344300 2.086190 15.352300 -7.725600 6.510000
7.510000 0.799394 19.255000 -9.590400 6.500000
14.363200 2.128770 15.917100 -7.814400 5.270000
7.553580 0.750793 19.702400 -9.590400 4.880000
17.483000 -2.885160 13.714400 -6.571200 9.950000
7.002330 1.032410 20.349200 -9.679200 5.270000
17.793700 1.499820 14.237100 -6.571200 11.740000
7.141280 1.120940 20.753000 -9.679200 7.730000
18.129400 1.528120 14.505700 -6.571200 11.100000
17.393100 1.240780 15.406700 -7.015200 9.480000
6.085250 -0.406105 22.008300 -9.856800 8.880000
17.557100 1.410110 15.856500 -7.015200 12.240000
6.327240 -0.755482 22.379100 -9.856800 7.110000
17.805300 1.826490 18.054600 -7.459200 12.020000
6.133810 -1.718430 24.166800 -9.856800 12.150000
18.107100 1.857450 18.360600 -7.459200 12.210000
5.574220 -1.748060 24.742800 -9.945600 10.470000
17.859300 1.754510 19.791400 -7.814400 9.490000
18.151000 1.699020 20.114600 -7.814400 7.780000
-7.953260 1.032550 25.483600 -9.590400 10.190000
18.439100 1.725990 20.433900 -7.814400 8.060000
-8.081540 1.049200 25.894600 -9.590400 8.250000
-8.209820 1.065860 26.305600 -9.590400 10.490000
18.105200 1.779930 21.859400 -7.992000 4.260000
17.992000 1.806900 22.505900 -8.080800 7.370000
18.260500 1.833870 22.841900 -8.080800 9.230000
7.692670 0.513378 27.821800 -9.856800 8.680000
18.529100 1.860830 23.177800 -8.080800 6.840000
7.970580 0.521040 28.191500 -9.856800 7.690000
8.087790 0.528703 28.606000 -9.856800 11.490000
18.006200 2.167030 24.101600 -8.258400 7.480000
5.661020 0.536365 29.622200 -9.945600 11.970000
18.263400 2.197980 24.445900 -8.258400 4.960000
18.711200 2.228940 24.646800 -8.258400 17.810000
17.996500 2.094090 26.239200 -8.524800 13.500000
18.239700 2.122390 26.593800 -8.524800 11.120000
-8.357400 1.922880 31.158900 -9.768000 4.870000
18.482900 2.150690 26.948400 -8.524800 6.430000
-7.430210 1.948520 31.834800 -9.856800 11.170000
-7.279160 1.974160 32.310700 -9.856800 6.750000
-6.928890 2.207290 32.814100 -9.856800 13.070000
-6.824070 2.340630 33.267900 -9.856800 5.370000
18.582600 1.907120 30.498600 -8.791200 9.680000
18.806400 1.930100 30.866100 -8.791200 7.010000
19.030300 1.953080 31.233500 -8.791200 7.460000
8.039220 1.868240 35.684500 -9.945600 7.050000
18.736000 1.912200 32.414100 -8.968800 13.020000
7.524290 1.796400 36.681500 -9.945600 5.130000
18.951400 1.934170 32.786700 -8.968800 6.600000
-6.100910 2.139110 37.364000 -9.945600 12.810000
-6.170240 2.163410 37.788600 -9.945600 7.100000
-6.239570 2.187720 38.213200 -9.945600 8.100000
-6.309970 2.090940 38.644300 -9.945600 6.210000
18.797800 2.603460 34.805400 -9.057600 8.180000
-6.680240 2.113920 39.018700 -9.945600 7.060000
19.002200 2.631760 35.183700 -9.057600 9.970000
8.114240 3.159840 39.557500 -9.945600 12.640000
8.200560 3.193460 39.978300 -10.034400 12.180000
19.058600 1.798560 38.604200 -9.235200 10.060000
19.246600 1.951020 38.985000 -9.235200 7.200000
19.437200 1.970340 39.371000 -9.235200 8.740000
19.627700 1.989650 39.757000 -9.235200 7.490000
19.411100 2.885640 41.721400 -9.324000 12.830000
19.572400 1.996400 43.596200 -9.324000 6.650000
19.935900 1.608900 45.337800 -9.412800 8.500000
20.191900 2.181680 52.667700 -9.679200 6.160000
20.343500 2.374100 53.063200 -9.679200 9.070000
20.497700 2.392090 53.465200 -9.679200 7.530000
20.391900 2.068510 54.440900 -9.679200 8.800000
-11.242400 2.068510 57.037300 -10.922400 8.760000
20.542900 2.083830 54.844200 -9.679200 5.140000
-10.994500 1.902700 57.530400 -10.922400 8.930000
20.694000 2.099150 55.247500 -9.679200 9.760000
10.372200 0.873524 58.546100 -10.034400 6.120000
20.845000 2.114480 55.650700 -9.679200 7.190000
10.447300 0.879853 58.970400 -10.034400 7.570000
10.179000 0.886183 59.454400 -10.034400 8.130000
20.381400 2.331560 56.730800 -9.679200 8.020000
9.790260 0.704625 59.958800 -10.034400 6.450000
20.527000 2.348220 57.136100 -9.679200 5.220000
20.672600 2.364870 57.541300 -9.679200 9.960000
20.815600 2.571940 57.939300 -9.679200 9.920000
10.467900 1.487100 61.142200 -10.034400 7.340000
20.312400 2.607910 59.029000 -9.679200 15.450000
20.449700 2.820280 59.428100 -9.679200 12.310000
10.688300 -0.734609 62.429700 -10.034400 11.040000
20.419200 1.141690 60.859800 -9.768000 13.180000
20.556200 1.149350 61.268300 -9.768000 13.570000
20.693300 1.157020 61.676800 -9.768000 8.460000
21.092000 2.564720 62.865100 -9.768000 15.390000
20.740600 2.581380 63.435000 -9.768000 5.850000
21.363200 2.805760 63.673600 -9.768000 12.980000
19.024200 1.210650 65.359000 -8.524800 5.690000
18.255700 1.218320 66.024900 -8.524800 8.520000
20.916000 2.063320 67.018300 -9.768000 8.960000
21.172600 2.088640 67.840700 -9.768000 8.580000
21.032000 2.113950 68.785700 -9.856800 6.880000
21.157900 2.126610 69.197600 -9.768000 7.930000
21.283900 2.139270 69.609500 -9.768000 6.310000
21.407800 2.378370 70.014700 -9.768000 10.770000
22.201100 1.959440 71.136000 -9.768000 12.510000
21.581400 2.129340 78.052600 -9.856800 8.400000
21.692200 2.644190 78.453500 -9.856800 10.100000
21.807000 2.658180 78.868600 -9.856800 7.390000
21.921800 2.672170 79.283700 -9.856800 6.040000
22.041800 1.982800 79.717900 -9.856800 10.860000
22.156600 1.993130 80.133100 -9.856800 6.420000
22.271400 2.003450 80.548300 -9.856800 7.040000
-1.734260 2.924000 89.993900 -10.123200 6.170000
22.894900 1.367250 90.204200 -9.856800 11.710000
22.998300 1.951860 90.611900 -9.856800 16.010000
22.681300 1.969850 91.579600 -9.945600 15.690000
22.786200 1.685720 92.003300 -9.945600 10.920000
22.889800 1.693380 92.421500 -9.945600 8.550000
23.201700 1.417890 93.680800 -9.945600 10.620000
23.305300 1.424220 94.099000 -9.945600 5.090000
23.408900 1.430550 94.517200 -9.945600 5.810000
24.026000 2.395880 97.009100 -9.945600 7.020000
24.129600 2.406210 97.427300 -9.945600 6.760000
24.233100 2.416540 97.845400 -9.945600 9.610000
-26.228800 1.800650 97.789000 -9.768000 9.670000
20.761600 1.095760 127.151000 -10.034400 9.150000
20.831000 1.099430 127.576000 -10.034400 7.670000
20.901100 0.300846 128.005000 -10.034400 11.530000
20.970600 -0.301846 128.431000 -10.034400 15.950000
-55.659300 -14.937500 121.463000 -9.057600 11.070000
-53.952800 -14.985300 122.698000 -9.057600 7.770000
-54.143700 -14.617300 123.132000 -9.057600 9.180000
-55.036300 -19.141200 122.590000 -9.057600 11.790000
-54.261600 -19.202000 123.401000 -9.057600 10.100000
-3.553240 1.568520 184.384000 -10.123200 4.540000
-3.561540 1.572180 184.815000 -10.123200 4.010000
-3.569840 1.575850 185.246000 -10.123200 6.790000
6.160430 -0.678018 6.593330 -7.548000 5.430000
5.729680 -0.206880 8.083930 -8.524800 2.440000
6.431300 0.474909 7.525610 -7.903200 10.660000
5.978790 -0.215874 8.435410 -8.524800 11.630000
6.650200 0.495558 7.904300 -7.992000 4.560000
5.214050 -1.196910 9.350280 -8.968800 10.270000
6.863620 0.516206 8.286790 -7.992000 7.080000
5.497400 -1.244790 9.682210 -8.880000 7.950000
6.762310 0.666600 8.907470 -8.347200 7.960000
5.627690 -1.355220 10.092000 -8.968800 8.450000
6.642460 0.692238 9.526560 -8.524800 2.200000
6.812130 0.717877 9.932200 -8.524800 6.100000
7.028900 1.311580 10.248300 -8.524800 8.270000
7.189350 1.356800 10.657400 -8.613600 11.890000
6.237920 -1.042080 11.765900 -9.146400 11.240000
6.348290 -0.990641 12.200400 -9.235200 6.850000
6.793490 -0.905553 11.964900 -8.968800 8.170000
6.254070 -0.990641 12.248900 -9.235200 11.840000
7.100680 -0.933851 12.284500 -8.968800 10.910000
5.523810 -1.317440 13.036600 -9.501600 11.170000
7.218080 -0.962150 12.712700 -9.057600 11.770000
5.692810 -1.312240 13.435400 -9.501600 9.840000
6.996790 2.080610 13.197300 -9.235200 11.330000
5.753470 -1.350830 13.875300 -9.501600 9.520000
7.632030 -1.305790 13.441800 -9.057600 10.630000
6.441360 -1.246020 14.056700 -9.412800 6.000000
6.621510 1.243770 14.449800 -9.412800 7.360000
6.799210 1.315240 14.837600 -9.412800 5.970000
7.062390 1.453440 15.179600 -9.412800 12.530000
-9.150190 1.691210 15.017800 -8.613600 10.700000
6.841220 1.559690 17.148700 -9.590400 5.820000
7.000320 1.595960 17.547500 -9.590400 6.230000
14.385100 1.897460 13.504000 -7.370400 5.190000
14.122200 1.897460 13.778600 -7.459200 4.160000
7.083920 1.517470 18.912200 -9.679200 3.820000
6.838580 0.735470 19.506100 -9.679200 4.450000
13.815500 1.891160 15.854400 -7.903200 9.880000
17.605200 1.813590 12.286300 -6.038400 9.650000
6.865040 0.816048 19.950200 -9.679200 9.510000
13.940900 1.929760 16.313000 -7.992000 9.660000
17.957300 1.849860 12.532100 -6.038400 11.990000
6.836940 1.481410 20.377700 -9.679200 11.770000
14.091100 1.968350 16.748400 -7.992000 4.540000
17.584200 1.609790 13.793800 -6.571200 10.970000
7.690240 1.511040 20.530900 -9.679200 10.780000
17.790000 1.570290 14.234100 -6.660000 10.110000
7.690960 -0.935252 21.024700 -9.679200 10.250000
18.125700 1.599920 14.502700 -6.660000 10.970000
6.380330 -0.600292 21.920100 -9.856800 11.300000
6.501100 -0.557663 22.335000 -9.856800 7.330000
6.715280 -2.560350 22.583500 -9.856800 13.430000
14.255900 1.733620 19.391700 -8.436000 8.580000
7.936670 -2.606900 22.638200 -9.768000 9.980000
14.510500 1.764580 19.738000 -8.436000 9.800000
17.860200 -3.429430 17.764700 -7.459200 9.550000
18.121800 1.538310 18.375600 -7.459200 10.340000
-8.147330 1.197650 25.415000 -9.679200 7.710000
17.983900 0.797479 20.319600 -7.814400 6.280000
-8.278740 1.216970 25.824900 -9.679200 5.060000
-8.206520 1.321490 26.295100 -9.679200 6.490000
7.693370 0.334822 27.824300 -9.945600 6.650000
7.808190 0.339819 28.239600 -9.945600 12.250000
17.752800 2.044340 23.762500 -8.347200 5.470000
7.923020 0.344817 28.654900 -9.945600 13.210000
18.013900 1.980900 24.111900 -8.347200 9.650000
8.038270 0.163249 29.071700 -9.945600 18.340000
7.737930 0.364806 30.486900 -9.945600 6.440000
7.844440 0.073962 30.906500 -9.945600 9.710000
7.430210 1.948520 31.834800 -10.034400 10.290000
-7.094750 1.769260 32.363600 -9.945600 10.720000
-6.744060 1.792240 32.877800 -9.945600 8.480000
-6.573680 1.815210 33.351000 -9.945600 6.100000
-6.531670 2.722840 34.178000 -9.945600 11.610000
5.006950 2.647500 34.876900 -10.123200 5.370000
18.819300 1.824280 30.358200 -8.880000 12.380000
5.271990 2.679790 35.272400 -10.034400 7.360000
19.046100 1.846260 30.723900 -8.880000 10.180000
-6.656490 2.066180 35.957200 -9.945600 7.350000
-6.734800 2.090490 36.380300 -9.945600 9.870000
8.238990 0.202896 36.571200 -10.034400 8.380000
-6.603120 2.256180 37.271600 -9.945600 5.800000
-6.460150 2.281820 37.733100 -9.945600 8.430000
-6.533910 2.187720 38.164000 -9.945600 7.960000
-6.606500 2.212030 38.588000 -9.945600 4.950000
18.816900 1.899640 34.840600 -9.146400 6.740000
19.018500 2.044070 35.213900 -9.146400 6.730000
19.357000 1.854430 36.510900 -9.235200 11.990000
19.558600 1.873750 36.891200 -9.235200 8.230000
19.760300 1.893070 37.271600 -9.235200 7.420000
18.567700 2.044180 38.351800 -9.324000 9.330000
19.246600 1.951020 38.985000 -9.324000 10.920000
19.437200 1.970340 39.371000 -9.324000 5.250000
19.627700 1.989650 39.757000 -9.324000 5.760000
19.540800 2.395740 42.643000 -9.412800 9.550000
19.720000 2.417720 43.034200 -9.412800 5.790000
19.899300 2.439700 43.425400 -9.412800 5.920000
-25.073900 -1.321870 49.108500 -8.968800 7.250000
20.194300 2.007220 52.673800 -9.679200 6.470000
20.348400 2.022540 53.075900 -9.679200 6.460000
20.502600 2.037870 53.478000 -9.679200 6.670000
20.656700 2.053190 53.880100 -9.679200 6.480000
20.384300 2.607800 54.420600 -9.679200 7.020000
-10.993300 2.083830 57.524300 -11.100000 7.010000
20.538000 2.446040 54.831100 -9.679200 5.750000
-11.074200 2.099150 57.947300 -11.100000 11.210000
20.689000 2.464030 55.234200 -9.679200 6.250000
10.371600 1.057410 58.543200 -10.034400 10.810000
20.842700 2.298260 55.644300 -9.679200 5.660000
10.446800 1.065070 58.967400 -10.034400 6.650000
10.521900 1.072730 59.391600 -10.034400 5.450000
20.381400 2.331560 56.730800 -9.679200 6.460000
20.529400 2.160440 57.142600 -9.679200 6.180000
20.672600 2.364870 57.541300 -9.679200 17.030000
9.995780 1.630980 61.217500 -10.034400 9.120000
20.658200 2.221730 58.924700 -9.768000 7.220000
20.800700 2.237060 59.331000 -9.768000 7.440000
20.887600 1.141690 60.700700 -9.768000 13.340000
21.026600 1.349210 61.104400 -9.768000 10.630000
21.166700 1.358210 61.511700 -9.768000 16.370000
21.080200 3.384810 62.830200 -9.768000 15.070000
21.217100 3.406790 63.238200 -9.768000 8.750000
11.040400 0.582696 67.615200 -10.123200 9.970000
20.018200 2.647990 65.469900 -9.856800 11.520000
11.110100 0.373141 68.041900 -10.034400 7.640000
20.144100 2.664650 65.881700 -9.856800 9.660000
11.179500 0.375474 68.467200 -10.034400 7.040000
20.919000 1.683310 67.028000 -9.856800 7.560000
21.048800 1.475140 67.443900 -9.856800 8.410000
21.175700 1.703970 67.850400 -9.856800 8.370000
21.030000 2.336400 68.779100 -9.856800 7.420000
21.155900 2.350390 69.191000 -9.856800 8.680000
21.281800 2.364380 69.602800 -9.856800 5.550000
21.110800 2.635430 70.995700 -9.856800 8.940000
21.233500 2.650760 71.408500 -9.856800 8.830000
-31.054100 -1.583080 69.170800 -9.146400 8.070000
-31.230500 -1.592070 69.563800 -9.146400 8.790000
21.667200 2.278510 74.439300 -9.856800 8.530000
21.789400 2.050050 74.859300 -9.856800 9.260000
21.909800 2.061380 75.272900 -9.856800 5.450000
22.031500 1.889860 75.690900 -9.856800 8.460000
21.579500 2.379780 78.045800 -9.856800 10.990000
21.694300 2.392440 78.461000 -9.856800 9.050000
21.810900 2.151990 78.882900 -9.856800 6.010000
-28.716800 -0.696304 76.666300 -9.412800 9.610000
21.925700 2.163320 79.298100 -9.945600 9.520000
22.040500 2.174640 79.713200 -9.945600 6.890000
22.155300 2.185970 80.128400 -9.856800 7.340000
22.270100 2.197290 80.543600 -9.856800 9.150000
21.943000 0.482752 86.453800 -9.945600 11.800000
22.049000 0.485084 86.871400 -9.945600 6.880000
22.788900 1.360920 89.786600 -9.945600 5.640000
22.894900 1.367250 90.204200 -9.945600 8.200000
23.000900 1.373580 90.621800 -9.945600 6.710000
23.106900 1.379910 91.039400 -9.945600 11.000000
22.685400 0.802581 91.596300 -9.945600 10.130000
22.789000 0.806246 92.014500 -9.945600 6.570000
22.891000 1.398900 92.426100 -9.945600 5.950000
23.846200 2.023820 93.952400 -9.945600 5.120000
23.952200 2.032820 94.369900 -9.945600 8.990000
20.160200 1.103090 128.120000 -10.123200 11.620000
20.227100 1.106760 128.545000 -10.123200 14.470000
20.293500 1.514190 128.967000 -10.123200 13.070000
-54.096300 -11.353100 123.025000 -9.146400 6.740000
-54.143700 -14.617300 123.132000 -9.146400 7.680000
-56.073900 -17.477400 122.368000 -9.057600 12.260000
-55.186500 -19.618800 122.924000 -9.057600 12.500000
-3.553240 1.568520 184.384000 -10.123200 9.510000
-3.561540 1.572180 184.815000 -10.123200 7.460000
6.736600 -1.133370 6.572690 -7.370400 3.570000
6.370270 -0.559085 7.571590 -7.992000 9.100000
6.909110 -1.184890 7.005870 -7.370400 3.650000
5.909740 -0.431655 8.475690 -8.524800 7.390000
6.654330 0.335770 7.909220 -7.992000 10.600000
5.950210 -0.449640 8.968810 -8.702400 5.830000
6.577810 -0.258177 8.527160 -8.258400 9.210000
6.867170 0.383057 8.291080 -8.080800 8.500000
6.840920 -0.268504 8.868250 -8.258400 10.000000
6.420430 0.692238 9.677590 -8.702400 3.840000
7.032430 -0.305809 9.263280 -8.347200 7.040000
6.658230 0.717877 10.036000 -8.702400 8.990000
7.050000 -0.317135 9.786010 -8.436000 6.700000
6.938180 1.493990 10.285000 -8.702400 8.630000
6.455310 1.493990 10.594800 -8.880000 4.550000
6.254670 1.476020 11.216400 -9.057600 6.850000
5.818310 -0.392410 12.017800 -9.324000 10.800000
6.006520 -0.362440 12.406500 -9.324000 12.730000
6.922440 -0.417727 12.413900 -9.324000 11.190000
7.110720 -0.549583 12.301800 -9.057600 8.330000
5.889530 -0.747295 13.393800 -9.501600 8.700000
7.104280 -1.988180 13.154000 -9.412800 6.530000
7.058180 -0.629496 13.313100 -9.235200 6.020000
6.593800 -2.044990 13.891500 -9.412800 5.860000
7.347770 -1.246020 13.604900 -9.146400 5.310000
6.624580 1.145430 14.456500 -9.501600 9.430000
6.688990 1.176390 14.899300 -9.501600 10.080000
7.232930 1.075340 14.650700 -9.235200 8.930000
7.423270 1.103640 15.036200 -9.235200 8.590000
-8.667500 2.219350 14.731900 -8.702400 6.620000
6.606450 1.799950 16.286000 -9.679200 3.870000
-8.463710 1.020940 15.964100 -8.968800 4.640000
-8.665230 1.045250 16.344200 -8.968800 8.360000
6.668970 1.958470 18.562800 -9.679200 5.730000
7.069130 2.001040 18.872700 -9.679200 3.320000
13.852500 0.495700 15.351100 -7.725600 4.780000
7.101050 0.735470 19.412100 -9.679200 7.550000
14.141100 0.506027 15.670900 -7.725600 7.360000
7.245240 1.011760 19.806300 -9.679200 7.200000
13.940900 1.929760 16.313000 -7.992000 10.180000
7.270240 1.348430 20.236400 -9.679200 7.950000
14.379400 1.968350 16.501500 -7.992000 8.520000
17.253400 1.443220 13.534300 -6.660000 9.450000
6.247370 1.578830 21.009900 -9.856800 7.610000
17.591700 1.471520 13.799600 -6.660000 5.280000
6.379950 -1.004480 21.455800 -9.856800 4.960000
18.019300 7.116430 12.887600 -6.748800 8.570000
8.162350 -1.288330 21.290300 -9.768000 9.020000
18.797100 7.248210 12.481900 -6.660000 7.350000
7.850300 -1.528120 21.851000 -9.768000 11.080000
7.984530 -1.994950 22.224600 -9.768000 6.620000
6.723260 -1.882460 23.098300 -9.945600 14.480000
8.133800 -1.882460 22.640100 -9.768000 14.450000
6.661910 -1.916070 23.562800 -9.945600 11.150000
17.816400 1.591150 18.065900 -7.548000 6.070000
18.118400 1.618120 18.372100 -7.548000 8.950000
6.201990 1.697910 25.041600 -9.945600 9.110000
-7.950070 1.280190 25.473400 -9.679200 10.100000
-8.079450 1.216970 25.887900 -9.679200 7.750000
-8.964270 1.236290 26.050700 -9.590400 7.670000
17.719900 1.867700 22.165600 -8.169600 6.430000
17.988400 1.896000 22.501500 -8.169600 8.040000
7.693060 0.424102 27.823200 -9.945600 10.200000
18.256900 1.924300 22.837300 -8.169600 6.260000
7.807880 0.430432 28.238500 -9.945600 5.620000
18.525400 1.952600 23.173200 -8.169600 13.960000
7.922700 0.436762 28.653800 -9.945600 12.750000
8.037850 0.349814 29.070200 -9.945600 13.020000
5.307020 -0.656618 30.997800 -10.034400 7.810000
6.405930 -0.665613 31.229400 -10.034400 5.890000
5.016940 1.648440 31.883100 -10.123200 5.760000
7.871610 -0.582339 31.783000 -10.034400 7.810000
6.415370 -0.590002 32.547800 -10.034400 6.710000
-8.071910 1.506730 32.591700 -9.856800 7.820000
-6.387560 2.256180 37.309200 -10.034400 9.210000
-6.169130 2.281820 37.781800 -10.034400 7.730000
-6.238450 2.307460 38.206300 -10.034400 9.200000
18.599400 2.067960 33.966900 -9.146400 8.360000
-6.307770 2.333100 38.630800 -10.034400 7.900000
18.806100 2.090940 34.344300 -9.146400 8.850000
-6.377080 2.358740 39.055400 -10.034400 13.030000
19.015000 2.022090 34.725900 -9.146400 13.750000
19.221700 2.044070 35.103400 -9.146400 10.860000
19.202500 2.785050 35.554600 -9.146400 6.620000
18.850600 2.814680 36.227700 -9.235200 5.750000
19.255300 2.615960 37.005500 -9.235200 5.750000
19.215800 0.381135 40.482900 -9.412800 6.870000
19.399900 0.524721 40.870900 -9.412800 7.140000
20.709100 2.642970 51.051400 -9.679200 14.300000
19.785400 2.181680 52.821800 -9.679200 6.150000
19.936500 2.198330 53.225000 -9.679200 10.130000
20.087500 2.214990 53.628200 -9.679200 6.820000
20.238500 2.231640 54.031500 -9.679200 7.200000
20.125400 1.540370 55.016700 -9.679200 8.540000
20.273400 1.551700 55.421200 -9.679200 17.250000
10.821900 1.241280 58.458000 -10.123200 16.500000
10.901000 1.065070 58.885100 -10.123200 10.870000
10.978700 1.259270 59.305200 -10.123200 6.740000
10.596500 1.268260 59.812300 -10.123200 7.270000
20.521700 2.723700 57.121300 -9.768000 7.360000
9.509050 1.277260 60.430900 -10.123200 13.180000
20.667200 2.743020 57.526400 -9.768000 16.330000
9.779040 0.000000 62.146700 -10.123200 5.850000
20.786800 3.208970 59.291300 -9.768000 7.660000
20.419200 1.141690 60.859800 -9.768000 5.890000
20.555000 1.349210 61.264600 -9.768000 7.520000
20.692000 1.358210 61.673100 -9.768000 7.140000
20.244500 2.359630 63.151100 -9.856800 6.150000
20.743000 2.374960 63.442300 -9.856800 5.790000
20.876800 2.390280 63.851600 -9.856800 10.160000
20.776300 1.789550 64.810000 -9.856800 12.750000
10.648600 1.006450 67.673000 -10.123200 10.920000
20.904000 2.224480 65.208300 -9.856800 8.090000
10.715100 1.225980 68.095200 -10.123200 10.930000
21.035400 2.238470 65.618400 -9.856800 9.610000
21.164700 2.466890 66.021600 -9.856800 6.750000
20.916000 2.063320 67.018300 -9.856800 6.650000
21.044300 2.075980 67.429500 -9.856800 12.660000
21.172600 2.088640 67.840700 -9.856800 7.090000
21.296700 2.543500 68.238100 -9.856800 13.290000
21.425000 2.558820 68.649200 -9.856800 9.440000
21.155900 2.350390 69.191000 -9.856800 11.790000
21.683800 2.364380 69.478600 -9.856800 14.480000
21.809800 2.604790 69.882400 -9.856800 12.770000
21.604000 2.462310 72.654400 -9.856800 6.130000
21.726800 2.476300 73.067200 -9.856800 6.930000
22.415200 2.490290 73.309500 -9.856800 7.480000
21.972300 2.504280 73.892900 -9.856800 7.760000
21.669100 2.038730 74.445700 -9.945600 7.180000
21.789400 2.050050 74.859300 -9.945600 10.200000
21.909800 2.061380 75.272900 -9.945600 13.000000
22.033000 1.646040 75.696100 -9.945600 11.640000
22.025900 2.880590 77.904100 -9.945600 6.240000
22.147500 2.392440 78.334300 -9.945600 8.540000
22.264600 2.405100 78.748700 -9.945600 12.460000
21.923800 2.417750 79.291300 -9.945600 11.790000
22.993200 1.303960 85.725800 -9.945600 7.320000
23.104900 1.310290 86.141900 -9.945600 6.790000
22.715700 1.316620 86.690800 -9.945600 5.790000
22.825900 1.044440 87.111100 -9.945600 6.860000
23.044300 1.054440 87.944700 -9.945600 5.390000
23.151400 1.624420 88.353500 -9.945600 8.820000
23.260600 1.632080 88.770300 -9.945600 13.450000
22.788900 1.360920 89.786600 -9.945600 13.700000
22.894900 1.367250 90.204200 -9.945600 9.500000
23.000900 1.373580 90.621800 -10.034400 5.900000
18.430900 -0.300846 128.384000 -10.123200 6.710000
-54.775900 -13.697200 122.009000 -9.146400 5.080000
-54.951500 -13.741100 122.401000 -9.146400 8.080000
-54.935100 -20.802100 122.364000 -9.057600 6.510000
-54.278800 -15.990200 128.102000 -9.146400 5.610000
-54.411200 -16.794500 128.414000 -9.235200 6.540000
-4.619160 0.427782 184.367000 -10.212000 4.480000
-4.629900 1.000490 184.795000 -10.212000 5.320000
-3.569920 1.002820 185.250000 -10.212000 3.890000
-45.655500 -18.850800 190.626000 -9.768000 5.170000
-45.755400 -18.892100 191.043000 -9.768000 6.760000
5.869690 -0.592563 6.282160 -7.814400 3.330000
6.160430 -0.678018 6.593330 -7.814400 4.950000
5.293030 -0.534777 7.846300 -8.702400 8.390000
5.533630 -0.559085 8.202950 -8.702400 9.490000
6.375670 -0.383043 7.578000 -8.169600 8.120000
6.632900 0.894425 7.883740 -8.169600 6.550000
5.274620 -1.387100 9.289840 -8.968800 5.760000
6.549480 -1.031230 8.490440 -8.347200 6.900000
5.559900 -1.442580 9.618870 -8.968800 3.750000
6.699490 -0.467626 8.967400 -8.524800 4.810000
5.696590 -1.498060 10.033000 -9.057600 4.490000
6.548300 1.149530 9.547530 -8.702400 5.430000
6.822260 0.289158 9.946970 -8.702400 8.910000
6.986790 0.260848 10.357100 -8.702400 8.350000
6.007120 1.624860 11.330600 -9.235200 5.030000
6.248840 -0.681357 11.786500 -9.235200 8.840000
5.549100 -0.287832 12.619700 -9.412800 8.250000
6.977110 -0.905553 11.858800 -9.146400 8.340000
5.722510 -0.296827 13.014000 -9.412800 11.630000
7.197940 -0.846069 12.234100 -9.146400 9.460000
5.687810 -1.447560 13.423600 -9.590400 7.540000
7.609470 -0.871707 12.489000 -9.057600 12.030000
5.847460 1.675680 13.800400 -9.590400 9.280000
6.610670 1.723550 13.927100 -9.412800 11.460000
-9.419310 1.675870 12.210800 -7.992000 5.980000
6.706510 1.194600 14.414700 -9.412800 8.640000
7.003260 1.176390 14.754100 -9.412800 7.960000
7.189120 1.155500 15.145700 -9.412800 9.710000
-8.848750 0.597570 14.274200 -8.613600 10.990000
7.492970 1.185130 15.476800 -9.412800 9.940000
-9.188210 0.612892 14.569900 -8.613600 7.680000
-9.417910 0.628214 14.934100 -8.613600 4.760000
-8.162210 1.830740 16.533000 -9.057600 7.460000
-8.221390 1.873320 16.981300 -9.146400 8.820000
-8.285310 1.632230 17.455100 -9.235200 6.480000
-8.089370 1.668510 18.018500 -9.324000 8.750000
6.823670 1.549760 19.463600 -9.856800 2.650000
7.650630 1.582040 19.615600 -9.768000 3.190000
7.811870 1.414930 20.029000 -9.768000 5.880000
13.683900 1.996110 16.521300 -8.169600 7.030000
7.259010 1.239710 20.705300 -9.856800 4.510000
13.953500 2.103700 16.846800 -8.169600 4.440000
14.227100 2.144950 17.177100 -8.169600 8.250000
7.261840 -0.600292 21.644100 -9.856800 8.290000
7.398850 -0.611618 22.052500 -9.856800 9.620000
5.620150 -0.205226 23.465900 -10.034400 6.790000
14.375900 2.309950 19.242500 -8.524800 15.530000
14.632700 2.351190 19.586100 -8.524800 9.540000
17.520900 1.409870 17.766300 -7.548000 6.880000
5.807620 4.960760 24.248600 -10.034400 11.010000
17.648000 1.434170 18.243500 -7.636800 12.050000
5.827450 -3.329030 24.967700 -10.034400 4.980000
6.305360 1.726210 25.459000 -10.123200 8.380000
6.906100 1.754510 25.748000 -10.034400 5.320000
17.629200 1.580020 21.706900 -8.258400 10.200000
17.900400 1.604330 22.040900 -8.258400 6.430000
7.693610 0.245539 27.825200 -10.034400 9.410000
18.168400 1.717780 22.370800 -8.258400 6.280000
7.807880 0.430432 28.238500 -10.034400 4.820000
18.439500 1.743410 22.704700 -8.258400 7.000000
7.922700 0.436762 28.653800 -10.034400 11.220000
8.037520 0.443092 29.069000 -10.034400 12.300000
18.202800 1.887800 23.977100 -8.436000 11.760000
5.336400 0.449422 30.121500 -10.123200 17.760000
18.274800 1.914770 24.461200 -8.436000 7.750000
5.404440 1.654370 30.505600 -10.123200 18.550000
7.727440 1.677350 30.445600 -10.034400 15.180000
17.967700 1.604490 25.769100 -8.702400 7.500000
7.654770 1.700330 30.907400 -10.123200 11.000000
18.213800 1.626470 26.122100 -8.702400 7.990000
7.516550 1.723300 31.384000 -10.123200 8.490000
18.462800 1.548620 26.479200 -8.613600 10.010000
4.028230 0.075961 32.499600 -10.123200 5.270000
7.274830 2.281370 32.291500 -10.123200 8.610000
7.382890 -1.091250 32.771100 -10.123200 5.570000
7.285560 -1.105240 33.234000 -10.123200 7.280000
7.371170 -1.838190 33.624500 -10.123200 10.100000
18.485700 1.912200 32.557600 -9.146400 11.480000
18.698100 1.934170 32.931800 -9.146400 8.240000
-6.457640 2.518570 37.718500 -10.123200 8.780000
18.905100 2.163410 33.296300 -9.146400 7.870000
-6.530200 2.546870 38.142300 -10.123200 9.450000
18.402800 2.067960 34.073900 -9.235200 12.940000
-6.602760 2.575170 38.566100 -10.123200 5.810000
18.607200 2.090940 34.452500 -9.235200 13.060000
8.189330 -0.582349 38.783300 -10.123200 12.080000
18.811700 2.113920 34.831100 -9.235200 8.340000
8.580620 -0.464753 39.141500 -10.123200 13.160000
19.016200 2.136900 35.209700 -9.235200 8.340000
19.220700 2.159870 35.588200 -9.235200 16.360000
8.225330 -0.348152 40.099100 -10.123200 7.870000
-6.103700 2.285840 44.337100 -10.123200 9.300000
-6.162390 2.307820 44.763400 -10.123200 11.290000
-6.482200 2.329800 45.153000 -10.123200 6.510000
-24.563400 -4.245470 40.314700 -8.613600 5.250000
-24.779700 -4.431380 40.669700 -8.613600 6.750000
-26.673200 -3.583810 39.539800 -8.347200 5.380000
-25.003000 -4.471300 41.036100 -8.613600 6.430000
-26.913500 -3.616100 39.896000 -8.347200 6.890000
-27.153800 -3.648380 40.252300 -8.347200 9.570000
19.450400 2.593550 46.907300 -9.679200 10.280000
19.615200 2.615530 47.304800 -9.679200 7.070000
19.780000 2.637510 47.702300 -9.679200 6.730000
19.743800 2.194240 48.671900 -9.679200 10.620000
19.905600 2.212230 49.070800 -9.679200 6.230000
20.067500 2.230220 49.469800 -9.679200 9.200000
20.229300 2.248200 49.868700 -9.679200 6.190000
20.018600 2.642970 51.326100 -9.768000 11.220000
20.175000 2.663620 51.727100 -9.768000 19.810000
20.191900 2.181680 52.667700 -9.768000 5.690000
20.346100 2.198330 53.069800 -9.768000 5.320000
20.500200 2.214990 53.471800 -9.768000 11.700000
20.656700 2.053190 53.880100 -9.768000 6.400000
20.535300 2.627110 54.823700 -9.768000 6.310000
20.686300 2.646430 55.226800 -9.768000 7.760000
10.370300 1.425140 58.535600 -10.212000 11.900000
20.837300 2.665750 55.630000 -9.768000 6.230000
10.445400 1.435460 58.959800 -10.212000 6.760000
10.520600 1.445790 59.383900 -10.212000 9.340000
12.547000 1.784830 59.420400 -10.212000 8.660000
20.854300 2.535970 57.009400 -9.768000 11.690000
20.999400 2.743020 57.406000 -9.856800 10.130000
20.887600 1.141690 60.700700 -9.856800 7.070000
21.027800 1.149350 61.108000 -9.856800 8.720000
21.168000 1.157020 61.515400 -9.856800 7.070000
20.770300 2.420920 64.791400 -9.945600 8.010000
20.901800 2.436250 65.201400 -9.945600 6.220000
21.033200 2.451570 65.611500 -9.945600 10.470000
21.548200 2.252460 65.905100 -9.945600 13.470000
21.951800 2.075980 67.139500 -9.856800 10.240000
22.083600 2.308420 67.542500 -9.856800 13.130000
20.499300 2.336400 68.939100 -9.945600 7.910000
20.622000 2.350390 69.352000 -9.945600 14.220000
20.744800 2.364380 69.764800 -9.945600 15.140000
21.407800 2.378370 70.014700 -9.945600 11.440000
21.233500 2.650760 71.408500 -9.945600 7.280000
26.668800 2.650760 69.561600 -9.768000 6.470000
21.353800 2.897800 71.813000 -9.945600 8.360000
21.187500 1.993420 72.791300 -9.945600 7.450000
21.307900 2.004750 73.204900 -9.945600 5.490000
21.428300 2.016070 73.618500 -9.945600 6.830000
21.548700 2.027400 74.032100 -9.945600 12.600000
21.665100 2.518270 74.432200 -9.945600 13.120000
21.787600 2.291170 74.852800 -9.945600 9.070000
21.909800 2.061380 75.272900 -9.945600 7.970000
22.475000 0.182907 75.583700 -9.945600 5.920000
21.694300 2.392440 78.461000 -10.034400 11.540000
21.809100 2.405100 78.876100 -10.034400 14.540000
21.921800 2.672170 79.283700 -10.034400 13.230000
22.658400 1.284970 84.477300 -10.034400 10.300000
22.770000 1.291300 84.893500 -10.034400 6.430000
21.833800 1.578450 86.023800 -10.034400 5.680000
21.939800 1.586110 86.441400 -10.034400 5.310000
22.044500 1.870910 86.853800 -10.034400 6.640000
22.820900 2.158360 87.092000 -10.034400 7.060000
23.693000 2.457800 90.420400 -10.034400 9.010000
-11.596000 -4.230430 93.556300 -10.123200 6.730000
-15.390900 -5.396380 94.259200 -10.123200 15.150000
-14.257500 -3.730500 95.389900 -10.123200 11.450000
-13.767000 -3.747160 95.896900 -10.123200 5.900000
-18.185400 -3.747160 95.158000 -10.123200 5.900000
23.479900 2.104770 98.036100 -10.123200 5.240000
23.580300 2.113770 98.455000 -10.123200 7.780000
23.107100 2.437190 99.002400 -10.123200 6.830000
23.205000 2.447520 99.421900 -10.123200 5.620000
23.299500 3.012700 99.827000 -10.123200 7.580000
20.160200 1.103090 128.120000 -10.212000 10.930000
-53.626400 -14.477600 121.956000 -9.146400 7.510000
-53.780500 -14.937500 122.306000 -9.235200 10.740000
-53.952800 -14.985300 122.698000 -9.235200 9.610000
-4.619180 0.000000 184.367000 -10.300800 6.210000
-3.561670 0.000000 184.822000 -10.300800 5.310000
-3.569970 0.000000 185.253000 -10.300800 5.240000
-45.555500 -18.809600 190.209000 -9.856800 4.280000
-45.655500 -18.850800 190.626000 -9.856800 6.810000
-47.226400 -18.892100 190.685000 -9.856800 7.660000
-2.265210 1.154550 7.782320 2.397600 1.500000
-2.383370 1.241700 8.188260 2.397600 10.630000
-2.502540 1.303780 8.597680 2.397600 13.640000
-2.620520 1.394870 9.002990 2.397600 12.540000
-2.668220 1.427950 9.437350 2.397600 8.100000
5.600730 -0.413669 8.165950 -8.791200 8.750000
-3.487530 0.742981 9.707410 2.308800 6.330000
5.909740 -0.431655 8.475690 -8.791200 7.380000
6.518920 -0.151917 8.026790 -8.347200 7.020000
6.139480 0.906797 8.805190 2.486400 6.110000
6.155150 -0.482925 8.827670 -8.702400 5.140000
6.725890 -0.158247 8.413330 -8.347200 4.660000
6.415020 0.969127 10.172400 -9.057600 7.360000
7.255120 1.266350 9.556600 -8.702400 5.250000
6.560630 1.051880 10.583200 -9.057600 6.520000
7.514230 1.311580 9.897910 -8.702400 5.460000
6.599750 1.436300 11.022100 -9.146400 4.810000
6.465430 1.484170 11.594400 -9.235200 8.490000
6.079530 -1.235050 12.314400 -9.501600 12.980000
6.962130 -1.277510 11.833300 -9.146400 10.690000
6.269520 -1.273640 12.699200 -9.501600 12.530000
7.273540 -1.317440 12.147400 -9.146400 9.580000
6.540200 -1.176800 13.056800 -9.768000 8.770000
6.635390 -1.312240 12.995800 -9.412800 9.040000
7.622460 0.169910 12.510400 -9.146400 5.900000
5.760450 -1.130030 13.892200 -9.679200 8.340000
7.546810 0.174907 13.056300 -9.324000 6.900000
5.814730 -1.162320 14.334300 -9.679200 4.130000
6.626930 1.341640 13.961300 -9.501600 5.560000
6.700220 1.378910 14.401200 -9.590400 7.750000
-8.857810 1.820430 13.130700 -8.524800 4.170000
6.673510 1.617860 14.864800 -9.679200 11.300000
-8.791980 1.718620 13.706300 -8.613600 5.640000
6.966500 1.660440 15.202700 -9.679200 11.090000
-9.026250 1.712150 14.071500 -8.613600 5.350000
7.145130 1.703010 15.592500 -9.679200 7.800000
-9.368650 1.756050 14.360500 -8.613600 4.340000
6.725080 1.962940 16.218500 -9.768000 6.540000
-8.939420 1.160240 15.194100 -8.880000 7.010000
6.442810 1.899530 16.805100 -9.856800 4.520000
13.956900 -1.411840 11.434300 4.084800 4.730000
6.600390 1.830740 17.216200 -9.856800 4.580000
-8.884880 1.045250 16.225900 -9.057600 4.520000
-8.477710 1.069550 16.924900 -9.146400 3.520000
14.637400 -1.186620 11.991900 4.084800 5.900000
-8.723240 2.141390 17.669400 -9.235200 5.360000
13.841200 -2.080430 14.035000 -7.814400 2.830000
-8.952600 1.079940 18.134000 -9.235200 8.430000
14.183900 -1.455000 14.382500 3.374400 3.310000
14.142100 -2.125660 14.340100 -7.814400 4.650000
7.103500 0.495700 19.418800 -9.945600 6.350000
-9.143080 1.102910 18.519800 -9.235200 6.430000
14.536400 -2.726650 14.458700 3.374400 6.380000
7.251490 0.506027 19.823300 -9.945600 6.810000
14.244800 1.777320 15.483300 -7.992000 5.820000
6.967250 -0.812082 21.733800 -10.034400 10.530000
13.921600 1.429340 18.047300 -8.524800 8.660000
6.209420 -0.812082 21.962300 -9.945600 8.640000
7.218360 -1.384480 22.077300 -10.034400 12.870000
14.184300 1.456310 18.387800 -8.524800 11.170000
7.221930 -1.410110 22.528200 -10.034400 10.840000
14.447000 1.483270 18.728400 -8.524800 9.550000
6.877170 0.279851 23.128000 -10.123200 10.700000
17.547600 1.733620 16.472800 -7.370400 5.640000
4.749470 0.284849 24.096000 -10.212000 9.710000
14.645100 2.124260 19.602700 -8.613600 9.840000
5.012120 -1.564180 24.434400 -10.300800 6.970000
14.902000 2.161530 19.946600 -8.613600 7.060000
6.099840 -1.591150 24.629100 -10.212000 7.000000
6.340990 2.016920 24.983100 -10.212000 6.950000
6.983530 2.050540 25.257100 -10.123200 7.520000
6.904660 1.836950 25.742700 -10.123200 6.940000
7.014500 1.950320 26.152200 -10.123200 5.160000
17.849200 2.385130 20.886400 -10.123200 5.710000
7.117530 2.385130 26.536300 -10.123200 5.140000
-18.175400 1.342140 21.268000 -9.945600 6.650000
17.723500 1.779930 22.170000 -8.347200 8.430000
7.693370 0.334822 27.824300 -10.123200 10.670000
7.807880 0.430432 28.238500 -10.123200 16.890000
18.260500 1.833870 22.841900 -8.347200 8.040000
7.922700 0.436762 28.653800 -10.123200 17.920000
8.037520 0.443092 29.069000 -10.123200 14.600000
6.671820 -1.249050 31.596600 -10.300800 7.140000
7.192000 -1.265710 31.923800 -10.212000 7.090000
-13.395200 1.670420 29.836800 -13.586400 4.250000
7.530610 1.769260 32.264900 -10.212000 9.760000
7.639280 0.000000 32.730500 -10.212000 10.990000
-13.509600 1.792240 30.723300 -13.675200 6.610000
7.737220 0.000000 33.150100 -10.212000 11.220000
-13.440300 1.920330 31.216500 -13.675200 5.030000
7.364200 2.370250 33.592700 -10.300800 10.320000
-13.612300 0.917427 32.125900 -13.764000 8.490000
5.208470 -2.647500 34.847400 -10.300800 5.470000
5.271990 -2.679790 35.272400 -10.300800 6.400000
18.520700 1.890220 32.041600 -9.235200 6.320000
5.326070 -0.782545 37.099800 -10.300800 9.650000
18.733800 1.999030 32.410200 -9.235200 6.950000
-6.601870 2.373240 37.264600 -10.212000 14.860000
18.949100 2.022010 32.782700 -9.235200 6.350000
-6.458930 2.400210 37.726000 -10.212000 15.540000
19.161200 2.163410 33.149600 -9.235200 11.160000
-6.531500 2.427180 38.149900 -10.212000 11.890000
18.607200 2.090940 34.452500 -9.324000 9.370000
