VERSION .7
FIELDS x y z velocity SNR
SIZE 4 4 4 4 4
TYPE F F F F F
COUNT 1 1 1 1 1
WIDTH 190
HEIGHT 1
VIEWPOINT 0 0 0 1 0 0 0
POINTS 190
DATA ascii
4.27291213168574 7.79013019379845 -1.9768899635838 -2.16600590208418 6.63920055401146
-8.31003950326625 3.46348468508952 -1.34146104671758 -2.01129119479245 5.18444777208679
8.03004599963009 2.95292438126962 -3.10654137134598 -2.01129119479245 5.18444777208679
-8.27922729165988 4.71993326422017 -1.96228240227653 -2.01129119479245 6.0855336268372
-0.175206344045065 11.2926170512732 0.350581471374468 2.93957943854282 7.06323046717452
6.48497673868763 9.25154875436715 -0.175290735687233 2.93957943854282 7.06323046717452
6.48400100439979 9.25015675965399 -0.262936103530851 3.09429414583454 6.54883091540919
-0.270036569478905 11.6014092515124 0.450399806974142 2.63015002395936 5.95340997774573
7.2962573723978 9.03465496365747 0.0900799613948282 2.63015002395936 5.95340997774573
6.93093861662521 9.30740061792259 -0.450399806974142 2.78486473125109 9.45478806846304
7.29450112994977 9.03248028097556 -0.270239884184486 2.78486473125109 9.45478806846304
6.74297731277165 9.42769387236499 0.720639691158629 2.93957943854282 14.4711234240067
7.02095080645151 9.23968972116057 -0.450399806974142 2.93957943854282 14.4711234240067
6.75599710461214 9.44589749460194 -0 3.09429414583454 14.8653135765232
7.47641187541997 8.88614806458282 -0.0900799613948282 3.09429414583454 14.8653135765232
1.07456708457216 11.4944925788662 1.2611194595276 3.24900885312627 8.7417763644382
1.88346679778431 11.4084422975985 1.08095953673794 3.24900885312627 8.7417763644382
7.56671675716559 8.80983960540055 -0 3.24900885312627 8.7417763644382
7.92608268061822 8.48606104728685 0.180159922789656 3.24900885312627 8.7417763644382
6.93594836635347 9.31412809745971 -0.0900799613948282 3.403723560418 5.3793880153091
7.56466783846643 8.80745407338139 -0.270239884184486 3.403723560418 5.3793880153091
-8.31026393141587 8.52343366056985 -0.740116439568321 2.32072060937591 5.89988243738919
7.30073046500935 9.41532755955751 -0.55508732967624 2.78486473125109 8.3247789626765
6.93525111845053 9.69652149783863 -0.370058219784161 3.09429414583454 15.4758376998916
7.67847706124213 9.12631422849046 -0.0925145549460397 3.09429414583454 15.4758376998916
7.02920229005503 9.63174257336851 0.277543664838121 3.24900885312627 11.1506929786043
7.10381279471417 9.93219600906921 -0.854542336475265 3.09429414583454 6.23921586658316
7.9754885391976 9.28576779862986 0.0949491484972513 3.09429414583454 6.23921586658316
7.20222874056042 9.8688315289687 -0.759593187978014 3.24900885312627 6.21718297712558
6.28695242900769 10.7687559749066 1.46075613072695 1.54714707291727 10.9542084681914
6.28100618791362 10.758570814444 1.55813987277541 1.701861780209 7.47071748842652
6.44982270356939 11.0477321978264 1.39745669839545 1.701861780209 6.26259489522282
6.88228337888126 10.8623463319849 0.499091677998374 1.701861780209 6.26259489522282
-8.81082368868829 12.5696310421198 -0.95436067207494 0.309429414583454 6.7339232157057
7.39607270515333 13.4840987879647 -0.119295084009367 0.464144121875182 7.79207120554319
7.51355521793625 13.4147474457769 -0.357885252028103 0.618858829166909 5.75634035172332
-0.580101478817213 14.946315258716 -3.57885252028102 0.773573536458636 7.56920784899653
7.7504473025491 13.2755379716938 -0.47718033603747 0.773573536458636 7.56920784899653
7.42349964843069 13.8220266991929 -0.365189032681738 0.464144121875182 10.0410579043516
7.66804681939416 13.6905776960297 -0.243459355121157 0.618858829166909 6.2242219786744
7.78976184827343 13.6216911586863 -0.243459355121157 0.773573536458636 9.88002469755792
-9.22110854318168 12.8924931045383 -2.23495688001223 0.309429414583454 5.26291621922029
7.13645577964975 13.572240029566 -4.59407803113625 0.309429414583454 5.26291621922029
7.57196964139931 14.0984672331768 -0.372492813335373 0.464144121875182 7.97233857501003
7.82234908004281 13.9660698960435 -0 0.618858829166909 5.32882637150325
-8.17175953255894 15.8766657106543 1.11017465935248 -0.464144121875182 6.37624059858952
-12.7164309152851 14.2019244087452 -1.78212247948688 1.701861780209 20.7165125085311
-0.293053518402999 18.8882496058595 -3.11871433910203 1.701861780209 20.7165125085311
-12.5925707147326 14.3603244274665 -1.33659185961516 1.85657648750073 27.1736922932191
-0.29442682900387 18.9767639276018 -2.52467351260641 1.85657648750073 27.1736922932191
-0.295506513414872 19.0463530892051 -1.93063268611078 2.01129119479245 5.05926936111115
-0.444918682178059 19.1147581438759 -3.62267520420283 1.701861780209 90.6712952957807
-0.297046568015404 19.1456146024605 -3.47173040402771 1.85657648750073 124.708493910344
-0.300578999903801 19.3732912930095 -1.81133760210142 2.01129119479245 17.4537498204278
-0.451403928419279 19.3933796501646 -3.83448484315824 1.701861780209 107.901524605455
-0.450683743699228 19.3624388124472 -3.98786423688457 1.85657648750073 162.195341208327
-1.07352655471518 19.7424328175902 -0.306758787452658 2.01129119479245 16.6746271437113
-0.446637805571557 19.1886157479786 -4.75476120551622 2.01129119479245 16.6746271437113
-1.22822860249304 19.7550665817464 -3.4279077201059 1.701861780209 20.7667675916245
-0.613257430741482 19.7560777112879 -3.58372170738345 1.701861780209 20.7667675916245
-1.22651486148296 19.7275024396239 -3.58372170738345 1.85657648750073 34.2793839697933
-9.01338279206613 18.2856005811997 0.791242904143764 -1.08300295104209 5.03858887056936
5.85502134822046 19.5428760857606 -0.158248580828752 -1.08300295104209 5.03858887056936
-8.98498409926184 18.6317162902593 1.12478222065975 -1.23771765833382 11.5811290252345
-8.99392566098006 18.6502579637097 0.642732697519858 -1.08300295104209 9.17889313088235
-9.130197261904 18.9328376298266 0.652471071724704 -1.23771765833382 16.9224864280839
-9.08803637977544 18.845410697771 2.12053098310528 -1.08300295104209 12.012662647341
-12.5785725190458 17.2357498681331 0.496657084447164 -1.23771765833382 7.98190576835312
-9.0831657614465 19.2565395075953 1.48997125334149 -1.23771765833382 7.98190576835312
-12.7413946863884 17.110130580702 0.662209445929551 -1.08300295104209 6.8301521686207
-8.75736585053298 19.4188744872632 1.3244188918591 -1.08300295104209 6.8301521686207
-8.05697134363601 19.6075683008581 2.48328542223581 -1.08300295104209 6.8301521686207
18.4966284596729 10.5448067636308 1.48997125334149 -1.08300295104209 6.8301521686207
-12.7666245114628 17.4934275258002 0.167986955033599 -1.23771765833382 6.10917791037344
6.13443745551533 21.0945766031994 -0.34084309716962 -1.23771765833382 8.28562502966209
7.32790613644224 20.7123491456676 0.17042154858481 -1.23771765833382 8.28562502966209
-14.9857099018613 19.7214470748447 -1.15399734327429 -0.464144121875182 5.37957053391737
-12.8766086689355 21.1685341137355 0.961664452728574 -0.464144121875182 5.37957053391737
-4.95698939978648 24.0743903569805 3.26965913927715 -0.464144121875182 5.37957053391737
-0.927619426533524 23.9001155752062 6.5393182785543 -0.464144121875182 5.37957053391737
6.26108721192743 26.1677844412534 4.65981205701896 -1.701861780209 7.00200404439412
6.26942363140845 26.2026259345288 4.44800241806356 -1.54714707291727 8.28906329755744
5.55003693724143 26.9546180043407 -2.35668655757281 -1.54714707291727 5.32720359151302
6.58357696329968 26.5762968981329 3.64215195261252 -1.54714707291727 5.32720359151302
17.1633681933282 23.9969636022508 0.228851793813888 1.85657648750073 5.02865695539669
-14.1727427756214 30.0465705853503 1.80646841499899 -1.23771765833382 6.99893676486611
-17.686793364985 31.5781090622086 3.95377992716761 -2.01129119479245 18.1454021198538
6.4387768834617 35.5123130894608 4.80101848298924 -2.01129119479245 18.1454021198538
-17.3380948085131 31.6098276089408 5.08343133492978 -1.85657648750073 16.6045386725242
-15.0837691823992 32.7004530642501 5.36584418687032 -1.85657648750073 16.6045386725242
-8.90465736807456 34.7525062000218 6.21308274269195 -1.85657648750073 16.6045386725242
6.4387768834617 35.5123130894608 4.80101848298924 -1.85657648750073 16.6045386725242
6.50699576402296 35.8885662643963 4.27271168237632 -2.16600590208418 9.44583857111329
7.97356880270785 35.8368275026034 0.854542336475267 -2.16600590208418 9.44583857111329
6.5008414044906 35.8546226215999 4.55755912786808 -2.01129119479245 85.1973782956541
7.9718886540505 35.8292761540038 1.13938978196702 -2.01129119479245 85.1973782956541
6.48732106920311 35.7800528098959 5.12725401885159 -1.85657648750073 72.4108931373777
8.04292910834232 36.1485641126526 0.574564078085931 -2.16600590208418 6.2948801470399
6.54979027800415 36.1245943496239 4.88379466373043 -2.01129119479245 66.6598223536042
8.04002445451247 36.1355092835252 1.14912815617187 -2.01129119479245 66.6598223536042
6.52749443217729 36.0016242464617 5.74564078085933 -1.85657648750073 62.0278717194458
8.03203124024922 36.0995841604302 2.01097427330076 -1.85657648750073 62.0278717194458
6.38735889048647 35.228723224799 9.48030728841789 -1.701861780209 7.47740298140589
8.08248386140229 36.326341077697 3.18688295853596 -1.85657648750073 6.85473490793331
-8.49540510657732 38.1821960658012 3.04324193901448 -0.309429414583454 7.86446346644515
-3.31833516295346 38.7496678494749 5.17351129632461 -0.309429414583454 7.86446346644515
14.8237013355957 36.0751855768727 4.26053871462027 -0.309429414583454 7.86446346644515
16.1248148101158 35.7557010032812 0.912972581704345 -0.309429414583454 7.86446346644515
-8.48408467470409 38.1313169206739 3.65189032681737 -0.154714707291727 5.15798523931611
14.5441451566356 36.2552736099886 3.65189032681737 -0.154714707291727 5.15798523931611
14.9763671549513 36.4467154424451 3.37434666197925 -0.309429414583454 21.032365232018
16.5569995122587 35.8943032665334 1.22703514981064 -0.309429414583454 21.032365232018
14.965925366178 36.4213041460878 3.68110544943191 -0.154714707291727 12.9521362252459
16.5525118804907 35.8845744255371 1.5337939372633 -0.154714707291727 12.9521362252459
15.1048302794945 36.7593452609204 3.09193381003871 -0.309429414583454 9.59126913365904
16.3852771877276 36.3332589477389 0.618386762007739 -0.309429414583454 9.59126913365904
15.0847025516239 36.7103621155012 3.71032057204645 -0.154714707291727 6.35545833279962
16.6838810223993 36.1693726352636 1.54596690501935 -0.154714707291727 6.35545833279962
-24.4607440494515 32.1907518790727 2.19843797674405 0.618858829166909 9.27162728926998
30.0572022604651 26.3148638979108 6.59531393023217 0.618858829166909 9.27162728926998
-24.66002895243 32.4530141737951 1.89898296994503 0.464144121875182 5.77144361173357
-24.668205536181 32.4637746959696 1.58248580828753 0.618858829166909 42.8891238231153
-24.66002895243 32.4530141737951 1.89898296994503 0.773573536458636 26.2305530980233
-24.8579609633824 32.7134960397847 1.59465877604359 0.618858829166909 33.6101268986491
-25.1683076556901 32.4581029026851 1.9135905312523 0.773573536458636 23.418291407568
-17.2032996961071 43.9414361835252 4.41148351479538 -1.08300295104209 8.62255731930329
-15.2715938944406 44.3199145632711 6.98484889842603 -1.08300295104209 8.62255731930329
-3.61726062663921 46.4939470748233 8.45534340335782 -1.08300295104209 8.62255731930329
-2.13671463767964 45.8618393652623 11.7639560394544 -1.08300295104209 8.62255731930329
14.7009632382037 45.0436441332194 -1.10287087869885 -1.08300295104209 8.62255731930329
17.2653111134395 44.0998285143858 1.83811813116474 -1.08300295104209 8.62255731930329
-14.9079845160015 44.4435417652894 6.98484889842603 -0.928288243750363 17.2599924497076
14.3334391572486 45.1619388296891 1.10287087869885 -0.928288243750363 17.2599924497076
14.4283625953761 45.4610245173029 1.11017465935248 -1.08300295104209 19.7859033221381
15.5045267970787 44.9959125249282 3.33052397805744 -1.08300295104209 19.7859033221381
16.9811483968005 44.4596794216755 3.33052397805744 -1.08300295104209 19.7859033221381
14.4253223263771 45.4514452083142 1.48023287913664 -0.928288243750363 44.2209820752713
15.495618914397 44.9700608291509 3.7005821978416 -0.928288243750363 44.2209820752713
16.9811483968005 44.4596794216755 3.33052397805744 -0.928288243750363 44.2209820752713
14.4214124673058 45.4391259865089 1.8502910989208 -0.773573536458636 5.25894246394264
15.4749704466603 44.9101366108747 4.44069863740992 -0.773573536458636 5.25894246394264
16.9713921443396 44.4341358102169 3.7005821978416 -0.773573536458636 5.25894246394264
15.597563775676 45.2659164925006 3.72492813335372 -1.08300295104209 9.06500844880636
17.083046040026 44.7264656510736 3.72492813335372 -1.08300295104209 9.06500844880636
15.5876474469901 45.2371381709204 4.09742094668909 -0.928288243750363 20.6427991469509
17.083046040026 44.7264656510736 3.72492813335372 -0.928288243750363 20.6427991469509
-18.3514625177183 43.6145694813589 -8.19484189337818 2.32072060937591 6.30602543822318
-29.9670005587278 37.1069024193237 5.58739220003058 2.47543531666763 7.88488723041039
16.0051404558713 45.2385785345775 -1.86246406667686 2.47543531666763 7.88488723041039
40.6239461259675 23.9986825952433 8.93982752004892 2.47543531666763 7.88488723041039
-34.9666881338878 33.5700497339768 -4.15098200481574 2.32072060937591 56.4062861618184
-36.7503915246546 32.1747028477845 -3.41816934590106 2.32072060937591 15.9540143910446
-35.1922796702354 33.7866307000025 -4.17776253387907 2.32072060937591 15.9540143910446
6.88691718325912 7.37347842556031 3.47659959113014 0.10382171147208 7.04200230622816
8.66531320870886 6.69838966727198 -0.852107742924053 -0.31146513441624 8.78875155848224
7.64044550574286 7.66756109907823 -1.87463703443292 -0.20764342294416 9.68359804647055
6.52386103331927 8.76074534365484 2.89229713883936 -0.10382171147208 8.07277105266377
7.09764339089529 9.53126468668381 -1.01766010440644 -0.726751980304561 6.63215880065022
7.55093142576052 8.61093635762642 -3.33052397805744 -0.726751980304561 6.63215880065022
-8.35150239948148 8.94153670284886 -0.379796593989007 -0.830573691776641 5.83183223197539
-5.87248524363038 10.7063808473386 -0.854542336475265 -0.830573691776641 5.83183223197539
-1.11018962129625 11.8755418310666 -2.7535253064203 -0.830573691776641 5.83183223197539
-8.03344389970874 8.41915377098026 3.79796593989007 -0.726751980304561 7.32164414468529
-1.247419674407 12.3077036690365 -2.14244232506619 -0.830573691776641 6.93369747500575
-8.64600805100255 9.06112897473062 -0.876453678436169 -0.726751980304561 5.69625570943454
0.853256515855956 13.7239429596648 1.28546539503971 -1.24586053766496 5.73398161416605
7.09575794208427 11.6650896149536 -3.6153714235492 -1.24586053766496 9.00643190886348
7.40635683975609 11.929710783377 -3.35973910067198 -1.24586053766496 6.61795471462287
-7.98354060267202 14.5551368213498 -3.41816934590106 -1.76496909502536 6.40776852096184
-13.0295241748877 13.9500610857333 -1.48510206623906 0.62293026883248 5.24110389343393
-8.42257580986199 16.7200523085678 -4.00977557884547 0.62293026883248 5.24110389343393
-0.294111174449192 18.956418967915 -2.67318371923031 0.62293026883248 5.24110389343393
1.18632906938306 19.0811463810185 1.03957144636734 0.62293026883248 5.24110389343393
-7.85587230709576 17.4198727018097 -1.18808165299125 0.726751980304561 17.600697512152
0.443905926361532 19.0712477603673 -1.63361227286297 0.726751980304561 17.600697512152
-0.295730951518256 19.0608188527997 -1.78212247948688 0.830573691776641 6.71504274414521
-0.448880247497706 19.2849563530982 -2.56606160297701 0.62293026883248 28.6770817264831
-0.297857674442393 19.1978930420212 -3.16984080367748 0.726751980304561 98.8274670104743
-0.451183072695327 19.383891166275 -1.6603928019263 0.830573691776641 34.2662860151126
-1.06313957321389 19.5514135236881 -2.76082908707393 0.62293026883248 63.2747799537016
-0.450683743699228 19.3624388124472 -3.98786423688457 0.62293026883248 63.2747799537016
-1.06313957321389 19.5514135236881 -2.76082908707393 0.726751980304561 200.251315080655
-0.449934094986976 19.3302321319873 -4.1412436306109 0.726751980304561 200.251315080655
-0.44834580860041 19.2619955949333 -4.44800241806356 0.830573691776641 56.638467116673
-1.23290067391258 19.8302130827971 -2.96046575827328 0.62293026883248 26.0101873996068
-1.23430263375399 19.8527624762534 -2.80465177099574 0.726751980304561 85.1132536097741
-1.23290067391258 19.8302130827971 -2.96046575827328 0.830573691776641 19.2514339029618
-0.457075906018515 19.6370612134474 -4.20697765649361 0.830573691776641 19.2514339029618
-1.25850199094037 20.2419896213321 -2.21548013160254 0.726751980304561 8.62045439471429
-32.7629577777545 32.1630604430156 11.7639560394544 -0.62293026883248 11.4359304341194
