VERSION .7
FIELDS x y z velocity intensity
SIZE 4 4 4 4 4
TYPE F F F F F
COUNT 1 1 1 1 1
WIDTH 906
HEIGHT 1
VIEWPOINT 0 0 0 1 0 0 0
POINTS 906
DATA ascii
-6.882870 0.866811 9.871360 -11.632800 6.010000
-6.610180 1.609030 10.481800 -11.988000 5.760000
-7.128690 0.897768 10.223900 -11.632800 5.170000
-6.595660 1.505810 11.015300 -12.165600 4.060000
-6.921480 1.664520 10.790300 -11.988000 4.570000
8.051080 0.928726 10.071000 -11.544000 3.940000
-6.815520 1.556000 11.382500 -12.165600 3.850000
8.335730 0.474991 10.427100 -11.544000 5.040000
8.604630 0.490313 10.763400 -11.544000 5.190000
8.958810 0.505636 11.031000 -11.544000 4.530000
-6.565290 0.676095 13.560700 -12.787200 6.190000
-6.645170 0.695413 13.999700 -12.876000 9.570000
-6.830670 0.665468 14.390500 -12.876000 3.750000
-6.344740 1.907350 14.974000 -13.142400 8.980000
-6.511710 1.957550 15.368100 -13.142400 8.050000
-5.897480 1.543810 16.121900 -13.320000 5.510000
-6.047780 1.487150 16.532800 -13.320000 5.200000
7.675050 1.378230 15.852900 -13.053600 4.420000
8.838090 -0.464377 15.290300 -12.698400 5.700000
-6.097280 1.523420 16.971500 -13.408800 5.950000
7.862250 1.411840 16.239500 -13.053600 6.490000
9.053650 -0.475703 15.663200 -12.698400 7.130000
7.380410 -2.669640 16.784400 -13.231200 10.340000
-6.135120 1.775380 18.764200 -13.586400 7.030000
-6.268500 1.813970 19.172100 -13.586400 14.000000
-6.153780 1.695970 20.126100 -13.675200 6.110000
9.449070 0.816048 18.864100 -13.142400 14.610000
-9.862280 1.582040 18.602100 -12.698400 4.520000
-5.720190 1.863390 20.688000 -13.764000 11.910000
-10.063500 1.614330 18.981700 -12.698400 4.510000
-5.831350 2.036040 21.090000 -13.764000 7.910000
-10.267200 1.578830 19.365800 -12.698400 11.710000
0.000000 1.678900 22.343800 0.888000 8.900000
-6.076410 1.799810 21.491900 -13.764000 14.690000
-9.729310 1.886140 20.096000 -12.876000 10.260000
0.570393 1.711190 22.766400 0.888000 5.010000
-5.472540 1.834420 22.096300 -13.852800 7.610000
-9.753650 2.045550 20.548500 -12.964800 9.360000
-5.576820 1.815230 22.517400 -13.852800 4.690000
-10.538600 2.084140 20.640300 -12.876000 7.260000
-5.680100 1.848840 22.934400 -13.941600 7.160000
-9.222230 1.702660 21.765100 -13.320000 7.370000
-5.782310 1.938250 23.347000 -13.852800 6.350000
-9.389900 1.733620 22.160800 -13.320000 4.160000
11.024400 -2.103770 22.330400 -13.142400 8.130000
9.555050 -0.452079 23.554800 -13.586400 5.340000
11.214400 -2.140040 22.715400 -13.142400 8.870000
10.859200 -2.395340 23.340300 -13.231200 4.260000
11.537800 -2.176310 23.034100 -13.053600 9.690000
10.905900 -2.354310 23.799500 -13.320000 5.740000
9.030210 0.640279 25.135200 -13.764000 10.280000
11.084700 -2.392900 24.189600 -13.320000 6.750000
10.055400 0.713554 25.205600 -13.586400 10.170000
-5.168360 1.555710 27.044300 -14.030400 8.280000
10.215000 0.724881 25.605700 -13.586400 8.150000
-5.249120 1.580020 27.466800 -14.030400 10.340000
10.374600 0.736207 26.005800 -13.586400 9.890000
-10.153300 1.925830 26.032200 -13.320000 10.180000
-4.791530 1.604330 27.986900 -14.119200 11.040000
10.534200 0.747533 26.405900 -13.586400 16.650000
-4.864960 1.539480 28.415800 -14.119200 18.430000
-4.937570 1.562460 28.839900 -14.119200 15.750000
10.269000 1.223020 27.415500 -13.675200 8.260000
10.420000 1.241010 27.818700 -13.675200 5.340000
10.548000 -2.353070 28.160400 -13.675200 5.590000
10.698700 -2.386690 28.562700 -13.675200 7.250000
10.635200 0.170246 29.602800 -13.764000 8.480000
10.780900 0.172578 30.008300 -13.764000 10.600000
-20.368000 0.774531 25.079200 -10.922400 11.480000
11.102200 -0.174910 30.350100 -13.764000 9.870000
-20.639500 0.784858 25.413600 -10.922400 8.020000
10.175000 -0.683602 31.120100 -13.852800 5.510000
-20.911100 0.795185 25.748000 -10.922400 9.160000
10.551600 -0.692597 31.449200 -13.852800 8.910000
18.952200 1.692400 27.181100 -12.165600 9.450000
-21.182700 0.805513 26.082400 -10.922400 12.760000
18.794600 2.263880 28.808900 -12.343200 7.810000
10.827500 2.076710 33.115900 -13.852800 5.440000
19.029600 2.292180 29.169100 -12.343200 10.110000
19.050500 1.907120 30.208600 -12.520800 7.090000
19.043800 1.930100 30.720200 -12.520800 10.810000
19.030300 1.953080 31.233500 -12.609600 7.730000
18.999800 2.319300 31.731300 -12.698400 10.890000
19.224400 2.230550 32.106400 -12.698400 5.500000
-3.929040 2.607280 37.624900 -14.296800 6.110000
19.197900 2.139110 32.630200 -12.698400 10.530000
-3.973690 2.636910 38.052400 -14.296800 10.900000
11.211700 -0.681950 36.668300 -13.941600 6.480000
11.338300 -0.569689 37.082100 -13.941600 8.290000
19.120800 2.067960 33.676200 -12.876000 11.490000
-17.137300 -2.307460 34.712500 -12.698400 13.020000
11.465300 -0.212224 37.497700 -13.941600 8.090000
-17.333700 2.090940 35.110400 -12.787200 6.040000
11.298800 -0.214556 37.997900 -13.941600 6.350000
9.853380 -1.301110 38.821600 -14.119200 10.710000
11.711300 -1.301110 38.302100 -13.941600 10.510000
9.724800 -2.066050 39.265500 -14.119200 6.900000
-30.470400 0.613998 28.604000 -9.679200 12.960000
-30.784600 0.620328 28.898900 -9.679200 9.600000
-31.098700 0.626658 29.193800 -9.679200 8.840000
-16.677700 -1.166600 41.113500 -13.231200 9.120000
11.939300 1.074020 43.180500 -14.030400 12.430000
12.283700 1.105000 44.426100 -14.030400 5.830000
-8.278690 2.505640 48.355100 -14.119200 7.530000
-17.368900 -1.915210 46.370300 -13.320000 8.650000
-7.833250 1.481030 49.781000 -14.208000 6.210000
-15.010300 -1.792710 48.095500 -13.586400 6.490000
-7.899440 1.650870 50.201700 -14.208000 6.980000
-17.180600 -1.808030 47.821500 -13.408800 8.010000
-16.470900 -0.122937 50.376300 -13.586400 8.200000
-2.481710 -0.129934 55.961800 -14.385600 10.190000
-2.500810 0.000000 56.392500 -14.385600 7.560000
-15.724600 -1.295250 60.010100 -13.941600 11.270000
15.019000 0.917833 60.641600 -14.119200 6.640000
-12.905700 -1.304240 61.119200 -13.941600 10.280000
15.122500 0.924163 61.059800 -14.119200 7.110000
34.476300 0.549713 54.669600 -12.520800 6.320000
13.248000 1.006450 67.212500 -14.296800 9.980000
15.668600 1.012780 67.132300 -14.208000 5.600000
-17.995500 6.897210 67.092800 -13.764000 5.900000
-18.106600 6.939780 67.506900 -13.764000 8.510000
16.059500 1.256630 68.807100 -14.208000 8.380000
16.157500 1.264290 69.226700 -14.208000 6.470000
16.256200 1.050760 69.649700 -14.208000 5.640000
16.451200 1.287280 70.485400 -14.208000 7.210000
16.002200 1.294940 71.030400 -14.208000 10.230000
16.096900 1.302600 71.450700 -14.208000 8.340000
16.191500 1.310260 71.871000 -14.208000 9.530000
16.843800 1.088740 72.167200 -14.208000 7.540000
16.569300 1.574080 73.547800 -14.208000 7.480000
16.667000 0.644997 73.981500 -14.208000 11.490000
16.761700 0.648662 74.401800 -14.208000 10.310000
17.431300 1.126720 74.684700 -14.208000 8.620000
16.661500 5.362700 76.003500 -14.208000 9.840000
16.359100 1.424220 95.551800 -14.296800 24.930000
16.430900 1.731690 95.971600 -14.296800 22.500000
16.502700 2.041810 96.390500 -14.296800 14.520000
-12.644500 2.354580 97.399700 -14.296800 8.210000
16.575300 2.050810 96.815100 -14.296800 6.650000
-13.453500 2.364900 97.726100 -14.208000 10.080000
-13.511500 2.605040 98.147100 -14.208000 10.950000
-10.901300 0.000000 112.801000 -14.296800 12.040000
-10.288000 0.000000 113.291000 -14.296800 12.250000
-11.191000 0.989484 115.799000 -14.296800 11.410000
-11.232400 0.993149 116.228000 -14.296800 9.040000
-11.274100 0.634340 116.660000 -14.296800 7.240000
-11.315600 0.636673 117.088000 -14.296800 8.220000
15.538200 4.247350 160.783000 -14.385600 6.750000
15.580600 3.882980 161.221000 -14.385600 11.370000
15.622000 3.893310 161.650000 -14.385600 13.660000
7.462950 1.276080 4.955670 -7.104000 4.000000
7.818330 1.336850 5.191650 -7.281600 5.870000
7.858600 0.936658 5.218400 -6.393600 3.050000
8.213250 1.009730 5.453890 -6.748800 2.430000
-7.324660 0.454261 6.000800 -8.791200 8.740000
-7.596800 0.474909 6.347050 -8.880000 8.380000
-7.798020 0.495558 6.774510 -9.057600 4.190000
-7.177580 0.615323 7.419730 -9.945600 6.240000
-7.189360 0.899904 8.545140 -10.656000 4.950000
-8.144390 0.907614 8.258450 -9.856800 5.410000
-7.048080 0.936311 10.276200 -11.544000 5.070000
-6.233280 1.003740 10.783800 -12.076800 6.730000
-7.208960 0.968598 10.686400 -11.544000 5.080000
-6.448220 1.038350 11.155700 -12.076800 7.640000
-6.575330 1.042080 11.580700 -12.165600 7.560000
-6.790590 0.990641 11.959800 -12.165600 4.630000
8.950200 0.802165 11.020400 -11.100000 6.180000
-5.957510 1.656390 12.804900 -12.609600 6.200000
8.846110 0.781231 11.652300 -11.455200 5.500000
9.221420 0.826473 11.354400 -11.188800 6.370000
-6.447420 1.517050 14.974800 -12.876000 4.920000
-6.615150 1.608710 15.364300 -12.876000 6.480000
-6.936380 0.359791 15.774600 -12.787200 7.240000
-6.637500 0.573607 16.362600 -12.964800 5.990000
-6.195280 1.523420 16.936000 -13.142400 5.400000
8.759610 -2.010810 15.708500 -12.432000 5.260000
-6.646250 0.674181 17.743700 -13.142400 8.070000
10.006600 -5.701520 15.599800 -12.343200 6.870000
-6.657230 0.689503 18.198800 -13.142400 6.270000
9.307070 -0.689503 16.996900 -12.520800 9.900000
9.513900 -0.704826 17.374600 -12.520800 10.830000
-6.162440 1.626750 19.223300 -13.320000 6.590000
9.612970 -0.970467 17.799000 -12.520800 8.500000
10.251600 -1.205010 17.424400 -12.254400 8.910000
18.238700 1.900650 12.111100 -8.169600 5.830000
-6.293560 1.661360 19.632300 -13.320000 8.980000
10.469700 -1.230650 17.795100 -12.254400 4.830000
18.596300 1.937920 12.348600 -8.169600 6.670000
18.953900 1.975190 12.586100 -8.169600 9.770000
-6.173310 0.244870 20.190000 -13.408800 4.410000
9.151680 0.577639 19.971300 -12.964800 3.880000
9.445960 0.796759 20.302800 -12.964800 4.310000
-5.204230 1.678900 21.729300 -13.586400 6.190000
9.621170 1.164900 20.679400 -12.964800 5.390000
-9.775660 1.358840 20.594900 -12.698400 4.160000
-5.304310 1.711190 22.147200 -13.586400 7.970000
-9.513150 1.384480 21.189900 -12.787200 8.820000
-5.576820 1.815230 22.517400 -13.586400 7.330000
-6.123770 1.702660 22.831300 -13.586400 7.920000
9.865490 1.435750 21.974700 -13.053600 10.590000
-5.923530 1.584720 23.338300 -13.586400 6.850000
-9.377940 1.487030 23.118200 -12.964800 7.610000
-10.708900 0.965934 22.561000 -12.609600 6.060000
-10.895900 0.825434 22.955000 -12.609600 6.890000
-5.181710 1.857450 25.261200 -13.675200 6.290000
8.882430 -0.853415 24.723900 -13.320000 7.140000
10.924000 -1.807320 23.839000 -12.876000 4.250000
-5.416440 1.888410 25.651400 -13.675200 6.370000
9.028040 -0.867406 25.129200 -13.320000 6.500000
11.103100 -1.836950 24.229800 -12.876000 5.090000
-5.507580 1.754510 26.083000 -13.675200 5.480000
9.280390 -2.682250 25.369700 -13.320000 5.170000
9.427700 -2.724820 25.772400 -13.320000 8.270000
10.331700 0.593654 26.489700 -13.320000 7.810000
-5.335000 1.011270 27.916200 -13.852800 7.700000
10.487500 0.691915 26.889200 -13.320000 4.660000
10.644100 0.702242 27.290500 -13.320000 9.130000
10.800600 0.712569 27.691800 -13.320000 4.980000
9.970550 1.258990 28.439600 -13.408800 15.850000
19.108300 1.922880 25.992200 -11.544000 6.930000
19.108400 1.948520 26.524100 -11.632800 6.010000
-19.983900 -0.409782 29.136800 -11.544000 6.940000
-20.228900 0.082958 29.494000 -11.544000 8.630000
-17.364600 -0.809529 34.666700 -12.432000 6.430000
-17.829900 -0.454758 34.920800 -12.432000 6.530000
19.037800 0.582349 34.767400 -12.609600 7.060000
20.053600 0.340822 34.693500 -12.432000 6.710000
11.416800 -1.177230 38.394900 -13.586400 5.890000
20.269200 0.344487 35.066600 -12.432000 4.120000
9.533500 0.601339 39.805400 -13.764000 8.420000
9.943580 0.607669 40.148900 -13.852800 5.360000
-17.631200 -0.226217 37.895900 -12.698400 11.050000
-3.467010 -8.409230 40.795600 -14.030400 7.670000
10.591900 -8.582620 40.422100 -13.764000 11.120000
-4.669750 2.175950 42.346900 -13.941600 10.560000
-4.470270 2.064820 42.807700 -13.941600 9.390000
-8.413880 1.043040 42.687100 -13.764000 9.810000
-8.829800 0.917466 43.045900 -13.764000 6.010000
21.695900 1.341790 40.171300 -12.609600 8.760000
21.896200 1.639490 40.542100 -12.609600 7.070000
22.100800 1.654810 40.921000 -12.609600 6.500000
-6.976830 1.594910 48.598500 -13.941600 7.670000
-7.321300 1.608900 48.983300 -13.852800 8.400000
15.751600 1.778220 65.767900 -13.764000 5.300000
15.469100 1.789550 66.277400 -13.852800 5.750000
15.954300 1.430170 66.614300 -13.852800 4.940000
16.052600 1.812200 67.024700 -13.852800 6.690000
16.158500 -0.160918 67.466700 -13.852800 9.480000
15.341700 0.161917 68.098900 -13.852800 5.950000
15.963100 0.814567 68.393800 -13.852800 8.410000
16.061000 0.819564 68.813400 -13.852800 6.630000
16.256200 1.050760 69.649700 -13.852800 5.910000
16.354800 0.834556 70.072200 -13.852800 6.060000
16.453200 0.615679 70.494000 -13.852800 6.960000
16.551200 0.619344 70.913600 -13.852800 5.530000
16.193500 0.626673 71.879700 -13.852800 7.170000
16.288200 0.630338 72.300100 -13.852800 6.130000
16.942400 0.864540 72.589700 -13.852800 5.700000
16.477100 0.869538 73.138500 -13.852800 7.520000
17.335000 0.412788 74.272000 -13.852800 8.220000
17.573100 -13.801300 73.373200 -13.852800 7.490000
17.477700 6.017150 74.883400 -13.852800 7.020000
17.252800 1.183690 78.700700 -13.852800 20.830000
17.346900 0.000000 79.130100 -13.852800 18.490000
17.439200 0.000000 79.551000 -13.852800 17.230000
16.451000 0.443105 80.199900 -13.852800 9.210000
16.186200 20.678500 78.908900 -13.941600 9.920000
26.958600 1.639740 88.168700 -13.675200 5.370000
27.085900 1.360920 88.585100 -13.675200 14.670000
27.211900 1.367250 88.997100 -13.675200 19.850000
17.062100 1.134400 96.308000 -13.941600 20.420000
17.137300 1.139390 96.732300 -13.941600 16.240000
17.212500 1.144390 97.156500 -13.941600 10.500000
17.286900 1.455870 97.576800 -13.941600 10.440000
15.664600 3.400020 162.090000 -14.030400 9.230000
15.706000 3.409020 162.518000 -14.030400 7.420000
-6.843040 0.583393 7.731820 -10.478400 5.180000
-7.627760 0.549481 7.586970 -9.856800 6.220000
-6.831300 1.163800 8.247770 -10.833600 4.030000
-7.856480 0.571461 7.966510 -9.945600 4.400000
-6.299690 1.210350 9.185050 -11.632800 2.790000
-6.594880 1.244790 8.970750 -11.277600 3.430000
-6.480210 1.042070 9.606140 -11.632800 5.810000
-6.643230 1.080670 10.013400 -11.632800 6.110000
-6.148020 1.051880 10.828100 -12.165600 4.070000
-6.721650 1.080760 10.478700 -11.721600 6.280000
-6.373590 0.689322 11.225400 -12.165600 8.420000
-6.883300 0.769153 10.914900 -11.810400 7.420000
-6.586050 0.712299 11.599600 -12.165600 9.490000
-6.614940 0.660744 12.080400 -12.165600 7.150000
8.300980 0.725316 11.522500 -11.721600 6.050000
-5.798860 1.317440 12.916600 -12.698400 5.150000
8.499040 1.796550 11.797400 -11.721600 6.140000
9.504530 0.781231 11.121800 -11.100000 4.640000
-6.076980 1.357360 13.261500 -12.698400 6.220000
9.695540 0.804209 11.523900 -11.100000 3.570000
-6.150310 1.397280 13.699400 -12.787200 3.120000
-6.189680 1.575290 14.608100 -12.876000 5.090000
-6.618960 1.505210 15.373200 -12.876000 6.380000
-6.237840 1.543810 15.993300 -13.053600 6.920000
-6.391980 1.636810 16.388500 -13.053600 4.720000
8.395780 -1.559690 16.443600 -12.787200 7.920000
7.186350 -2.731730 17.330900 -13.142400 6.550000
8.595350 -1.479070 16.834400 -12.787200 8.640000
8.431340 -1.273430 17.415000 -12.787200 8.280000
9.513900 -0.704826 17.374600 -12.698400 6.290000
-6.291620 0.532334 19.242900 -13.320000 6.170000
-6.425480 0.543660 19.652300 -13.320000 6.580000
8.784380 1.076980 19.169800 -13.053600 9.160000
8.963650 1.098960 19.561000 -13.053600 8.280000
9.263240 0.849356 19.910100 -13.053600 5.130000
-5.954590 1.678900 21.535800 -13.586400 8.140000
9.911700 0.866010 20.076700 -12.964800 9.340000
-9.431530 1.471520 20.271800 -12.787200 4.880000
-5.304310 1.711190 22.147200 -13.675200 8.940000
-9.956250 1.528120 20.975400 -12.698400 8.850000
-5.405620 1.671710 22.570200 -13.675200 8.800000
-9.343980 1.599920 21.249900 -12.876000 9.360000
-10.305000 1.556420 21.285000 -12.698400 10.290000
-5.820010 1.410110 22.930400 -13.586400 8.670000
-6.097800 1.882460 23.271200 -13.586400 6.020000
-5.239730 2.124260 23.901700 -13.852800 10.800000
-6.023940 1.916070 23.733900 -13.586400 10.870000
-10.883700 0.888693 22.480300 -12.698400 7.180000
-5.144050 2.161530 24.361400 -13.852800 6.630000
-10.894800 0.904015 22.952600 -12.698400 7.390000
-5.098530 1.591150 24.855700 -13.852800 8.250000
-9.221580 1.512670 23.643400 -13.142400 9.160000
-11.079400 0.919338 23.341600 -12.698400 4.730000
-5.184950 1.618120 25.277000 -13.852800 4.800000
9.018710 -2.713610 24.077600 -13.408800 7.830000
-5.622870 1.178340 25.649400 -13.764000 7.100000
8.980080 -2.758830 24.548800 -13.408800 7.680000
-5.867160 1.032550 26.043100 -13.852800 4.160000
10.179700 -2.721880 24.549900 -13.320000 5.090000
-4.732090 1.049200 26.710500 -13.852800 8.600000
8.759560 -1.470550 26.108100 -13.497600 8.670000
10.174500 0.671260 26.086500 -13.320000 7.780000
10.331000 0.681588 26.487800 -13.320000 10.300000
10.331900 0.691915 26.949300 -13.320000 11.170000
-5.327560 1.404080 28.778600 -13.852800 8.880000
10.486100 0.702242 27.351600 -13.320000 14.590000
-5.179880 1.516570 29.238100 -13.852800 19.010000
-5.249350 2.073970 29.630200 -13.941600 9.260000
-20.246800 0.683602 25.730500 -11.011200 6.560000
-20.056600 0.795185 26.419000 -11.011200 6.160000
-17.683500 -1.792240 28.525900 -11.810400 5.050000
-20.577600 0.815840 27.105200 -11.011200 6.350000
-21.045900 1.012670 27.283000 -11.011200 6.460000
10.950800 1.758340 32.639000 -13.586400 7.210000
11.087700 1.780320 33.047000 -13.586400 5.520000
-9.253210 1.824280 34.498800 -13.586400 8.550000
-18.826400 -1.030690 34.381400 -12.254400 10.180000
19.301700 0.950092 34.613500 -12.609600 7.390000
11.810300 -0.214556 37.842100 -13.675200 8.160000
19.512900 0.836513 34.992100 -12.609600 5.440000
11.716200 -0.588679 38.318200 -13.764000 10.200000
19.995900 0.720262 35.217400 -12.609600 11.020000
11.842200 -0.595009 38.730200 -13.764000 8.680000
20.211100 0.348152 35.596400 -12.609600 12.690000
10.070400 -0.221553 39.676800 -13.852800 5.690000
10.176400 -0.223885 40.094500 -13.852800 16.670000
-4.054870 2.512570 41.957900 -14.030400 16.160000
-4.095470 2.669890 42.378000 -14.030400 10.860000
-3.641690 2.696860 42.851100 -14.119200 8.790000
-3.683390 1.413030 43.341700 -14.030400 9.510000
-10.457100 1.413030 42.222300 -13.852800 10.020000
-8.497770 0.917466 43.112700 -13.852800 8.460000
-18.288600 -2.106120 39.910500 -12.787200 7.270000
-9.167490 0.926461 43.415700 -13.852800 9.500000
-17.822800 -3.051700 40.532200 -12.876000 8.830000
-4.440200 1.594910 48.895500 -14.030400 9.290000
-6.812540 1.777390 49.486100 -14.030400 5.370000
-6.486370 1.792710 49.964100 -14.030400 7.210000
-2.979860 0.841874 57.226000 -14.119200 7.860000
14.098300 0.487413 55.546400 -13.852800 5.820000
-3.002260 0.848204 57.656300 -14.119200 7.810000
13.448200 0.491077 56.150500 -13.852800 8.050000
-3.696140 0.674641 58.050000 -14.119200 6.900000
15.472800 1.000120 66.293100 -13.852800 11.080000
15.571300 0.794577 66.715400 -13.852800 7.010000
15.669300 0.799575 67.135000 -13.852800 7.430000
15.767700 0.590026 67.556700 -13.941600 7.730000
16.258600 0.377806 67.884900 -13.852800 5.800000
15.960700 1.466150 68.383500 -13.941600 5.860000
16.060300 1.038100 68.810600 -13.941600 6.660000
16.157500 1.264290 69.226700 -13.941600 5.710000
16.255400 1.271950 69.646200 -13.941600 7.520000
16.354800 0.834556 70.072200 -13.941600 10.620000
16.452700 0.839554 70.491800 -13.941600 8.130000
16.004100 0.619344 71.039000 -13.941600 9.570000
16.193900 0.398795 71.881300 -13.941600 18.480000
15.870000 0.630338 72.393000 -13.941600 17.920000
15.961800 0.864540 72.811600 -13.941600 11.940000
16.054100 0.869538 73.232500 -13.941600 6.740000
16.984000 -12.953500 72.768200 -13.852800 18.610000
16.761200 0.884530 74.399500 -13.941600 19.390000
16.857000 -0.177909 74.824700 -13.941600 18.690000
15.935100 -0.417452 75.465900 -13.941600 17.650000
17.046200 -0.419784 75.664500 -13.852800 12.190000
17.518100 1.171030 77.759000 -13.941600 14.010000
16.824400 0.944498 79.677700 -13.941600 9.460000
26.281400 0.784258 88.384600 -13.675200 6.040000
26.404200 0.787923 88.797600 -13.675200 8.620000
26.527000 0.791587 89.210600 -13.764000 8.680000
26.646600 1.662730 89.612700 -13.764000 8.340000
17.136600 1.443210 96.728300 -14.030400 8.910000
17.211800 1.449540 97.152600 -14.030400 8.880000
17.286900 1.455870 97.576800 -14.030400 8.340000
-12.813100 1.462200 98.698900 -14.030400 9.730000
-12.868600 1.468530 99.126200 -14.030400 8.680000
-12.924100 1.474860 99.553500 -13.941600 6.090000
-12.980800 0.545719 99.990100 -13.941600 6.640000
15.663500 3.903640 162.078000 -14.119200 11.210000
15.704900 3.913960 162.507000 -14.119200 12.770000
15.745400 4.303980 162.926000 -14.119200 9.450000
-7.498140 1.420130 7.603150 -9.945600 3.220000
-6.516780 1.486150 8.448060 -11.100000 5.100000
-6.992480 0.449640 8.182280 -10.567200 5.050000
-6.777460 1.545600 8.785980 -11.100000 4.250000
-5.929810 1.154970 10.443800 -12.165600 2.880000
-6.412970 1.015610 10.169100 -11.810400 7.510000
-6.141580 1.196220 10.816800 -12.165600 7.830000
-6.803570 1.051880 10.428700 -11.721600 7.260000
-6.441300 1.197670 11.143700 -12.165600 9.810000
-7.038170 1.088160 10.788300 -11.810400 5.830000
-6.570720 1.155300 11.572600 -12.165600 8.740000
8.675780 0.862996 10.682600 -11.277600 4.900000
8.218300 0.461684 11.595100 -11.810400 7.520000
8.861730 0.889964 11.085000 -11.366400 6.990000
-5.695500 1.233240 13.441700 -12.787200 3.030000
8.559160 0.475674 11.880800 -11.810400 7.460000
8.849810 0.656779 11.657200 -11.544000 6.750000
8.716380 0.489664 12.297800 -11.810400 3.510000
9.110100 0.676095 12.000000 -11.544000 5.400000
-5.963770 1.575290 14.701700 -13.053600 4.050000
-6.128600 1.517050 15.108100 -13.053600 5.230000
-6.635090 0.948013 15.410700 -12.964800 8.590000
-6.809220 0.772681 15.815100 -12.964800 8.000000
-6.116360 0.531653 17.024600 -13.231200 5.670000
8.196660 -1.621000 16.053600 -12.787200 6.830000
7.784610 -1.659590 16.732000 -12.876000 10.020000
8.097370 -1.698190 17.059200 -12.876000 10.850000
8.305270 -0.929171 17.497200 -12.964800 9.920000
8.751660 -2.607740 18.076600 -13.053600 5.180000
-6.291550 1.741050 19.626000 -13.497600 4.520000
-6.422620 1.777320 20.034900 -13.497600 6.000000
-5.725560 1.614330 20.707500 -13.586400 6.440000
9.084480 0.632920 19.525800 -13.142400 7.550000
9.266170 0.645578 19.916400 -13.142400 8.270000
9.759750 0.658237 20.158800 -13.053600 7.600000
-9.435190 1.333200 20.279700 -12.876000 6.240000
-5.600180 1.834420 22.064300 -13.675200 9.840000
-9.616640 1.358840 20.669600 -12.876000 9.220000
-5.575800 1.869030 22.513200 -13.764000 11.350000
8.891520 1.599920 21.443200 -13.231200 6.160000
-9.796230 1.456310 21.055700 -12.876000 6.900000
-5.692490 0.989209 22.984400 -13.764000 8.940000
9.056180 1.629550 21.840300 -13.231200 6.090000
-6.111110 1.007190 23.322000 -13.586400 8.620000
-6.357350 1.025180 23.702100 -13.586400 5.440000
-8.896550 1.748060 23.751400 -13.231200 6.020000
-5.668690 1.777690 25.162200 -13.852800 6.260000
10.039600 -0.640279 24.749300 -13.408800 8.950000
8.960060 -1.866570 25.557300 -13.497600 9.550000
9.102290 -1.896200 25.963000 -13.586400 10.460000
10.549300 1.406670 25.441200 -13.231200 7.150000
9.101630 -1.428650 26.449900 -13.586400 11.030000
10.317500 1.604330 26.453200 -13.408800 15.740000
-5.406430 1.985090 28.290000 -13.941600 7.670000
10.488300 0.602649 26.891000 -13.408800 16.780000
-5.321060 2.014720 28.743500 -13.941600 12.180000
10.644800 0.611644 27.292400 -13.408800 13.490000
-5.485040 1.352190 29.629300 -13.941600 9.310000
-4.343140 1.371510 30.253000 -13.941600 5.540000
-20.262300 0.590002 26.267100 -11.100000 10.090000
10.552700 0.487401 31.452600 -13.586400 8.130000
-20.779600 0.701592 26.407600 -11.100000 16.490000
10.689800 0.493731 31.861100 -13.586400 5.480000
-18.575500 -0.805513 27.999100 -11.632800 8.440000
-20.787300 0.710586 26.947700 -11.100000 17.730000
-18.813600 -0.815840 28.358000 -11.632800 4.540000
-21.050400 0.719581 27.288800 -11.100000 8.330000
-19.480800 -1.438850 28.403300 -11.544000 14.650000
11.089400 1.672510 33.052100 -13.586400 7.420000
-19.268000 -1.861170 29.042900 -11.632800 6.800000
11.226300 1.693160 33.460100 -13.586400 11.000000
-9.520280 1.713800 34.431700 -13.675200 7.430000
18.949100 2.022010 32.782700 -12.520800 6.250000
19.166800 1.956150 33.159300 -12.520800 8.930000
19.382100 1.978130 33.531900 -12.520800 7.600000
-18.084000 -1.636690 34.754400 -12.432000 12.270000
-17.738900 -1.654680 35.413900 -12.520800 11.470000
-4.671600 -0.720262 40.227900 -14.119200 6.300000
11.540600 -1.064670 38.811100 -13.764000 8.820000
-4.485940 -0.854503 40.680000 -14.030400 10.350000
-4.295460 -0.863497 41.133700 -14.119200 8.500000
-3.775720 2.002880 41.578200 -14.119200 9.170000
-30.550400 0.233213 30.387000 -9.856800 6.790000
-30.855900 0.235546 30.690900 -9.856800 8.240000
-16.648200 -2.219910 40.149500 -12.964800 6.680000
-9.077850 1.053360 42.991200 -13.852800 11.290000
-17.668600 -2.241880 40.181500 -12.876000 8.420000
-9.166320 1.166600 43.410200 -13.852800 6.600000
-17.841800 -2.263860 40.575500 -12.876000 9.150000
-17.980200 -3.599620 40.890300 -12.787200 8.610000
-15.870200 -0.244874 42.369100 -13.142400 7.220000
21.183900 1.329130 39.956700 -12.787200 8.330000
21.074100 1.341790 40.500900 -12.876000 8.480000
-3.279610 2.458580 45.923700 -14.119200 6.220000
19.769500 -0.534716 41.649400 -13.053600 10.850000
-2.980250 2.504540 46.806500 -14.119200 7.740000
-3.007590 2.527510 47.235900 -14.119200 7.500000
-3.035300 2.439700 47.671100 -14.119200 7.810000
-7.318770 2.068350 48.966400 -13.941600 5.680000
-7.097660 1.931870 49.440200 -14.030400 7.780000
-6.870480 1.948520 49.906900 -14.030400 6.360000
12.502100 1.650870 49.257600 -13.941600 5.200000
-7.641000 1.359150 51.122300 -13.941600 12.870000
13.146200 0.829214 54.889500 -13.941600 9.050000
13.246500 0.835544 55.308500 -13.941600 9.180000
13.346900 0.841874 55.727500 -13.941600 8.940000
-3.309530 1.683570 57.189300 -14.119200 9.590000
-12.811900 -1.331230 62.458800 -13.852800 4.880000
33.188700 0.571702 58.453100 -12.609600 10.830000
33.400400 0.784583 58.826000 -12.609600 5.960000
15.856800 0.579031 66.207300 -13.941600 6.740000
33.614200 0.579031 59.202500 -12.609600 8.360000
15.569900 1.218320 66.709400 -13.941600 6.480000
16.056400 1.012780 67.040600 -13.941600 6.190000
15.767700 0.590026 67.556700 -13.941600 8.980000
14.421900 0.000000 68.299800 -14.030400 11.020000
15.963100 0.814567 68.393800 -13.941600 10.400000
16.060300 1.038100 68.810600 -13.941600 9.320000
16.158300 1.044430 69.230200 -13.941600 8.340000
16.256200 1.050760 69.649700 -13.941600 16.450000
16.354100 1.057090 70.069300 -13.941600 8.760000
16.452100 1.063420 70.488900 -13.941600 17.240000
16.099400 0.169913 71.461800 -13.941600 6.990000
16.194100 0.170913 71.882100 -13.941600 12.710000
16.382900 -0.634003 72.720400 -13.941600 11.120000
16.477600 -0.637667 73.140800 -13.941600 19.120000
16.572900 -0.174911 73.563600 -13.941600 21.190000
16.661900 1.993420 73.958600 -13.941600 20.160000
16.761200 0.884530 74.399500 -13.941600 19.430000
16.855900 0.889527 74.819800 -13.941600 16.330000
16.516200 0.417452 75.340900 -13.941600 7.990000
16.701000 0.000000 76.183800 -13.941600 16.420000
17.288900 19.088500 74.074400 -13.941600 18.240000
16.809300 19.193400 74.613200 -13.941600 16.010000
16.572700 19.104100 75.598300 -13.941600 11.450000
26.280600 1.069430 88.381800 -13.764000 7.100000
26.403400 1.074430 88.794800 -13.764000 7.590000
26.526200 1.079430 89.207800 -13.764000 7.090000
26.649000 1.084420 89.620800 -13.764000 7.050000
16.577800 1.139390 96.829700 -14.030400 6.370000
16.649900 1.449540 97.250500 -14.030400 7.370000
16.721700 1.762340 97.670200 -14.030400 8.550000
-13.631500 1.777670 99.019100 -14.030400 7.160000
-13.690300 1.785330 99.445900 -14.030400 6.510000
-12.978900 1.792990 99.975700 -14.030400 11.590000
-11.315300 1.000480 117.086000 -14.119200 12.220000
-11.357200 0.273860 117.519000 -14.119200 8.540000
-11.398600 0.274860 117.948000 -14.119200 10.250000
15.622000 3.893310 161.650000 -14.208000 11.460000
15.663500 3.903640 162.078000 -14.208000 7.410000
15.702600 4.797530 162.484000 -14.208000 7.570000
-6.986780 0.679165 7.594230 -10.300800 5.690000
-7.185880 0.998057 7.963270 -10.389600 6.120000
-6.384770 1.516540 10.124400 -11.810400 2.170000
-6.701000 1.455610 10.446500 -11.810400 3.160000
-6.465720 0.419712 11.186000 -12.165600 5.160000
-6.721130 0.499621 11.031100 -11.988000 6.900000
-7.015160 1.505810 10.753000 -11.810400 6.540000
-6.681240 0.433703 11.558800 -12.165600 6.980000
-7.032810 0.516275 11.344900 -11.988000 7.310000
-7.206850 0.516275 11.235100 -11.810400 6.580000
-7.259680 0.532929 11.710900 -11.988000 6.430000
8.508400 0.905553 10.812900 -11.455200 3.150000
-6.438410 1.317440 12.610000 -12.520800 4.490000
8.774290 0.933851 11.150800 -11.455200 6.220000
-6.535030 1.312240 13.046500 -12.520800 4.890000
9.128450 0.962150 11.418700 -11.455200 6.020000
9.412300 0.489664 11.773700 -11.455200 2.920000
-6.282490 1.342060 14.591700 -12.964800 6.740000
-6.246630 1.466620 15.064600 -13.053600 5.460000
-6.316820 0.142925 15.572000 -13.142400 7.150000
-6.858380 1.414600 15.276500 -12.964800 7.310000
-6.478790 0.146590 15.971300 -13.142400 7.100000
-6.928020 0.919096 15.755600 -12.964800 7.000000
8.267150 1.602510 16.504500 -12.787200 6.610000
6.708850 1.559690 17.200900 -13.320000 5.710000
7.326790 0.214886 17.017200 -13.053600 7.160000
8.394110 1.602510 16.440300 -12.787200 7.690000
8.415010 1.455000 18.363700 -13.053600 5.410000
8.981160 1.443220 20.004900 -13.231200 8.100000
9.157260 1.471520 20.397200 -13.231200 3.530000
-5.890930 2.115880 21.963200 -13.675200 8.450000
9.342810 1.094360 20.810400 -13.231200 5.550000
-6.190060 1.384480 22.387400 -13.675200 8.400000
-9.339820 1.743480 21.240400 -13.053600 6.340000
-6.304690 1.410110 22.801900 -13.675200 9.600000
-9.512780 1.775760 21.633800 -13.053600 5.310000
-6.243130 1.230840 23.276300 -13.675200 5.420000
-9.061770 1.641310 23.233600 -13.320000 6.780000
-11.072500 0.825434 22.870300 -12.787200 4.960000
-5.092980 1.983300 24.828700 -13.852800 6.120000
-4.838280 2.016920 25.317000 -13.852800 4.680000
9.386340 -1.079140 24.065800 -13.408800 4.590000
11.060200 -1.777690 23.301100 -13.053600 6.180000
9.542780 -1.097120 24.466900 -13.408800 6.480000
11.061600 -1.807320 23.775400 -13.053600 8.580000
-5.508670 1.672050 26.088200 -13.852800 10.400000
9.556490 -1.032550 24.926700 -13.497600 7.800000
8.761960 -1.321490 26.115200 -13.764000 4.700000
-9.112000 1.406670 25.990700 -13.408800 3.810000
8.694180 -1.342140 26.591100 -13.764000 8.850000
10.329500 0.835454 26.484000 -13.497600 8.710000
-5.415210 1.115820 28.335900 -13.941600 15.580000
10.330400 0.848113 26.945400 -13.497600 18.570000
-5.496660 1.041920 28.762200 -13.852800 8.600000
10.642500 0.860771 27.286600 -13.497600 17.330000
-4.787130 1.241010 29.317900 -13.941600 8.740000
-9.073710 0.712569 28.304700 -13.497600 11.780000
-4.681110 1.701560 29.748900 -14.030400 6.420000
10.795300 0.629634 28.158000 -13.586400 6.800000
-4.513620 1.914770 30.198500 -14.030400 7.970000
10.949500 0.638628 28.560200 -13.586400 6.490000
-4.577190 1.941740 30.623800 -14.030400 6.770000
11.104400 0.551690 28.964200 -13.586400 9.050000
-4.640770 1.968710 31.049100 -14.030400 6.640000
11.389400 -2.647850 29.201600 -13.497600 8.230000
-20.514400 0.590002 26.070600 -11.011200 6.560000
10.832900 -0.582339 30.899300 -13.675200 5.000000
-20.780800 0.597664 26.409200 -11.011200 5.760000
-21.047200 0.605326 26.747800 -11.011200 14.350000
-18.590100 -1.105240 28.495300 -11.721600 5.860000
-21.521800 0.612989 26.921300 -11.011200 14.520000
-18.602400 -1.119230 29.000300 -11.810400 7.080000
-8.681200 1.802300 34.203300 -13.675200 9.750000
10.443900 1.824280 34.157100 -13.764000 6.400000
10.569800 1.846260 34.568700 -13.764000 5.900000
19.025100 1.317720 31.773600 -12.432000 7.240000
19.244100 1.448900 32.139300 -12.432000 5.940000
19.214200 1.465550 32.657800 -12.520800 10.250000
19.166800 1.956150 33.159300 -12.609600 9.660000
-4.019970 2.427180 38.495600 -14.119200 4.850000
-4.064640 2.454140 38.923400 -14.119200 7.090000
11.176100 -0.090954 37.585400 -13.764000 12.360000
-18.025100 0.582349 35.303100 -12.520800 10.200000
11.048000 2.970370 37.956200 -13.764000 7.290000
19.784200 0.588679 34.844500 -12.698400 11.230000
11.168100 3.002650 38.368700 -13.764000 10.950000
12.881900 -0.720262 38.394800 -13.764000 11.160000
-18.311900 0.223885 37.091800 -12.520800 9.850000
-30.547500 0.632988 30.384200 -9.768000 8.170000
-31.127300 0.632988 29.790000 -9.590400 8.320000
-3.035240 2.044180 42.501900 -14.119200 7.970000
-8.648610 2.064820 42.162600 -13.852800 6.220000
-8.742120 1.143950 42.618500 -13.852800 5.570000
-17.508900 -1.413030 39.818500 -12.876000 9.490000
-8.828670 1.155280 43.040500 -13.852800 5.020000
-16.280200 -1.155280 40.809100 -13.053600 6.690000
-3.218310 2.412630 45.065400 -14.119200 5.710000
-17.626600 -2.412630 41.599900 -12.964800 6.810000
-3.247210 2.858670 45.470100 -14.119200 4.930000
19.877600 2.329800 41.057200 -13.053600 7.580000
-2.923990 2.885640 45.922900 -14.208000 5.880000
20.065100 2.351780 41.444600 -13.053600 6.690000
-7.696910 1.915210 48.914600 -13.941600 7.300000
-16.750700 -1.034400 46.625000 -13.320000 6.150000
-7.763840 1.931870 49.340000 -14.030400 6.340000
-15.530200 -1.043390 47.499100 -13.408800 5.710000
-16.030800 -1.325170 47.780300 -13.408800 6.710000
-7.577330 1.347820 50.696200 -14.030400 11.230000
-15.646600 -1.506350 48.808400 -13.408800 8.200000
-7.641000 1.359150 51.122300 -14.030400 10.510000
-8.101750 1.370480 51.487400 -14.030400 8.600000
13.569400 0.654652 54.788800 -13.941600 8.100000
-2.955190 2.374100 56.752300 -14.208000 9.530000
13.673000 0.659649 55.207000 -13.941600 9.040000
-2.536770 2.392090 57.203500 -14.208000 10.660000
13.776600 0.664647 55.625200 -13.941600 5.820000
-14.689300 -0.949482 62.936500 -13.764000 12.490000
33.188700 0.571702 58.453100 -12.698400 11.670000
33.399100 0.993791 58.823600 -12.698400 7.100000
33.611800 1.000120 59.198200 -12.698400 10.660000
15.473400 0.789580 66.295800 -13.941600 6.910000
15.570700 1.006450 66.712700 -13.941600 7.150000
15.341600 0.377806 68.098000 -14.030400 8.420000
15.434800 1.031770 68.512000 -13.941600 6.530000
15.529500 1.038100 68.932300 -13.941600 9.010000
15.624200 1.044430 69.352700 -13.941600 10.880000
16.256200 1.050760 69.649700 -13.941600 8.650000
16.003600 0.844551 71.036800 -14.030400 7.190000
16.096900 1.302600 71.450700 -13.941600 10.730000
16.190600 1.538100 71.866700 -14.030400 9.970000
16.285300 1.547100 72.286900 -14.030400 16.070000
16.380900 1.325590 72.711500 -14.030400 18.010000
16.475600 1.333250 73.131900 -14.030400 10.180000
15.497800 -0.894524 75.552800 -14.030400 17.660000
16.549700 18.587800 73.460600 -14.030400 20.880000
17.170300 19.392700 73.566300 -14.030400 20.270000
17.265200 19.499900 73.972700 -14.030400 18.480000
17.438900 -0.440773 79.549900 -14.030400 21.690000
26.280600 1.069430 88.381800 -13.764000 6.930000
26.403400 1.074430 88.794800 -13.764000 6.860000
26.010100 1.079430 89.359700 -13.764000 12.190000
16.504500 1.436880 96.401100 -14.119200 13.740000
16.577200 1.443210 96.825800 -14.119200 11.920000
16.649900 1.449540 97.250500 -14.119200 7.400000
16.721700 1.762340 97.670200 -14.119200 6.900000
-12.813100 1.462200 98.698900 -14.030400 8.540000
-12.868600 1.468530 99.126200 -14.030400 6.850000
-12.924100 1.474860 99.553500 -14.030400 7.900000
-10.638600 0.636673 117.152000 -14.119200 11.270000
-10.677700 0.273860 117.582000 -14.119200 9.160000
-10.716600 0.274860 118.012000 -14.119200 8.200000
-10.755200 1.011470 118.437000 -14.119200 13.000000
23.631700 -8.495110 133.390000 -14.030400 9.650000
22.928300 -8.942340 133.922000 -14.030400 11.970000
23.000800 -8.970630 134.346000 -14.030400 10.020000
15.624000 2.888710 161.670000 -14.208000 4.750000
15.665500 2.896370 162.099000 -14.208000 9.560000
15.706000 3.409020 162.518000 -14.208000 13.320000
-6.221560 1.605040 9.699120 -11.810400 3.220000
-6.451990 1.664490 10.058300 -11.810400 5.510000
-6.659860 0.521583 10.560600 -11.988000 4.670000
-6.889510 0.539568 10.924800 -11.988000 6.450000
-7.203630 1.088160 10.678500 -11.721600 3.670000
-5.943330 1.525220 11.865200 -12.520800 2.440000
7.884030 1.124430 10.724300 -11.721600 3.120000
-6.135050 1.574420 12.248000 -12.520800 4.820000
-7.309680 1.532050 11.591100 -11.988000 3.900000
8.045650 0.820430 11.168100 -11.810400 3.730000
8.511700 0.820430 10.817100 -11.632800 4.630000
-6.149600 1.743710 12.702000 -12.698400 5.000000
8.777690 0.846069 11.155100 -11.632800 7.590000
-6.057170 1.796550 13.218300 -12.787200 4.230000
8.934140 0.826473 11.581800 -11.632800 6.190000
-6.237670 1.803090 13.612200 -12.787200 3.970000
-5.945420 0.632853 15.243600 -13.142400 4.050000
-6.583420 0.784633 14.971900 -12.964800 4.310000
-6.218820 0.857191 15.588500 -13.142400 6.420000
-6.548810 0.805281 15.455600 -12.876000 3.450000
-10.676500 1.505210 12.890200 -11.455200 3.170000
-6.378280 0.879170 15.988300 -13.142400 4.430000
-6.808240 0.825929 15.812800 -12.964800 3.930000
-10.950200 1.543810 13.220800 -11.455200 7.210000
-6.632360 0.901150 16.349900 -13.142400 4.480000
7.795570 1.419080 15.790300 -12.964800 4.640000
-11.224000 1.582400 13.551300 -11.455200 6.890000
7.282690 0.433738 16.562100 -13.142400 8.030000
-11.497700 1.621000 13.881800 -11.544000 3.360000
-6.730420 0.487029 17.256200 -13.231200 10.220000
0.380670 1.592140 19.753700 0.976800 16.780000
0.505607 1.626750 20.180500 0.976800 16.470000
-5.913340 6.934530 18.085900 -13.586400 6.560000
0.635609 1.613540 20.610400 0.976800 14.130000
-6.039160 7.082080 18.470700 -13.586400 7.120000
0.000000 1.386630 21.068500 0.888000 7.990000
0.124272 1.414930 21.498100 0.888000 4.520000
-5.549450 1.900650 21.178600 -13.764000 4.170000
8.990250 1.053060 20.025200 -13.320000 6.820000
-5.658270 1.937920 21.593800 -13.764000 4.480000
-5.601210 1.781610 22.068400 -13.764000 7.920000
-9.495200 1.429340 20.721000 -13.053600 9.380000
-5.704020 1.958680 22.473400 -13.764000 9.390000
-9.511350 1.456310 21.185900 -13.053600 10.750000
-5.500400 1.994950 22.965900 -13.852800 7.870000
-9.693880 1.208860 21.592400 -13.053600 9.180000
-6.227840 2.086990 23.219300 -13.764000 5.580000
-9.403420 1.156300 22.192700 -13.231200 7.460000
-9.563560 1.537210 22.570600 -13.231200 8.070000
-9.727380 1.718430 22.957200 -13.231200 5.420000
-9.214080 1.826490 23.624100 -13.320000 5.260000
-9.370250 1.857450 24.024500 -13.320000 5.260000
-5.266870 1.969480 25.676400 -13.941600 5.540000
11.052000 -2.111310 23.754800 -13.142400 5.890000
9.293080 -3.440000 24.810100 -13.497600 8.580000
11.089900 -2.248860 24.201000 -13.231200 7.660000
10.199100 -0.881396 25.142500 -13.586400 8.160000
11.823200 -0.881396 24.420900 -13.408800 7.230000
11.268800 -2.285130 24.591400 -13.231200 9.030000
9.118110 -0.980627 26.008100 -13.675200 10.370000
10.743800 -1.470550 25.356100 -13.408800 9.680000
11.447700 -2.321400 24.981700 -13.231200 8.050000
-5.163430 2.043200 27.892000 -14.030400 6.660000
10.176300 0.835454 26.543300 -13.586400 16.190000
-9.404940 0.835454 26.826300 -13.408800 16.340000
-5.786240 2.074150 28.208400 -14.030400 6.610000
10.331300 0.758859 26.947800 -13.586400 16.370000
-4.938170 1.494590 28.843400 -14.030400 7.730000
10.487500 0.521040 27.355100 -13.586400 11.590000
-5.405900 1.424730 29.201800 -14.030400 6.880000
-8.856430 0.528703 28.377500 -13.586400 6.770000
-5.652890 1.701560 29.579700 -14.030400 4.690000
10.189400 1.258990 28.361900 -13.675200 6.060000
10.335000 1.276980 28.767100 -13.675200 8.360000
-4.572210 2.420300 30.590400 -14.119200 6.300000
10.646100 1.486670 29.103100 -13.675200 8.270000
-4.635710 2.453920 31.015300 -14.119200 6.630000
9.994120 1.507320 29.787700 -13.764000 6.800000
11.923400 -2.994170 29.887900 -13.408800 8.870000
10.169600 -1.265710 31.103600 -13.764000 5.360000
-20.511700 0.795185 26.067300 -11.100000 5.130000
10.790300 -1.077260 31.357200 -13.764000 5.040000
-20.778100 0.805513 26.405800 -11.100000 5.680000
-21.044500 0.815840 26.744300 -11.100000 6.920000
-21.309700 0.906101 27.081300 -11.100000 6.680000
10.839900 1.241110 33.153700 -13.764000 6.590000
10.973700 1.256430 33.563000 -13.764000 16.840000
-18.911000 -4.658020 29.481400 -0.355200 11.990000
11.103400 1.603310 33.959600 -13.764000 7.770000
19.058400 1.603310 30.221200 -12.432000 10.730000
18.951400 1.934170 32.786700 -12.698400 7.900000
19.164400 2.044990 33.155300 -12.698400 8.310000
-4.019970 2.427180 38.495600 -14.208000 9.250000
19.379800 2.067960 33.527800 -12.698400 6.180000
-3.764520 2.454140 38.953500 -14.208000 6.330000
-17.333700 2.090940 35.110400 -12.698400 7.080000
-18.631700 -0.576019 34.497800 -12.432000 11.040000
-3.578180 2.481110 39.402900 -14.208000 6.850000
19.306600 -0.337158 34.622200 -12.787200 10.270000
-18.836500 -0.582349 34.876900 -12.432000 7.690000
19.517100 -0.092953 34.999700 -12.787200 8.540000
11.019900 -0.093952 38.976600 -13.941600 13.170000
19.727000 0.000000 35.376100 -12.787200 11.380000
11.137100 -0.094951 39.391300 -13.941600 9.720000
9.941800 -0.991400 40.141700 -14.030400 8.430000
10.825000 -1.001730 40.358800 -13.941600 13.470000
-3.815700 1.762590 42.018500 -14.296800 8.110000
-30.531700 0.494737 29.788800 -9.856800 8.430000
-3.854640 1.780580 42.447300 -14.296800 7.860000
-30.838800 0.632988 30.088500 -9.856800 5.790000
-8.653990 1.399040 42.188900 -14.030400 7.970000
-31.147200 0.639318 30.389300 -9.856800 7.980000
-8.740530 1.413030 42.610700 -13.941600 6.470000
-16.968500 -1.547550 40.046800 -13.053600 9.000000
-8.827910 1.291160 43.036700 -13.941600 6.100000
-17.680400 -1.562870 40.208500 -13.053600 9.350000
-8.914460 1.303810 43.458700 -13.941600 5.370000
-17.818900 -3.188630 40.523400 -12.964800 7.580000
-16.794100 -3.496000 41.400400 -13.142400 6.020000
-17.974500 -3.772270 40.877200 -12.964800 7.610000
-16.164700 -2.831700 42.163300 -13.231200 7.710000
-15.990100 -2.858670 42.689400 -13.231200 5.490000
-16.141000 -2.885640 43.092100 -13.320000 9.240000
23.287900 -1.146310 41.761900 -12.787200 5.880000
-7.256040 1.898560 48.546600 -14.119200 8.230000
-7.318770 2.068350 48.966400 -14.119200 8.590000
-15.247300 -1.931870 47.562900 -13.497600 6.560000
-15.378800 -1.948520 47.972900 -13.497600 4.940000
-15.508300 -2.122300 48.376900 -13.497600 10.380000
-7.577330 1.347820 50.696200 -14.119200 13.750000
-15.637600 -2.298720 48.780300 -13.497600 11.960000
-7.641000 1.359150 51.122300 -14.119200 9.880000
-15.769000 -2.318040 49.190300 -13.497600 6.880000
-7.704680 1.370480 51.548300 -14.119200 6.080000
13.044400 1.169320 54.464500 -14.030400 11.440000
13.567400 1.178310 54.780500 -14.030400 7.620000
-2.519500 1.011430 56.814000 -14.296800 8.920000
13.670900 1.187310 55.198700 -14.030400 6.700000
-2.538580 1.019090 57.244400 -14.296800 5.740000
13.343700 1.506390 55.714200 -14.030400 7.000000
-2.223820 1.517720 57.677800 -14.296800 8.780000
-2.240420 1.529040 58.108200 -14.296800 9.510000
34.851800 0.333495 50.814400 -12.165600 8.090000
35.095900 0.143927 51.170400 -12.165600 5.800000
35.339700 0.000000 51.525900 -12.165600 5.750000
15.328900 1.134030 61.893100 -14.030400 9.780000
15.569900 1.218320 66.709400 -14.119200 8.270000
15.667800 1.225980 67.128900 -14.119200 6.470000
15.341200 0.593690 68.096600 -14.119200 8.040000
15.960700 1.466150 68.383500 -14.119200 9.570000
16.256200 1.050760 69.649700 -14.119200 7.480000
16.551200 0.619344 70.913600 -14.119200 8.270000
17.060600 0.849548 71.233500 -14.119200 10.120000
16.190600 1.538100 71.866700 -14.119200 9.220000
16.285300 1.547100 72.286900 -14.119200 7.150000
16.379900 1.556090 72.707200 -14.119200 18.320000
16.475600 1.333250 73.131900 -14.119200 17.470000
16.143900 1.574080 73.642300 -14.119200 7.680000
26.276600 1.924880 88.368500 -13.941600 19.990000
26.401000 1.647410 88.786800 -13.941600 9.190000
26.523800 1.655070 89.199700 -13.941600 10.650000
26.646600 1.662730 89.612700 -13.941600 10.290000
16.505100 1.134400 96.405000 -14.208000 11.160000
16.577800 1.139390 96.829700 -14.208000 10.300000
16.650600 1.144390 97.254400 -14.208000 9.010000
-13.631500 1.777670 99.019100 -14.119200 8.040000
-13.691000 1.474860 99.450900 -14.119200 6.570000
-11.859400 0.971160 113.567000 -14.208000 14.040000
-11.904200 0.974825 113.995000 -14.208000 13.570000
-11.948900 0.978490 114.424000 -14.208000 8.550000
-11.108100 0.982155 114.942000 -14.208000 5.450000
-11.315300 1.000480 117.086000 -14.296800 11.120000
-11.356800 1.004140 117.515000 -14.208000 12.010000
-11.398200 1.007810 117.944000 -14.208000 9.520000
-11.439700 1.011470 118.373000 -14.208000 7.710000
-53.880800 -13.884600 120.016000 -12.787200 8.450000
-54.056300 -13.929900 120.407000 -12.787200 5.960000
23.636200 -8.076110 133.415000 -14.208000 4.730000
22.937200 -8.101750 133.974000 -14.208000 7.430000
15.664600 3.400020 162.090000 -14.385600 11.740000
15.706000 3.409020 162.518000 -14.296800 11.080000
