VERSION .7
FIELDS x y z velocity intensity
SIZE 4 4 4 4 4
TYPE F F F F F
COUNT 1 1 1 1 1
WIDTH 847
HEIGHT 1
VIEWPOINT 0 0 0 1 0 0 0
POINTS 847
DATA ascii
-6.980580 0.735762 8.731910 -11.011200 5.690000
-7.163550 1.077900 9.103770 -11.011200 6.120000
-6.332050 1.624860 11.152200 -12.165600 2.170000
-6.639260 1.556000 11.486200 -12.165600 3.160000
-6.361380 0.447693 12.225500 -12.520800 5.160000
-6.617600 0.532929 12.085300 -12.343200 6.900000
-6.944610 1.606190 11.803500 -12.165600 6.540000
-6.560180 0.461684 12.607600 -12.520800 6.980000
-6.920260 0.549583 12.410000 -12.343200 7.310000
-7.110720 0.549583 12.301800 -12.165600 6.580000
-7.129960 0.566237 12.786100 -12.343200 6.430000
8.453510 0.962150 11.927000 -11.899200 3.150000
-6.334520 1.397280 13.615200 -12.787200 4.490000
8.702150 0.990448 12.277800 -11.899200 6.220000
-6.436270 1.389430 14.045600 -12.787200 4.890000
9.047850 1.018750 12.559200 -11.899200 6.020000
9.314380 0.517645 12.929200 -11.899200 2.920000
-6.363930 1.450870 15.952300 -13.142400 6.740000
-6.298920 1.582400 16.429800 -13.231200 5.460000
-6.347930 0.153920 16.947300 -13.320000 7.150000
-6.907430 1.523420 16.658200 -13.142400 7.310000
-6.499070 0.157585 17.350800 -13.320000 7.100000
-6.955040 0.988028 17.145400 -13.142400 7.000000
0.483709 1.736780 19.306500 0.976800 11.390000
8.148910 1.677050 17.515000 -13.053600 6.610000
0.494458 1.775380 19.735500 0.976800 17.160000
6.785310 1.668510 18.549000 -13.497600 5.710000
7.450380 0.229878 18.366500 -13.231200 7.160000
8.467750 1.714310 17.839500 -13.053600 7.690000
-0.396176 2.234490 20.558300 0.976800 13.900000
-0.808709 2.281040 20.974900 0.976800 7.730000
8.498080 1.547880 19.737600 -13.231200 5.410000
-1.140750 1.307560 21.907300 0.799200 5.610000
0.422665 1.307560 21.932900 0.976800 6.960000
0.131779 1.358840 22.796900 0.976800 5.820000
0.134404 0.899318 23.250800 0.976800 4.840000
9.058410 1.528120 21.378400 -13.408800 8.100000
9.226160 1.556420 21.774300 -13.408800 3.530000
-5.910820 2.235650 23.288200 -13.764000 8.450000
9.403420 1.156300 22.192700 -13.408800 5.550000
-6.214630 1.461390 23.717100 -13.764000 8.400000
-9.381310 1.840340 22.624400 -13.231200 6.340000
-6.323660 1.487030 24.133200 -13.764000 9.600000
-9.545890 1.872620 23.021300 -13.231200 5.310000
-6.246230 1.296780 24.609700 -13.764000 5.420000
-9.200040 1.726210 24.561700 -13.408800 6.780000
-10.944100 0.853415 23.882900 -12.964800 4.960000
-5.150690 2.084150 26.131600 -13.941600 6.120000
-4.926440 2.117770 26.611800 -13.941600 4.680000
9.513940 -1.133090 25.399700 -13.497600 4.590000
11.092100 -1.866570 24.706800 -13.231200 6.180000
9.664960 -1.151080 25.802900 -13.497600 6.480000
11.268100 -1.896200 25.099000 -13.231200 8.580000
-5.617030 1.752960 27.383400 -13.941600 10.400000
9.614900 -1.082510 26.284200 -13.586400 7.800000
8.803110 -1.383430 27.460600 -13.852800 4.700000
-9.171280 1.472610 27.335200 -13.497600 3.810000
8.719430 -1.404080 27.938500 -13.852800 8.850000
10.424600 0.873429 27.831000 -13.586400 8.710000
-5.486460 1.165780 29.636900 -14.030400 15.580000
10.357800 0.886088 28.315000 -13.586400 18.570000
-5.565470 1.087880 30.063700 -13.941600 8.600000
10.726800 0.898746 28.637700 -13.586400 17.330000
-4.818340 1.294960 30.621000 -14.030400 8.740000
-9.069000 0.743550 29.660400 -13.586400 11.780000
-4.642480 1.774490 31.060600 -14.119200 6.420000
10.804000 0.656618 29.534800 -13.675200 6.800000
-4.522320 1.995680 31.501100 -14.119200 7.970000
10.952000 0.665613 29.939400 -13.675200 6.490000
-4.583440 2.022650 31.926800 -14.119200 6.770000
11.100700 0.574677 30.345800 -13.675200 9.050000
-4.644550 2.049610 32.352500 -14.119200 6.640000
11.446400 -2.756660 30.558800 -13.586400 8.230000
-20.370700 0.605326 27.266600 -11.277600 6.560000
10.826300 -0.605326 32.268000 -13.764000 5.000000
-20.628500 0.612989 27.611700 -11.277600 5.760000
-20.886400 0.620651 27.956800 -11.277600 14.350000
-18.608100 -1.133220 29.507100 -11.899200 5.860000
-21.361800 0.628313 28.138200 -11.277600 14.520000
-18.607000 -1.147210 30.015700 -11.988000 7.080000
-8.793700 1.868240 35.506100 -13.764000 9.750000
-21.979700 -4.491370 28.952100 -0.444000 8.740000
10.548300 1.890220 35.474100 -13.852800 6.400000
10.671000 1.912200 35.886600 -13.852800 5.900000
18.964100 1.348360 32.808700 -12.609600 7.240000
19.177400 1.482210 33.177700 -12.609600 5.940000
19.133700 1.498860 33.699000 -12.698400 10.250000
19.072500 2.000110 34.202500 -12.787200 9.660000
-3.847260 2.508080 39.809700 -14.208000 4.850000
-3.888630 2.535050 40.237700 -14.208000 7.090000
11.319900 -0.093952 38.890500 -13.852800 12.360000
-17.928800 0.595009 36.315700 -12.698400 10.200000
11.105800 3.067230 39.280600 -13.852800 7.290000
19.658600 0.601339 35.901200 -12.876000 11.230000
11.222700 3.099510 39.694100 -13.852800 10.950000
12.987300 -0.743249 39.721400 -13.852800 11.160000
-18.107600 0.228549 38.148200 -12.698400 9.850000
-30.555500 0.645648 31.586400 -10.034400 8.170000
-31.158500 0.645648 30.991800 -9.856800 8.320000
-3.127210 2.106120 43.789800 -14.208000 7.970000
-8.573090 2.126770 43.494900 -13.941600 6.220000
-8.663290 1.177930 43.952500 -13.941600 5.570000
-17.474400 -1.455000 41.240600 -12.964800 9.490000
-8.746590 1.189260 44.375100 -13.941600 5.020000
-16.434700 -1.189260 42.137300 -13.142400 6.690000
-3.310260 2.481560 46.352900 -14.208000 5.710000
-17.799900 -2.481560 42.926900 -13.053600 6.810000
-3.339110 2.939580 46.756900 -14.208000 4.930000
20.114100 2.395740 42.375500 -13.142400 7.580000
-3.005970 2.966550 47.210500 -14.296800 5.880000
20.298700 2.417720 42.764300 -13.142400 6.690000
-7.510630 1.965180 50.250000 -14.030400 7.300000
-16.818500 -1.061380 47.972400 -13.408800 6.150000
-7.574280 1.981830 50.675900 -14.119200 6.340000
-15.649900 -1.070380 48.818800 -13.497600 5.710000
-16.063700 -1.359150 49.130700 -13.497600 6.710000
-7.467780 1.381800 52.018300 -14.119200 11.230000
-15.654900 -1.544320 50.161000 -13.497600 8.200000
-7.529000 1.393130 52.444700 -14.119200 10.510000
-7.895700 1.404460 52.826300 -14.119200 8.600000
13.447800 0.669644 56.148800 -14.030400 8.100000
-3.022360 2.428060 58.042200 -14.296800 9.530000
13.548200 0.674641 56.567800 -14.030400 9.040000
-2.593990 2.446040 58.493800 -14.296800 10.660000
13.648500 0.679639 56.986800 -14.030400 5.820000
-14.487900 -0.968472 64.308800 -13.852800 12.490000
33.156900 0.579031 59.459800 -12.787200 11.670000
33.364400 1.006450 59.831800 -12.787200 7.100000
33.574200 1.012780 60.208100 -12.787200 10.660000
15.767200 0.804572 67.554600 -14.030400 6.910000
15.864500 1.025440 67.971400 -14.030400 7.150000
15.625700 0.384802 69.359100 -14.119200 8.420000
15.718900 1.050760 69.773000 -14.030400 6.530000
15.813600 1.057090 70.193300 -14.030400 9.010000
15.908300 1.063420 70.613600 -14.030400 10.880000
16.550000 1.069750 70.908500 -14.030400 8.650000
16.287700 0.859543 72.297800 -14.119200 7.190000
16.380900 1.325590 72.711500 -14.030400 10.730000
16.474600 1.565090 73.127500 -14.119200 9.970000
16.569300 1.574080 73.547800 -14.119200 16.070000
16.665000 1.348580 73.972400 -14.119200 18.010000
16.759700 1.356240 74.392700 -14.119200 10.180000
15.757500 -0.909516 76.819000 -14.119200 17.660000
16.825500 18.897600 74.685000 -14.119200 20.880000
17.454900 19.714200 74.785600 -14.119200 20.270000
17.549800 19.821300 75.192000 -14.119200 18.480000
17.715700 -0.447770 80.812500 -14.119200 21.690000
26.649000 1.084420 89.620800 -13.852800 6.930000
26.771800 1.089420 90.033800 -13.852800 6.860000
26.371400 1.094420 90.600800 -13.852800 12.190000
16.722600 1.455870 97.675100 -14.208000 13.740000
16.795300 1.462200 98.099800 -14.208000 11.920000
16.868000 1.468530 98.524500 -14.208000 7.400000
16.939900 1.785330 98.944200 -14.208000 6.900000
-12.979600 1.481190 99.980700 -14.119200 8.540000
-13.035000 1.487520 100.408000 -14.119200 6.850000
-13.090500 1.493850 100.835000 -14.119200 7.900000
-10.755500 0.643669 118.439000 -14.208000 11.270000
-10.794600 0.276859 118.870000 -14.208000 9.160000
-10.833500 0.277858 119.299000 -14.208000 8.200000
-10.872200 1.022470 119.724000 -14.208000 13.000000
23.856800 -8.576020 134.661000 -14.119200 9.650000
23.145900 -9.027230 135.193000 -14.119200 11.970000
23.218500 -9.055530 135.617000 -14.119200 10.020000
15.748400 2.911700 162.957000 -14.296800 4.750000
15.789800 2.919360 163.386000 -14.296800 9.560000
15.830300 3.436000 163.805000 -14.296800 13.320000
-7.499060 0.467626 8.310330 -10.212000 9.590000
-7.703980 0.485611 8.704580 -10.300800 8.670000
-6.894690 0.503597 9.888310 -11.277600 8.600000
-7.919500 0.503597 9.088280 -10.389600 5.200000
-7.138950 0.598799 10.238600 -11.277600 9.420000
-7.295880 0.848956 10.637500 -11.366400 7.170000
-7.623570 0.877254 10.933700 -11.366400 4.680000
-6.066270 1.532050 12.287600 -12.432000 4.520000
-6.264020 1.404990 12.688100 -12.432000 5.780000
-6.352890 1.447560 13.121900 -12.520800 9.500000
8.809340 0.517645 13.278400 -11.899200 7.530000
8.836150 0.531636 13.775100 -11.988000 10.250000
9.066680 0.649507 14.134500 -11.988000 10.270000
9.066920 0.972321 14.626200 -12.076800 7.430000
-6.489010 1.639780 17.739000 -13.053600 5.430000
-6.534880 1.557530 18.189600 -12.964800 7.620000
-11.307600 1.424050 16.217200 -11.632800 4.510000
-6.680100 1.592140 18.593800 -12.964800 5.570000
8.589840 -2.979950 18.096700 -12.787200 7.200000
8.698280 -1.613540 18.695800 -12.787200 8.250000
8.605310 -2.086190 19.167700 -12.876000 10.800000
8.904150 -2.708100 19.431100 -12.876000 11.870000
9.082230 -2.762260 19.819800 -12.876000 8.610000
-5.954590 1.678900 21.535800 -13.408800 5.370000
10.023600 1.073710 20.011000 -12.609600 7.860000
-6.084460 0.547335 22.005500 -13.408800 8.970000
10.096700 1.164900 20.451400 -12.698400 6.780000
-6.199260 0.557663 22.420700 -13.408800 9.630000
9.408280 0.858049 22.204200 -13.053600 4.760000
-6.213450 1.537210 23.712600 -13.497600 4.550000
9.706760 0.873371 22.544900 -13.053600 8.130000
-6.213450 1.537210 23.712600 -13.497600 4.170000
9.875920 0.965934 22.937800 -13.053600 9.160000
-5.809670 1.564180 24.257200 -13.497600 7.190000
10.044900 1.061150 23.330400 -13.053600 7.120000
-5.575380 1.669610 24.748000 -13.497600 9.320000
-6.007550 1.777690 25.083400 -13.497600 5.590000
-6.107680 1.807320 25.501500 -13.497600 8.890000
-4.935070 1.384690 26.658400 -13.675200 6.740000
-4.804530 1.406670 27.119400 -13.764000 6.870000
11.622700 -1.867700 25.888700 -12.964800 5.000000
9.544420 -1.115820 27.224100 -13.231200 4.140000
9.895570 -1.404080 27.543900 -13.231200 5.110000
11.566800 -1.743410 26.865000 -12.964800 6.100000
10.631200 -1.424730 27.729900 -13.231200 8.300000
9.072400 0.873429 28.300600 -13.497600 9.110000
10.347500 -1.608420 28.286900 -13.142400 6.930000
10.505700 0.898746 28.719500 -13.320000 6.250000
10.485200 0.911405 29.185100 -13.320000 13.830000
10.630800 0.924063 29.590400 -13.320000 17.500000
19.018000 1.526040 28.191900 -11.810400 5.300000
19.258700 1.545360 28.548800 -11.810400 8.270000
19.273300 1.672510 29.050900 -11.899200 15.490000
-20.203400 0.846821 28.975600 -11.366400 10.450000
11.232100 -1.256430 33.477400 -13.408800 7.200000
-20.449800 0.857148 29.328900 -11.366400 7.010000
11.232100 -1.256430 33.477400 -13.497600 6.660000
20.213200 -1.930100 29.963700 -11.810400 17.910000
-20.696200 0.867475 29.682300 -11.366400 7.580000
9.726970 -0.940080 34.403700 -13.497600 7.210000
20.686900 -1.953080 30.161900 -11.810400 14.720000
10.312900 -0.951406 34.682300 -13.497600 6.660000
-19.206500 1.817040 32.644700 -11.899200 5.470000
-16.933400 -1.343080 37.717900 -12.698400 7.220000
-19.091200 -0.735587 36.690100 -12.343200 7.130000
19.862300 0.096950 36.776300 -12.520800 7.450000
19.780100 0.097950 37.309000 -12.520800 8.320000
19.981900 0.098949 37.689700 -12.520800 15.460000
20.476400 0.233213 37.913200 -12.520800 17.160000
10.347100 2.064820 41.778200 -13.675200 6.390000
11.246600 -1.063690 42.920900 -13.675200 7.690000
-16.343700 -1.341790 42.630100 -12.964800 9.380000
-16.497900 -1.354450 43.032300 -12.964800 6.460000
-15.821700 -0.850522 45.129200 -13.053600 7.900000
24.195600 -1.948520 44.186900 -12.432000 5.410000
-6.600380 0.911821 50.842400 -13.764000 7.370000
-6.653390 1.678850 51.250700 -13.852800 6.900000
-6.709480 1.531670 51.682700 -13.852800 7.830000
-6.764930 1.544320 52.109800 -13.764000 12.600000
-17.272600 -0.816555 52.828100 -13.231200 5.140000
22.231800 1.766900 63.413000 -13.320000 5.860000
22.003100 1.987370 63.942300 -13.320000 5.510000
16.358100 0.814567 68.300400 -13.764000 7.980000
16.459000 0.601020 68.721500 -13.764000 7.340000
15.909400 0.615679 70.618700 -13.764000 15.240000
16.550700 0.844551 70.911400 -13.764000 8.190000
16.649100 0.623008 71.333200 -13.764000 6.280000
16.747600 0.170913 71.755200 -13.764000 10.280000
16.989500 5.849070 72.791700 -13.764000 16.710000
16.239400 0.410456 74.078200 -13.764000 16.340000
16.331400 0.648662 74.497500 -13.764000 5.630000
16.423600 0.652327 74.918400 -13.764000 12.580000
16.515900 0.655991 75.339200 -13.764000 6.420000
16.608500 0.419784 75.761800 -13.764000 5.640000
16.654100 5.843870 75.969600 -13.764000 13.220000
16.749900 5.634270 76.406700 -13.764000 19.830000
16.015800 -1.417540 78.078200 -13.764000 13.810000
26.894600 1.094420 90.446800 -13.586400 10.400000
27.017400 1.099420 90.859800 -13.586400 8.090000
27.140200 1.104410 91.272800 -13.586400 6.450000
27.261900 1.405230 91.682100 -13.586400 8.340000
16.941400 1.164380 98.953200 -13.852800 8.720000
17.014600 0.857553 99.381000 -13.852800 7.270000
17.087700 -0.548051 99.807800 -13.852800 8.550000
17.160400 -0.550384 100.233000 -13.852800 7.160000
-18.587500 1.500180 100.406000 -13.852800 10.640000
-18.666600 1.189370 100.834000 -13.852800 14.620000
-7.212180 -0.129931 8.572270 -10.567200 7.770000
-6.344450 0.728153 9.724950 -11.632800 3.160000
-6.970250 0.897768 10.332600 -11.455200 8.680000
-6.322250 1.196450 11.706000 -12.165600 3.550000
7.786110 1.000880 10.807800 -11.544000 4.040000
8.498660 0.959683 10.260900 -11.011200 4.570000
-6.074200 1.362410 12.303600 -12.432000 5.750000
8.119540 1.489660 11.044700 -11.544000 4.880000
-6.264020 1.404990 12.688100 -12.432000 4.540000
7.995760 1.536210 11.657900 -11.810400 8.900000
-6.364670 1.142920 13.146300 -12.432000 5.150000
8.238060 1.582760 12.011200 -11.810400 9.070000
-6.661910 0.990448 13.494100 -12.432000 6.280000
-6.057550 0.990448 13.775900 -12.698400 5.380000
-6.336940 1.114470 14.115100 -12.698400 8.960000
9.030780 1.125870 13.612200 -11.899200 15.560000
9.268430 1.155500 13.970400 -11.899200 16.870000
9.172260 1.185130 14.544600 -12.076800 14.230000
-5.824240 1.487150 16.612800 -13.142400 7.600000
-6.097280 1.523420 16.971500 -13.142400 8.840000
-6.342790 1.559690 17.339200 -13.142400 8.250000
-6.493560 1.479070 17.751400 -13.053600 8.070000
-6.147910 1.557530 18.324000 -13.142400 7.560000
9.463790 -2.726650 18.187800 -12.698400 8.910000
-6.301580 1.294490 19.657300 -13.231200 6.870000
7.499390 -1.358330 19.227800 -13.053600 7.360000
9.660950 -2.783450 18.566700 -12.698400 7.390000
8.480560 -1.386630 19.286300 -12.964800 8.210000
9.630200 -1.348430 19.225700 -12.787200 7.950000
10.392000 -2.171340 19.241400 -12.432000 10.950000
-5.563930 1.053060 21.233800 -13.497600 7.090000
10.676300 -2.816430 19.497400 -12.520800 9.350000
18.275400 1.384480 14.336000 -9.057600 5.330000
-5.964510 1.073710 21.571700 -13.497600 5.050000
18.613900 1.410110 14.601400 -9.057600 7.430000
-6.206210 1.094360 21.951000 -13.408800 6.820000
18.952300 1.435750 14.866900 -9.057600 10.390000
-6.193920 1.115000 22.401300 -13.408800 4.410000
18.349500 1.537210 16.253900 -9.590400 9.140000
18.671400 1.564180 16.539100 -9.590400 6.110000
-6.236470 1.659180 23.251400 -13.497600 7.040000
9.410170 0.708870 22.208600 -13.142400 4.140000
9.575180 0.949280 22.598100 -13.142400 6.340000
-5.344100 1.332690 24.377700 -13.675200 8.530000
9.743170 0.965934 22.994500 -13.142400 8.160000
-5.436900 1.296780 24.801100 -13.675200 8.340000
-5.673090 1.458480 25.181700 -13.675200 5.300000
-5.418750 1.726210 25.662300 -13.675200 8.780000
-5.155280 1.754510 26.154900 -13.764000 7.820000
-5.233770 2.117770 26.553100 -13.764000 4.550000
-5.780640 2.430210 28.181100 -13.675200 3.940000
9.161500 -1.985090 27.306100 -13.408800 5.040000
11.394500 -1.806900 26.465000 -13.053600 8.500000
9.666870 -2.195490 27.573400 -13.320000 7.890000
8.832930 2.227770 28.302200 -13.497600 4.950000
10.773300 -2.227770 27.621900 -13.231200 7.940000
10.652700 1.007310 29.121200 -13.408800 8.440000
10.800600 1.021300 29.525700 -13.408800 17.280000
-8.666520 1.429460 30.653000 -13.408800 8.320000
-8.783630 1.448780 31.067200 -13.408800 8.750000
18.915200 1.569270 26.687300 -11.632800 13.110000
18.980100 1.896030 27.673200 -11.899200 6.730000
19.006800 1.920330 28.175300 -11.899200 7.900000
11.664300 -2.445640 31.886700 -13.320000 8.380000
19.247400 1.944640 28.532000 -11.899200 7.230000
12.060500 -2.476600 32.198300 -13.320000 6.050000
19.488000 1.968950 28.888600 -11.899200 7.820000
-19.990100 0.985385 31.698500 -11.810400 8.880000
19.292400 -0.355481 37.076800 -12.698400 8.230000
-18.502300 -0.355481 37.477400 -12.432000 8.960000
19.491300 -0.359146 37.459100 -12.698400 7.240000
-17.812600 -0.359146 38.285800 -12.520800 5.610000
19.690900 0.000000 37.842700 -12.698400 8.350000
-17.995000 0.000000 38.677900 -12.520800 6.300000
11.954300 1.053360 42.281700 -13.675200 10.080000
-3.752960 2.366670 44.160400 -13.941600 8.250000
11.824500 1.063690 42.765300 -13.675200 10.040000
-3.790440 2.147420 44.601300 -13.941600 8.010000
-3.827950 1.888490 45.042700 -13.941600 8.660000
-16.417000 -2.412630 42.091900 -12.964800 9.460000
-3.513820 1.906470 45.500100 -13.941600 8.110000
-17.145000 -2.435600 42.265300 -12.876000 7.670000
-4.787310 1.105000 45.843800 -13.852800 6.330000
-17.056900 -2.600960 42.756100 -12.876000 7.890000
-7.496840 1.223240 45.913100 -13.852800 9.630000
-17.206600 -3.056240 43.131200 -12.876000 7.870000
-17.066500 0.254203 43.757000 -12.876000 8.850000
-17.223000 0.256535 44.158400 -12.964800 10.590000
-2.785370 2.163510 48.131800 -13.941600 12.220000
-3.650690 1.664860 51.119900 -13.941600 6.110000
-3.282820 2.158270 51.558500 -13.941600 10.790000
-3.310590 2.015140 51.994700 -13.941600 6.180000
-6.059570 2.031790 52.179900 -13.852800 11.170000
15.341200 0.593690 68.096600 -13.764000 4.570000
15.963600 0.597355 68.395900 -13.764000 6.350000
16.060300 1.038100 68.810600 -13.764000 7.730000
16.158300 1.044430 69.230200 -13.764000 7.590000
16.256900 0.829559 69.652600 -13.764000 6.630000
16.355300 0.612014 70.074300 -13.764000 8.270000
15.909400 0.615679 70.618700 -13.852800 7.010000
16.003600 0.844551 71.036800 -13.764000 6.650000
16.098300 0.849548 71.457200 -13.764000 6.060000
16.193000 0.854546 71.877500 -13.764000 6.550000
16.287100 1.088740 72.294900 -13.764000 7.140000
16.382400 0.864540 72.718200 -13.764000 7.860000
16.477100 0.869538 73.138500 -13.764000 6.380000
16.718900 -18.459200 71.632400 -13.764000 6.000000
16.330800 0.884530 74.495100 -13.764000 7.800000
16.423100 0.889527 74.916000 -13.764000 9.510000
16.515400 0.894524 75.336900 -13.764000 15.460000
16.607600 0.899522 75.757800 -13.764000 16.930000
16.641800 6.565210 75.913400 -13.764000 14.900000
16.733700 6.601480 76.332800 -13.764000 10.520000
17.329900 0.670650 76.923900 -13.852800 8.150000
16.976000 1.164700 77.438100 -13.764000 17.150000
26.893500 1.386240 90.443200 -13.586400 10.820000
26.490700 1.392570 91.010800 -13.586400 10.570000
26.611100 1.398900 91.424500 -13.586400 10.740000
26.731500 1.405230 91.838200 -13.586400 9.450000
17.511500 1.785330 98.844600 -13.852800 8.200000
17.013400 1.481190 99.373800 -13.852800 8.370000
17.086800 1.174380 99.802600 -13.941600 7.810000
17.160600 0.235880 100.234000 -13.941600 8.160000
15.911200 4.349280 164.641000 -14.030400 6.960000
17.222900 4.873480 164.928000 -14.030400 5.520000
7.856910 1.458380 6.564360 -9.412800 4.000000
8.118020 1.519140 6.916410 -9.501600 5.870000
8.572720 1.064380 6.436020 -8.880000 3.050000
8.847970 1.141430 6.776930 -8.968800 2.430000
-7.416590 0.536854 8.379870 -10.389600 8.740000
-6.157360 1.210350 9.281060 -11.544000 3.350000
-6.839180 1.426670 9.303070 -11.188800 2.890000
-7.634550 0.557502 8.761270 -10.478400 8.380000
-6.394180 1.256900 9.638030 -11.544000 7.510000
-7.758560 0.578151 9.221690 -10.567200 4.190000
-6.631000 1.303450 9.994990 -11.544000 9.440000
-7.208340 0.717877 9.648500 -11.100000 6.240000
-7.702450 1.003740 9.788630 -10.833600 4.810000
-6.317380 0.974845 10.737500 -11.899200 5.380000
-6.885940 1.003740 10.379300 -11.544000 8.670000
-7.968050 1.038350 10.126200 -10.922400 6.820000
-6.443120 1.157860 11.146900 -11.988000 5.420000
-7.123380 1.038350 10.737200 -11.632800 4.950000
-8.133960 1.042080 10.544500 -11.011200 5.410000
-6.329920 1.000880 11.720200 -12.165600 4.780000
-6.834650 1.196450 11.414400 -11.899200 4.450000
-6.905960 1.065460 12.384400 -12.165600 5.070000
-6.363500 1.176800 13.143900 -12.520800 6.730000
-7.016680 1.097740 12.814100 -12.254400 5.080000
-6.446190 1.211410 13.580500 -12.609600 7.640000
-6.660520 1.036990 13.491200 -12.432000 5.730000
-6.631580 1.210150 13.971100 -12.609600 7.560000
-6.818960 1.145430 14.365900 -12.609600 4.630000
8.799950 0.899397 13.264300 -11.988000 6.180000
-6.025960 1.907350 15.105100 -12.964800 6.200000
8.721890 0.873141 13.830400 -12.165600 5.500000
9.142510 0.923705 13.552700 -11.988000 6.370000
-6.471350 1.716660 17.276800 -13.142400 4.920000
-6.619910 1.814960 17.673400 -13.142400 6.480000
-6.939840 0.404764 18.101600 -13.053600 7.240000
-6.554330 0.643559 18.695300 -13.231200 5.990000
-6.160470 1.704780 19.217100 -13.320000 5.400000
8.770480 -2.250200 18.115500 -12.876000 5.260000
-6.557470 0.750793 20.056000 -13.320000 8.070000
9.828630 -6.208330 17.625500 -12.698400 6.870000
-6.691290 0.766115 20.465300 -13.320000 6.270000
9.382490 -0.766115 19.379600 -12.876000 9.900000
9.570140 -0.781437 19.767200 -12.876000 10.830000
-6.076410 1.799810 21.491900 -13.408800 6.590000
9.752750 -1.073710 20.144400 -12.876000 8.500000
10.324400 -1.333200 19.841700 -12.609600 8.910000
18.100600 2.012460 14.482600 -9.235200 5.830000
-6.193270 1.834420 21.905200 -13.408800 8.980000
10.522900 -1.358840 20.223300 -12.609600 4.830000
18.435800 2.049720 14.750800 -9.235200 6.670000
18.771000 2.086990 15.019000 -9.235200 9.770000
-6.315450 0.274854 22.840900 -13.497600 4.410000
9.239510 0.634270 22.282400 -13.142400 3.880000
9.576280 0.873371 22.600700 -13.142400 4.310000
-5.336670 1.872620 24.343900 -13.675200 6.190000
9.737760 1.274800 22.981800 -13.142400 5.390000
-9.733180 1.487030 22.970900 -12.876000 4.160000
-5.428680 1.904910 24.763600 -13.675200 7.970000
-9.539630 1.512670 23.516800 -12.964800 8.820000
-5.664830 2.016920 25.145000 -13.675200 7.330000
-6.106350 1.888410 25.495900 -13.675200 7.920000
9.863010 1.563950 24.314000 -13.231200 10.590000
-6.059140 1.754510 25.960400 -13.675200 6.850000
-9.309500 1.615220 25.449300 -13.142400 7.610000
-10.727300 1.049200 24.915200 -12.787200 6.060000
-10.900000 0.895386 25.316300 -12.787200 6.890000
-5.163430 2.043200 27.892000 -13.764000 6.290000
8.833430 -0.923367 27.017000 -13.408800 7.140000
10.867400 -1.955460 26.208300 -13.142400 4.250000
-5.405250 2.074150 28.283800 -13.764000 6.370000
8.967270 -0.937358 27.426300 -13.408800 6.500000
11.032100 -1.985090 26.605400 -13.142400 5.090000
-5.488270 1.924300 28.718200 -13.764000 5.480000
9.274690 -2.895120 27.643400 -13.408800 5.170000
9.411080 -2.937700 28.049900 -13.408800 8.270000
10.341800 0.638628 28.785900 -13.408800 7.810000
-5.408720 1.103210 30.529800 -13.852800 7.700000
10.486700 0.743550 29.189300 -13.408800 4.660000
10.632300 0.753877 29.594700 -13.408800 9.130000
10.778000 0.764204 30.000100 -13.408800 4.980000
10.168300 1.366910 31.099700 -13.497600 15.850000
19.003400 2.025440 28.170300 -11.899200 6.930000
19.023500 2.051080 28.674300 -11.988000 6.010000
-19.765800 -0.429771 31.342900 -11.810400 6.940000
-19.996900 0.086956 31.709400 -11.810400 8.630000
-17.264200 -0.854503 37.107000 -12.609600 6.430000
-17.737100 -0.479745 37.367700 -12.609600 6.530000
19.004700 0.613998 37.221700 -12.787200 7.060000
20.066400 0.359146 37.154200 -12.698400 6.710000
11.601100 -1.253180 41.032200 -13.675200 5.890000
20.271200 0.362811 37.533300 -12.698400 4.120000
9.563910 0.639318 42.452200 -13.764000 8.420000
10.236000 0.645648 42.738400 -13.852800 5.360000
-17.691400 -0.237878 40.233300 -12.787200 11.050000
-3.347480 -8.929390 43.346100 -14.030400 7.670000
10.799200 -9.016080 42.548200 -13.764000 11.120000
-4.693060 2.307820 44.941200 -13.941600 10.560000
-4.388620 2.188710 45.411400 -13.941600 9.390000
-8.652150 1.105000 45.273700 -13.764000 9.810000
-8.997640 0.971435 45.648800 -13.764000 6.010000
-18.112400 -3.259100 43.680500 -12.787200 9.070000
21.740600 1.405080 42.580200 -12.787200 8.760000
21.932100 1.716100 42.955100 -12.787200 7.070000
22.127900 1.731420 43.338700 -12.787200 6.500000
-7.048200 1.678850 51.197900 -13.941600 7.670000
-7.405230 1.692840 51.582600 -13.852800 8.400000
15.958600 1.846180 68.374800 -13.764000 5.300000
15.525800 1.857510 68.915900 -13.852800 5.750000
16.156500 1.484140 69.222600 -13.852800 4.940000
16.252300 1.880160 69.633200 -13.852800 6.690000
16.355800 -0.166915 70.076700 -13.852800 9.480000
15.501500 0.167914 70.711800 -13.852800 5.950000
16.003600 0.844551 71.036800 -13.852800 8.410000
16.098300 0.849548 71.457200 -13.852800 6.630000
16.287100 1.088740 72.294900 -13.852800 5.910000
16.382400 0.864540 72.718200 -13.852800 6.060000
16.477600 0.637667 73.140800 -13.852800 6.960000
16.572300 0.641332 73.561100 -13.852800 5.530000
16.331400 0.648662 74.497500 -13.852800 7.170000
16.423600 0.652327 74.918400 -13.852800 6.130000
16.950600 0.894524 75.240200 -13.852800 5.700000
16.607600 0.899522 75.757800 -13.852800 7.520000
17.330300 0.426781 76.925600 -13.852800 8.220000
17.726700 -14.266600 75.950200 -13.852800 7.490000
17.466500 6.218840 77.530400 -13.852800 7.020000
17.806400 1.221670 81.225900 -13.852800 20.830000
17.900600 0.000000 81.655500 -13.852800 18.490000
17.992800 0.000000 82.076400 -13.852800 17.230000
16.970500 0.457098 82.732600 -13.852800 9.210000
16.605500 21.214200 80.953100 -13.941600 9.920000
27.015000 1.685720 90.851600 -13.675200 5.370000
27.139100 1.398900 91.269100 -13.675200 14.670000
27.261900 1.405230 91.682100 -13.675200 19.850000
16.941400 1.164380 98.953200 -13.941600 20.420000
17.014100 1.169380 99.377900 -13.941600 16.240000
17.086800 1.174380 99.802600 -13.941600 10.500000
17.158800 1.493850 100.223000 -13.941600 10.440000
15.913200 3.453990 164.662000 -14.030400 9.230000
15.954600 3.462980 165.091000 -14.030400 7.420000
-6.718850 0.593440 9.479550 -11.277600 4.900000
-6.581860 0.680625 10.088900 -11.632800 3.940000
-6.977180 0.704933 10.342800 -11.632800 5.180000
-7.622510 0.637398 9.881470 -11.011200 6.220000
-6.938740 1.396560 10.817200 -11.810400 4.030000
-7.465390 0.659378 10.532800 -11.277600 5.030000
-7.806340 0.659378 10.282700 -11.100000 4.400000
-6.310610 1.443110 11.684500 -12.343200 2.790000
-6.643370 1.484170 11.493300 -12.076800 3.430000
-6.526190 1.235050 12.083600 -12.343200 5.810000
-6.730130 1.273640 12.461300 -12.343200 6.110000
-6.260010 1.233240 13.188300 -12.609600 4.070000
-6.836790 1.267100 12.895500 -12.343200 6.280000
-6.352830 0.804209 13.654500 -12.698400 8.420000
-6.949100 0.897346 13.355000 -12.432000 7.420000
-6.534340 0.827186 14.044700 -12.698400 9.490000
-6.634120 0.763985 14.477300 -12.698400 7.150000
8.400820 0.835212 14.030100 -12.343200 6.050000
-5.718870 1.517050 15.267900 -13.053600 5.150000
8.567980 2.060750 14.309200 -12.432000 6.140000
9.703830 0.896118 13.691000 -11.899200 4.640000
-5.989960 1.556970 15.623900 -13.053600 6.220000
9.844120 0.919096 14.118400 -11.899200 3.570000
-6.143550 1.596890 16.024600 -13.053600 3.120000
-6.186930 1.788170 16.913200 -13.142400 5.090000
-6.623720 1.698190 17.683600 -13.142400 6.380000
-6.283990 1.736780 18.261600 -13.231200 6.920000
-6.421810 1.836430 18.662100 -13.231200 4.720000
8.441080 -1.741050 18.801900 -13.053600 7.920000
7.177890 -3.042150 19.622100 -13.408800 6.550000
8.621270 -1.647150 19.203300 -13.053600 8.640000
8.501700 -1.414930 19.746000 -13.053600 8.280000
9.570140 -0.781437 19.767200 -13.053600 6.290000
-6.259950 0.588965 21.506500 -13.497600 6.170000
-6.380330 0.600292 21.920100 -13.497600 6.580000
8.901010 1.186880 21.466000 -13.231200 9.160000
8.897070 1.208860 21.932800 -13.320000 8.280000
9.235800 0.932626 22.273400 -13.320000 5.130000
-5.888040 1.840340 23.774000 -13.675200 8.140000
10.052000 0.949280 22.390000 -13.142400 9.340000
-9.561660 1.613020 22.566100 -12.964800 4.880000
-5.148880 1.872620 24.384300 -13.764000 8.940000
-9.861970 1.641310 22.905400 -12.876000 8.850000
-5.238850 1.826490 24.810300 -13.764000 8.800000
-9.216090 1.748060 23.629300 -13.142400 9.360000
-10.211300 1.669610 23.222300 -12.876000 10.290000
-5.865960 1.538310 25.132700 -13.675200 8.670000
-6.103510 2.050540 25.484100 -13.675200 6.020000
-5.147080 2.310600 26.113300 -13.852800 10.800000
-5.853650 2.084150 25.983200 -13.675200 10.870000
-10.558200 0.949982 24.522500 -12.964800 7.180000
-5.076630 2.347870 26.564200 -13.852800 6.630000
-10.584300 0.965305 24.979700 -12.964800 7.390000
-5.010100 1.725990 27.063700 -13.852800 8.250000
-9.107710 1.640860 25.978500 -13.320000 9.160000
-10.752300 0.980627 25.376200 -12.964800 4.730000
-5.088380 1.752960 27.486600 -13.852800 4.800000
9.063160 -2.939740 26.338100 -13.586400 7.830000
-5.494230 1.274920 27.874500 -13.764000 7.100000
8.996200 -2.984970 26.813400 -13.586400 7.680000
-5.796900 1.115820 28.260300 -13.852800 4.160000
10.281100 -2.941390 26.816800 -13.497600 5.090000
-4.718330 1.132470 28.896600 -13.852800 8.600000
8.845230 -1.585440 28.341600 -13.586400 8.670000
10.195400 0.722896 28.378500 -13.497600 7.780000
10.341000 0.733223 28.783900 -13.497600 10.300000
10.486700 0.743550 29.189300 -13.497600 11.170000
-5.302080 1.507320 30.969000 -13.852800 8.880000
10.632300 0.753877 29.594700 -13.497600 14.590000
-5.131810 1.626470 31.428900 -13.852800 19.010000
-5.195610 2.222110 31.819600 -13.941600 9.260000
-20.178400 0.728576 28.469500 -11.455200 6.560000
-20.203400 0.846821 28.975600 -11.366400 6.160000
-17.633600 -1.907120 31.056900 -12.076800 5.050000
-17.603300 -1.930100 31.567700 -12.076800 6.470000
-20.696200 0.867475 29.682300 -11.366400 6.350000
-21.170400 1.075960 29.869000 -11.366400 6.460000
10.897600 1.868240 34.917800 -13.675200 7.210000
11.025800 1.890220 35.328600 -13.675200 5.520000
-9.104070 1.934170 36.759200 -13.675200 8.550000
-18.804300 -1.087320 36.829300 -12.432000 10.180000
19.572700 1.001730 36.917800 -12.698400 7.390000
11.912900 -0.226217 40.063000 -13.764000 8.160000
19.775800 0.881487 37.300900 -12.698400 5.440000
11.800400 -0.620328 40.541200 -13.764000 10.200000
20.268700 0.758574 37.528700 -12.698400 11.020000
11.920800 -0.626658 40.954900 -13.764000 8.680000
20.271200 0.362811 37.533300 -12.698400 12.690000
10.036200 -0.233213 41.904300 -13.852800 5.690000
10.136600 -0.235546 42.323300 -13.852800 16.670000
-4.006770 2.640760 44.122500 -14.030400 16.160000
-4.044900 2.804740 44.542500 -14.030400 10.860000
-3.476880 2.831700 45.021700 -14.119200 8.790000
-3.515040 1.482980 45.515800 -14.030400 9.510000
-10.376100 1.482980 44.456500 -13.852800 10.020000
-8.652750 0.962440 45.276900 -13.852800 8.460000
-17.967200 -2.209360 42.403900 -12.964800 7.270000
-8.997640 0.971435 45.648800 -13.852800 9.500000
-17.783000 -3.199840 42.886300 -12.964800 8.830000
-4.339830 1.664860 51.066000 -14.030400 9.290000
-6.708130 1.854000 51.672300 -14.030400 5.370000
-6.462290 1.869320 52.137600 -14.030400 7.210000
-2.634150 0.873524 59.399400 -14.119200 7.860000
14.294900 0.505736 57.718200 -13.852800 5.820000
-2.653240 0.879853 59.829800 -14.119200 7.810000
13.613100 0.509401 58.325400 -13.852800 8.050000
-3.484990 0.699628 60.221200 -14.119200 6.900000
15.434800 1.031770 68.512000 -13.852800 11.080000
15.530100 0.819564 68.935100 -13.852800 7.010000
15.624800 0.824561 69.355500 -13.852800 7.430000
15.720000 0.608349 69.778000 -13.941600 7.730000
16.355600 0.389466 70.075900 -13.852800 5.800000
15.906500 1.511120 70.605800 -13.941600 5.860000
16.003000 1.069750 71.033900 -13.941600 6.660000
16.096900 1.302600 71.450700 -13.941600 5.710000
16.191500 1.310260 71.871000 -13.941600 7.520000
16.287700 0.859543 72.297800 -13.941600 10.620000
16.382400 0.864540 72.718200 -13.941600 8.130000
16.054600 0.637667 73.234800 -13.941600 9.570000
16.239400 0.410456 74.078200 -13.941600 18.480000
15.756700 0.648662 74.621100 -13.941600 17.920000
15.845200 0.889527 75.040400 -13.941600 11.940000
15.934200 0.894524 75.462000 -13.941600 6.740000
16.455600 -13.321500 75.064300 -13.852800 18.610000
16.792200 0.909516 76.599500 -13.941600 19.390000
16.885500 -0.182907 77.025400 -13.941600 18.690000
15.931500 -0.429113 77.667300 -13.941600 17.650000
17.069900 -0.431445 77.866300 -13.852800 12.190000
17.529600 1.202680 79.963300 -13.941600 14.010000
16.796500 0.969484 81.884000 -13.941600 9.460000
26.372200 0.802581 90.603600 -13.675200 6.040000
26.492600 0.806246 91.017300 -13.675200 8.620000
26.613000 0.809911 91.431000 -13.764000 8.680000
26.730200 1.701040 91.833500 -13.764000 8.340000
16.940700 1.474860 98.949200 -14.030400 8.910000
17.013400 1.481190 99.373800 -14.030400 8.880000
17.086100 1.487520 99.798500 -14.030400 8.340000
-12.507400 1.493850 100.909000 -14.030400 9.730000
-12.560400 1.500180 101.337000 -14.030400 8.680000
-12.613400 1.506510 101.764000 -13.941600 6.090000
-12.667600 0.557380 102.202000 -13.941600 6.640000
15.870700 3.955270 164.222000 -14.119200 11.210000
15.912100 3.965600 164.651000 -14.119200 12.770000
15.952600 4.360610 165.070000 -14.119200 9.450000
-7.490020 1.647350 9.866020 -11.188800 3.220000
-6.439780 1.723940 10.569300 -11.988000 5.100000
-6.902240 0.521583 10.403800 -11.632800 5.050000
-6.661840 1.783380 10.933700 -11.988000 4.250000
-5.970800 1.361220 12.833400 -12.698400 2.880000
-6.443270 1.196970 12.619500 -12.520800 7.510000
-6.151730 1.402470 13.222300 -12.698400 7.830000
-6.838150 1.233240 12.898000 -12.432000 7.260000
-6.439270 1.397280 13.566000 -12.698400 9.810000
-7.141390 1.269520 13.222700 -12.432000 5.830000
-6.626930 1.341640 13.961300 -12.698400 8.740000
8.796710 0.997839 13.259400 -12.165600 4.900000
8.298870 0.531636 14.105300 -12.520800 7.520000
9.034450 1.024810 13.617700 -12.165600 6.990000
-5.661760 1.414600 15.759300 -13.142400 3.030000
8.628580 0.545626 14.410500 -12.520800 7.460000
8.955160 0.753364 14.200300 -12.343200 6.750000
8.849830 0.559617 14.780000 -12.520800 3.510000
9.184780 0.772681 14.564400 -12.343200 5.400000
-5.958250 1.788170 16.995100 -13.320000 4.050000
-6.103740 1.716660 17.410100 -13.320000 5.230000
-6.639860 1.069550 17.726700 -13.231200 8.590000
-0.111797 1.393090 19.340100 0.976800 12.550000
-6.794760 0.869266 18.140200 -13.231200 8.000000
-0.228609 1.362900 19.773200 0.976800 16.870000
-0.389364 1.330030 20.204800 0.976800 17.220000
-6.030990 0.594945 19.324300 -13.497600 5.670000
8.261320 -1.813970 18.401500 -13.142400 6.830000
-0.395902 2.361630 20.544100 0.976800 13.220000
7.743580 -1.852570 19.089300 -13.231200 10.020000
0.242500 2.410830 20.974600 0.976800 5.500000
8.054860 -1.891160 19.425400 -13.231200 10.850000
0.247620 2.327590 21.417500 0.976800 7.710000
8.395910 -1.032410 19.814900 -13.231200 9.920000
0.252572 2.374150 21.845800 0.976800 7.740000
0.258121 1.886140 22.325800 0.976800 4.940000
8.787130 -2.885160 20.409000 -13.320000 5.180000
-6.191290 1.922410 21.898200 -13.675200 4.520000
-6.308110 1.958680 22.311400 -13.675200 6.000000
-1.364060 2.049720 23.571300 0.976800 4.560000
-5.681440 1.775760 22.939800 -13.764000 6.440000
9.073740 0.696212 21.882600 -13.408800 7.550000
9.238720 0.708870 22.280500 -13.408800 8.270000
9.708710 0.721529 22.549400 -13.320000 7.600000
-9.391090 1.461390 22.647900 -13.142400 6.240000
-5.474990 2.007480 24.302400 -13.852800 9.840000
-9.555850 1.487030 23.045300 -13.142400 9.220000
-5.569390 2.042090 24.721400 -13.852800 11.350000
8.896550 1.748060 23.751400 -13.497600 6.160000
-9.718760 1.591150 23.438200 -13.142400 6.900000
-5.677190 1.079140 25.199900 -13.852800 8.940000
9.047340 1.777690 24.154000 -13.497600 6.090000
-5.969100 1.097120 25.574600 -13.764000 8.620000
-6.217110 1.115110 25.958400 -13.764000 5.440000
-8.952050 1.896200 26.015200 -13.408800 6.020000
-5.614740 1.925830 27.372300 -13.941600 6.260000
10.123900 -0.691915 27.028200 -13.586400 8.950000
8.923600 -2.014720 27.836500 -13.675200 9.550000
9.054830 -2.044340 28.245900 -13.764000 10.460000
10.629500 1.516570 27.725600 -13.408800 7.150000
8.974510 -1.538550 28.755800 -13.764000 11.030000
10.327500 1.725870 28.746300 -13.586400 15.740000
-5.399330 2.133230 30.476800 -14.030400 7.670000
10.487400 0.647623 29.191300 -13.586400 16.780000
-5.295610 2.162860 30.931200 -14.030400 12.180000
10.633100 0.656618 29.596700 -13.586400 13.490000
-5.448120 1.448780 31.822000 -14.030400 9.310000
-4.211800 1.468090 32.443200 -14.030400 5.540000
19.878400 -3.638610 25.769500 -0.621600 5.270000
-15.878300 -3.631050 29.399700 -0.621600 6.460000
-15.867200 -3.363450 29.928500 -0.621600 6.400000
-20.179600 0.620651 28.471200 -11.455200 10.090000
10.525600 0.519050 33.725700 -13.764000 8.130000
-17.681900 -5.711900 30.053300 -0.355200 9.010000
-20.649100 0.737571 28.662700 -11.455200 16.490000
-20.381900 -5.711900 28.291900 -0.355200 8.450000
10.653900 0.525380 34.137000 -13.764000 5.480000
-18.603700 -0.857148 30.533300 -11.988000 8.440000
-20.676700 0.746565 29.172500 -11.455200 17.730000
-18.827800 -0.867475 30.901200 -11.988000 4.540000
-20.925800 0.755560 29.523900 -11.455200 8.330000
-19.520300 -1.528780 30.953600 -11.899200 14.650000
11.027500 1.775750 35.334000 -13.764000 7.420000
-19.254200 -1.976060 31.601000 -11.988000 6.800000
11.155700 1.796400 35.744900 -13.764000 11.000000
-9.317830 1.817040 36.711600 -13.764000 7.430000
19.016200 2.136900 35.209700 -12.787200 6.250000
19.223000 2.066050 35.592600 -12.787200 8.930000
19.427500 2.088030 35.971200 -12.787200 7.600000
-18.010100 -1.726620 37.199900 -12.698400 12.270000
-17.616100 -1.744600 37.863500 -12.787200 11.470000
-4.675100 -0.758574 42.395400 -14.208000 6.300000
11.602000 -1.121300 41.035800 -13.852800 8.820000
-4.474430 -0.899476 42.847600 -14.119200 10.350000
-4.185500 -0.908471 43.309600 -14.208000 8.500000
-3.717540 2.106120 43.743600 -14.208000 9.170000
-30.594400 0.242542 32.744200 -10.300800 6.790000
-30.888500 0.244874 33.059100 -10.300800 8.240000
-16.575400 -2.329800 42.497900 -13.142400 6.680000
-8.913710 1.105000 45.223000 -13.941600 11.290000
-17.637200 -2.351780 42.534600 -13.053600 8.420000
-8.996490 1.223240 45.642900 -13.941600 6.600000
-17.802000 -2.373760 42.932100 -13.053600 9.150000
-17.932100 -3.772670 43.245900 -12.964800 8.610000
-15.681400 -0.256535 44.729100 -13.320000 7.220000
21.218900 1.392420 42.361400 -12.964800 8.330000
21.164400 1.405080 42.869500 -13.053600 8.480000
-3.062270 2.573470 48.094700 -14.208000 6.220000
19.764700 -0.559702 44.024400 -13.231200 10.850000
-2.833930 2.619420 48.970800 -14.208000 7.740000
-2.858790 2.642400 49.400300 -14.208000 7.500000
-2.884000 2.549590 49.836000 -14.208000 7.810000
-7.341500 2.158270 51.138600 -14.030400 5.680000
-7.105370 2.015140 51.613200 -14.119200 7.780000
-6.762790 2.031790 52.093400 -14.119200 6.360000
12.734900 1.720820 51.419200 -14.030400 5.200000
-7.651420 1.415780 53.297500 -14.030400 12.870000
13.318300 0.860864 57.062400 -14.030400 9.050000
13.416300 0.867194 57.482000 -14.030400 9.180000
13.514200 0.873524 57.901600 -14.030400 8.940000
-3.113280 1.759520 59.788200 -14.208000 9.590000
-12.746700 -1.376200 64.669100 -13.941600 4.880000
33.318500 0.590026 60.847400 -12.787200 10.830000
33.524400 0.809569 61.223400 -12.787200 5.960000
15.963600 0.597355 68.395900 -14.030400 6.740000
33.732400 0.597355 61.603300 -12.787200 8.360000
15.528700 1.256630 68.928900 -14.030400 6.480000
16.158300 1.044430 69.230200 -14.030400 6.190000
15.720000 0.608349 69.778000 -14.030400 8.980000
14.459800 0.000000 70.492500 -14.119200 11.020000
15.908900 0.839554 70.616500 -14.030400 10.400000
16.003000 1.069750 71.033900 -14.030400 9.320000
16.097700 1.076080 71.454200 -14.030400 8.340000
16.192400 1.082410 71.874600 -14.030400 16.450000
16.287100 1.088740 72.294900 -14.030400 8.760000
16.381700 1.095070 72.715200 -14.030400 17.240000
16.147400 0.174911 73.658100 -14.030400 6.990000
16.239600 0.175910 74.079100 -14.030400 12.710000
16.423600 -0.652327 74.918400 -14.030400 11.120000
16.515900 -0.655991 75.339200 -14.030400 19.120000
16.608700 -0.179908 75.762700 -14.030400 21.190000
16.695300 2.050050 76.157500 -14.030400 20.160000
16.792200 0.909516 76.599500 -14.030400 19.430000
16.884400 0.914514 77.020400 -14.030400 16.330000
16.380200 0.429113 77.573900 -14.030400 7.990000
16.558500 0.000000 78.418300 -14.030400 16.420000
17.176700 19.612900 76.244100 -14.030400 18.240000
16.825200 19.717800 76.750300 -14.030400 16.010000
16.421700 19.620400 77.770400 -14.030400 11.450000
26.371400 1.094420 90.600800 -13.852800 7.100000
26.491800 1.099420 91.014500 -13.852800 7.590000
26.612200 1.104410 91.428200 -13.852800 7.090000
26.732600 1.109410 91.841900 -13.852800 7.050000
16.941400 1.164380 98.953200 -14.119200 6.370000
17.013400 1.481190 99.373800 -14.119200 7.370000
17.085300 1.800650 99.793500 -14.119200 8.550000
-13.145300 1.815980 101.257000 -14.119200 7.160000
-13.200800 1.823640 101.685000 -14.119200 6.510000
-12.665700 1.831300 102.187000 -14.119200 11.590000
-11.564000 1.022470 119.659000 -14.208000 12.220000
-11.605900 0.279857 120.092000 -14.208000 8.540000
-11.647300 0.280857 120.521000 -14.208000 10.250000
15.870700 3.955270 164.222000 -14.296800 11.460000
15.912100 3.965600 164.651000 -14.296800 7.410000
15.951200 4.873480 165.056000 -14.296800 7.570000
