VERSION .7
FIELDS x y z velocity SNR
SIZE 4 4 4 4 4
TYPE F F F F F
COUNT 1 1 1 1 1
WIDTH 196
HEIGHT 1
VIEWPOINT 0 0 0 1 0 0 0
POINTS 196
DATA ascii
0.456972712643215 3.06686996705716 0.486918710242316 0 5.00439515042406
6.26645528079811 5.227273010318 -0.0632994323315009 -4.95087063333527 9.49352350380562
1.24567915619363 7.93256127464411 1.45588694362452 4.64144121875182 5.7255674222533
1.80875852789015 7.83491827270396 1.39258751129302 4.64144121875182 5.7255674222533
5.15985816285551 6.25998235730934 0.886192052641016 4.79615592604354 9.5442845259809
5.37395054456062 6.5197209954673 0.657340258827127 4.64144121875182 5.9432603702776
5.36678956279853 6.51103323350237 0.788808310592552 4.79615592604354 9.67934044394841
5.45785975034669 7.63090672529947 -0.803415871899821 4.79615592604354 6.29523533045592
5.69292490668123 7.34183422128275 1.5337939372633 4.79615592604354 6.29523533045592
6.07174521124551 7.51839199345774 1.13208600131339 4.33201180416836 5.06207729499999
-1.51460936757264 12.1098034985449 -0.949491484972517 2.01129119479245 6.83987944953726
5.88241824324316 10.7244901268683 -0.474745742486258 2.01129119479245 6.83987944953726
6.45168452484733 10.3919824702306 0.474745742486258 2.01129119479245 6.83987944953726
6.82893109451907 10.1431782113518 0.56969489098351 2.01129119479245 6.83987944953726
6.06887489057253 9.77537590902971 4.17776253387907 2.16600590208418 7.20682585809042
5.37534432680158 10.9050510350932 1.42423722745877 2.47543531666763 6.02843988360296
5.9316955954881 10.372554003944 2.65857615792304 2.47543531666763 6.02843988360296
6.25953775987301 10.2903832843622 2.18383041543679 2.63015002395936 20.3127019756887
5.52718152332216 10.7385946708605 1.99393211844228 2.78486473125109 8.22322482337788
5.90190569439485 10.5372985281455 1.99393211844228 2.78486473125109 8.22322482337788
6.26828386389516 10.3047614646824 2.08888126693954 2.78486473125109 8.22322482337788
5.53220256815982 10.9822361245973 2.53197729326004 1.85657648750073 11.3556109153
6.51508587284138 10.7104922653955 0.681686194339242 2.16600590208418 9.65919762886322
5.97794411467211 10.673057988828 2.82412851940543 2.47543531666763 7.60848337134423
6.39064779425359 10.5059219643668 2.53197729326004 2.63015002395936 16.1320059149162
5.64109170821043 11.1983970899102 2.89473173239057 1.85657648750073 8.78751953143776
5.52271191333717 11.2040181252712 3.09436840358992 2.01129119479245 25.9204661136398
5.50009496207328 11.1581347375669 3.29400507478927 2.16600590208418 15.7416398533554
-1.98908666457079 12.6666258874389 1.09800169159642 2.32072060937591 6.81426136811755
5.28382307828013 11.2018376114983 3.49364174598862 2.32072060937591 6.81426136811755
5.63053598623401 11.1774424285828 2.99455006799024 2.32072060937591 6.81426136811755
6.49307316627515 10.2480536775664 4.29218843078602 2.32072060937591 6.81426136811755
6.0071603267878 10.9519127935439 3.09436840358992 2.63015002395936 5.77447230172461
7.02183888652211 10.860078610896 2.55632322877216 2.01129119479245 8.28936228111332
6.33859047555453 11.3169582075856 2.35181737047039 2.16600590208418 11.2176854575936
6.87463573187293 10.8502760079578 2.9653349453757 2.16600590208418 11.2176854575936
6.53453389037225 11.4267167924201 0.715770504056204 2.32072060937591 8.4449542657235
6.62220316375398 11.3429981683473 1.12478222065975 2.47543531666763 7.64778782661145
6.09910662093455 11.3561013737776 2.76082908707393 2.63015002395936 6.67105806521274
6.84084016648345 11.2460168786653 0.715770504056204 2.63015002395936 6.67105806521274
-1.40645011598949 16.4237402688827 3.94404155296276 2.93957943854282 18.6766734583323
-1.30451666979745 16.7674202287544 -2.1034888282468 3.09429414583454 13.6363008219931
-1.58326343290119 16.9359456856235 -2.94585819696601 2.78486473125109 6.88505373659165
-1.58737889655011 16.9799682199541 -2.67805290633274 2.93957943854282 59.7918530571527
-1.54648480339906 16.5425298719971 4.68659258608229 3.09429414583454 33.9176868896924
-1.6141964292362 17.2668315855545 -2.86308201622482 2.78486473125109 10.326096722355
-1.61205004077212 17.2438719708166 -2.99941925509267 2.93957943854282 45.2328340813911
-0.954360672074938 17.5509412128036 -0 3.09429414583454 21.0090235505393
-2.06340113769106 17.6140733182134 -2.35912115112402 2.93957943854282 10.7758395935249
5.69304550313859 20.822796004573 4.09011716603545 0.309429414583454 5.30531202763403
-17.4356703344603 12.4217741050965 -4.94222490895951 0.464144121875182 7.6140147456327
5.86048801793678 20.7762913134295 4.09011716603545 0.464144121875182 7.6140147456327
20.440740138591 8.02745946734121 -0.681686194339243 0.464144121875182 7.6140147456327
-8.12203879567647 20.7456741279171 -0.518568426408068 0.309429414583454 36.7417198749872
7.08176985363145 21.1121049880492 0.864280710680111 0.309429414583454 36.7417198749872
-8.00507587210798 20.4469222063316 3.80283512699249 0.464144121875182 51.2096657845773
-3.60532541217326 21.8379994684432 2.59284213204033 0.464144121875182 51.2096657845773
7.07942251287216 21.1051071180849 1.03713685281613 0.464144121875182 51.2096657845773
-7.99390643118876 20.4183927216381 3.97569126912851 0.618858829166909 7.75798629089644
-3.39150041457871 21.5972826693461 4.32140355340056 0.618858829166909 7.75798629089644
7.06125765922632 21.0509542290205 1.90141756349624 0.618858829166909 7.75798629089644
5.69974835844428 21.5255265929754 3.85639618511914 0.309429414583454 123.78102325135
6.99811699487652 21.4421794281263 1.40232588549787 0.309429414583454 123.78102325135
5.72142968987557 21.6074077650808 3.33052397805744 0.464144121875182 161.01760714549
6.99811699487652 21.4421794281263 1.40232588549787 0.464144121875182 161.01760714549
5.75511045798146 21.7346057085586 2.27877956393404 0.618858829166909 19.3851268592618
7.46367373848117 21.0960966887912 3.15523324237021 0.618858829166909 19.3851268592618
8.13892452412968 20.788804409453 3.50581471374468 0.618858829166909 19.3851268592618
7.09531306424981 21.7399874757392 1.42180263390756 0.309429414583454 93.939859804795
7.09531306424981 21.7399874757392 1.42180263390756 0.464144121875182 118.48821041712
5.83947428038919 22.0532120028228 2.13270395086134 0.618858829166909 17.0969704765463
7.42641778795083 21.5523149808846 2.31042928009979 0.618858829166909 17.0969704765463
8.41688138101732 20.9813869515994 3.73223191400735 0.618858829166909 17.0969704765463
5.05057928481354 21.8773679936613 5.94527745205868 0.309429414583454 13.8764510360026
7.02285429047306 22.1276772724687 0.720639691158629 0.309429414583454 13.8764510360026
7.19858833325373 22.0564221466787 1.08095953673794 0.464144121875182 11.8732587293614
5.99957830236643 21.9439656743944 4.68415799253108 0.618858829166909 10.2591520086574
7.8107662689792 21.5117725534248 3.96351830137245 0.618858829166909 10.2591520086574
8.53218112596276 21.2688032112103 3.7833583785828 0.618858829166909 10.2591520086574
6.63194126008133 22.1360774872673 2.34207899626554 0.773573536458636 12.9278404603397
7.96547963254264 21.385262760292 4.32383814695176 0.773573536458636 12.9278404603397
6.61438267019519 22.0774704684407 2.88255876463451 0.928288243750363 7.62270348601077
7.75651051723352 21.923800741119 3.65189032681737 0.618858829166909 7.40222786237066
6.71604427857601 22.4167963388526 2.55632322877216 0.773573536458636 11.7187896868404
8.06078443605854 21.641131629403 4.56486290852171 0.773573536458636 11.7187896868404
6.72156208792027 22.4352136695276 2.37372871243129 0.928288243750363 7.23018305970582
8.03453741048169 21.5706651208523 4.93005194120345 0.928288243750363 7.23018305970582
7.77981281702346 21.9896647628682 4.99578596708616 0.618858829166909 5.92848442090709
-0.408814802771819 26.349439786304 0.818023433207092 4.33201180416836 7.13028896341507
16.7495655933537 20.7402971418712 -1.03470225926492 4.17729709687663 11.8727815306731
15.2230336981056 21.7173698723088 2.89716632594178 4.33201180416836 24.5102338944651
16.7541066493094 20.7459201444104 -0.827761807411938 4.33201180416836 24.5102338944651
16.1044094401372 21.6262469869334 -1.25625027242517 4.17729709687663 9.49672042927121
16.9466193062166 20.9843006376579 -1.04687522702098 4.17729709687663 9.49672042927121
16.9512137863601 20.9899897931681 -0.837500181616785 4.33201180416836 18.5308464157258
-5.84144234630612 30.8302550707676 0.730378065363476 2.63015002395936 8.90167428229279
-4.61444249913058 30.9687968750663 2.19113419609042 2.63015002395936 8.90167428229279
1.94180688150339 31.2323977434894 2.43459355121158 2.63015002395936 8.90167428229279
1.94292315752866 31.2503521431493 2.19113419609042 2.78486473125109 11.0482183222248
14.9706245852202 27.8742348649873 -1.96715158937896 2.47543531666763 5.92874929162282
15.2289054536604 27.7644736275581 -1.47536369203422 2.63015002395936 32.1622889191697
15.2412966552371 27.7870645609929 -0.737681846017111 2.78486473125109 39.1356857496145
15.3796866957759 28.0393694060488 -1.48997125334149 2.63015002395936 21.0132622869759
15.388957218625 28.0562708956497 -0.993314168894326 2.78486473125109 26.2949189517523
1.02249853066636 32.9397727918243 0.255632322877215 2.32072060937591 11.8093522945209
3.31831799120466 32.7402840866644 1.78942626014051 2.32072060937591 11.8093522945209
17.3405891809433 27.9311702390001 2.30069090589494 2.32072060937591 11.8093522945209
1.02240624258589 32.93679973288 0.51126464575443 2.47543531666763 7.18852881623255
17.276210175137 27.2671391012971 6.64644039480762 2.47543531666763 7.18852881623255
16.7738449435505 28.7314792020028 -0.258066916428427 2.16600590208418 7.69147214738949
14.9458014724734 29.6696150981062 1.80646841499899 2.32072060937591 51.4306082825985
16.7743495678478 28.7323435597307 -0 2.32072060937591 51.4306082825985
14.9516625246094 29.681250149011 1.54840149857056 2.47543531666763 30.7916395544881
16.7738449435505 28.7314792020028 0.258066916428427 2.47543531666763 30.7916395544881
16.9320887637727 29.0025308925878 -0.260501509979638 2.16600590208418 9.06156611957743
16.9325981486765 29.0034034046338 -0 2.32072060937591 65.4701381956971
16.9320887637727 29.0025308925878 0.260501509979638 2.47543531666763 38.2152416562695
17.0908467295053 29.2744632495369 -0 2.32072060937591 10.5292030193744
16.8258855922706 29.4228529027623 0.525872207061699 2.47543531666763 6.60275511980766
14.7244732940023 33.4046863860459 3.98786423688457 1.701861780209 7.81831437713132
14.7244732940023 33.4046863860459 3.98786423688457 1.85657648750073 6.66774298205035
16.5131979262475 32.7811276908074 1.13938978196702 1.85657648750073 6.66774298205035
14.8625243140464 33.7178759268715 3.73466650755856 1.85657648750073 10.2219312796992
-7.68900473947468 37.3428479719485 3.56424495897375 1.54714707291727 6.09944943340743
-2.95263928643702 37.9513308230138 4.15828578546938 1.54714707291727 6.09944943340743
1.47213414501936 37.9295379136806 5.04934702521282 1.54714707291727 6.09944943340743
16.4655656136504 34.9074125785488 0.898365020397075 1.39243236562554 8.58163761074569
16.7614069136446 34.7572989323682 1.1978200271961 1.54714707291727 25.3283583677155
16.7614069136446 34.7572989323682 1.1978200271961 1.701861780209 5.26155186525756
16.8976785145686 35.039878598485 1.20755840140095 1.39243236562554 7.57966162794928
16.9012398553124 35.0472635743088 0.90566880105071 1.54714707291727 22.8983929731396
16.8976785145686 35.039878598485 1.20755840140095 1.701861780209 5.05760835740391
-15.3143146845659 42.1774308641564 1.04444063346977 0.773573536458636 6.73092839270424
-13.5368212226805 42.651947331005 3.48146877823256 0.773573536458636 6.73092839270424
-4.51227374089349 44.5204843373124 3.48146877823256 0.773573536458636 6.73092839270424
-15.2958657880291 42.1266204247585 2.43702814476279 0.928288243750363 13.2916206313547
-6.14769159656731 43.6005360918033 -8.7036719455814 0.928288243750363 13.2916206313547
-4.50626097436426 44.4611591958294 4.17776253387907 0.928288243750363 13.2916206313547
14.3734079167957 42.8498670879344 0.350581471374466 0.773573536458636 27.2739780421275
14.3721106100645 42.8459995694359 0.701162942748933 0.928288243750363 56.3330547343613
14.3699481719131 42.839552929369 1.05174441412341 1.08300295104209 7.68613219580966
14.4732232495512 43.1474356093784 0.353016064925678 0.773573536458636 23.4021078242882
15.883811268745 42.6439452847576 0.706032129851356 0.773573536458636 23.4021078242882
14.4719169337455 43.1435412331126 0.706032129851356 0.928288243750363 50.417012667878
15.8814213790198 42.6375290459244 1.05904819477704 0.928288243750363 50.417012667878
14.4666904909433 43.1279602114987 1.41206425970272 1.08300295104209 7.25358849468153
15.8814213790198 42.6375290459244 1.05904819477704 1.08300295104209 7.25358849468153
-49.5955349841274 30.3152730314116 5.43401280630425 0.464144121875182 5.2831936433229
-45.4658046188572 36.0684129396786 6.33968160735496 0.464144121875182 5.2831936433229
-25.4881601043824 52.8535345838367 1.3658069822297 0.309429414583454 5.9712358141512
-22.7079144036163 53.9682278497991 -4.09742094668909 0.309429414583454 5.9712358141512
-25.445930961926 52.765966103722 3.64215195261253 0.464144121875182 24.5037534724371
-25.445930961926 52.765966103722 3.64215195261253 0.618858829166909 17.7935641129281
-25.6244604257962 53.1361738062102 1.37311076288333 0.309429414583454 5.65222054880693
-22.8824254293032 54.38297535277 -0.915407175255551 0.309429414583454 5.65222054880693
-25.5935910706246 53.072161554072 3.20392511339444 0.464144121875182 41.9761334609962
-25.5820054590486 53.0481370454531 3.66162870102222 0.618858829166909 35.1141735007854
-25.7297271933407 53.3544602857426 3.22096726825292 0.464144121875182 9.35371278109015
-25.6901050422898 53.2722977945201 4.60138181178989 0.618858829166909 10.2482519434296
6.4149363189514 3.78963727723157 -1.11017465935248 1.97261251796952 7.31810693433542
7.0594716749978 5.74420759241206 0.141206425970271 1.5573256720812 5.30917107246661
6.11436794448815 8.72283362299606 -3.76875081727553 -0.41528684588832 5.44540512152328
6.82893109451908 8.98698854043558 0.525872207061701 -0.20764342294416 5.03721529126303
6.02441167339938 10.1088649462122 1.94280565386684 -0.31146513441624 12.7970710604921
7.42824409568783 9.19808868643433 -1.57274743408268 -0.31146513441624 12.7970710604921
7.67454647223822 9.89741632751495 -0.876453678436169 -0.10382171147208 6.86333927491018
7.57304683786321 9.96625741365041 -0.973837420484632 0 7.96474387287083
-1.17517649249913 16.7929421004357 -1.97202077648138 1.14203882619288 17.4601428732072
-12.2849155884871 11.5310894876099 -1.84055272471596 1.24586053766496 26.4458945678452
-1.17718168458712 16.8215957323359 -1.70908467295053 1.24586053766496 26.4458945678452
-12.5489269717156 11.778900623456 -1.33902645316637 1.14203882619288 98.3809095042117
-1.59109323882351 17.0197000154929 -2.41024761569946 1.14203882619288 98.3809095042117
-1.19989197542244 17.1461194115583 -1.60683174379964 1.34968224913704 17.0890296882596
-1.62176089418526 17.3477476004486 -2.31773306075342 1.14203882619288 154.894962979827
-1.19335161356684 17.0526594771077 -4.09011716603546 1.14203882619288 154.894962979827
-1.62176089418526 17.3477476004486 -2.31773306075342 1.24586053766496 229.931246908981
-1.1998242532986 17.1451516814244 -3.68110544943191 1.24586053766496 229.931246908981
-1.21632067063894 17.3808808531949 -2.31773306075342 1.34968224913704 22.140864625883
-2.20526946740577 17.6318597279135 -2.0815774862859 1.14203882619288 47.5467054139337
-1.65072091015285 17.6575288075995 -2.35912115112402 1.14203882619288 47.5467054139337
-2.20318370899124 17.6151833986327 -2.22034931870496 1.24586053766496 68.5031793306944
-1.65072091015285 17.6575288075995 -2.35912115112402 1.24586053766496 68.5031793306944
-1.2415606179854 17.7415526136602 1.94280565386684 1.24586053766496 68.5031793306944
-1.23530868304132 17.6522142187878 -2.63666481596214 1.34968224913704 6.74514490492455
-0.692166374869586 17.8336674324238 -1.24894649177154 1.34968224913704 6.74514490492455
-1.95962774714052 17.9389357619776 -2.40050924149462 1.14203882619288 14.9331742227682
-1.96346360475163 17.9740501878569 -2.11809638955408 1.24586053766496 21.8784611164542
-0.840688520536131 18.044300911851 -2.25930281552435 1.24586053766496 21.8784611164542
-2.13351138842243 18.2125643601067 -2.5855383513867 1.14203882619288 9.1487264026642
-1.14632466294191 18.4377077644581 -1.29276917569335 1.14203882619288 9.1487264026642
-0.711170462807476 18.3233077796665 -2.5855383513867 1.14203882619288 9.1487264026642
-1.14632466294191 18.4377077644581 -1.29276917569335 1.24586053766496 13.6596938546013
-0.711170462807476 18.3233077796665 -2.5855383513867 1.24586053766496 13.6596938546013
-8.73213475906686 19.3629262253407 -6.74138954330486 -1.45350396060912 9.45558593242795
-16.5393780227399 26.640627857559 -6.45654209781311 -2.0764342294416 6.18072774460586
16.9508186715887 33.6498692632908 -6.83146950469969 -0.934395403248721 5.063940947841
