VERSION .7
FIELDS x y z velocity intensity
SIZE 4 4 4 4 4
TYPE F F F F F
COUNT 1 1 1 1 1
WIDTH 838
HEIGHT 1
VIEWPOINT 0 0 0 1 0 0 0
POINTS 838
DATA ascii
-5.933910 1.390950 9.910140 -12.254400 3.420000
-6.153690 1.442470 10.277200 -12.343200 5.290000
-5.954090 1.570700 10.873600 -12.609600 4.870000
-6.470130 1.234690 10.619100 -12.254400 6.610000
-6.094270 1.624860 11.283900 -12.609600 5.150000
-6.702280 1.088160 11.000100 -12.254400 6.900000
-5.719510 1.277510 12.481400 -13.053600 6.840000
-6.588090 1.404840 12.031400 -12.609600 3.420000
-5.898240 1.317440 12.871500 -13.053600 6.760000
-6.168000 0.916933 13.257300 -13.053600 6.140000
-6.453120 0.990448 13.595100 -13.053600 8.820000
-5.533370 1.305790 14.433000 -13.497600 7.240000
8.763920 -0.743336 12.777900 -12.343200 7.000000
-5.675810 1.673390 14.804500 -13.497600 3.990000
9.009860 -0.665468 13.136500 -12.343200 7.690000
-5.390790 1.617860 15.376500 -13.586400 6.980000
9.164210 -1.051780 14.047100 -12.520800 7.970000
-5.585760 1.543810 16.232500 -13.586400 4.980000
9.415600 0.359791 14.432500 -12.520800 9.040000
-5.816380 1.745590 16.590400 -13.586400 5.140000
9.650990 0.368785 14.793300 -12.520800 15.190000
-6.543990 1.788170 16.778200 -13.497600 6.660000
9.886380 0.377780 15.154100 -12.520800 16.900000
-10.435800 1.356040 14.723700 -11.721600 6.490000
-10.684200 1.388320 15.074200 -11.721600 11.350000
-5.134560 1.814960 18.160600 -13.941600 9.610000
-5.898330 1.632230 18.399400 -13.764000 6.680000
9.302260 0.929171 16.988100 -13.053600 7.750000
-5.362930 2.080430 18.968400 -13.941600 3.890000
9.507520 1.011050 17.363000 -13.053600 3.120000
0.892567 2.063360 20.127100 0.888000 3.820000
-5.490390 1.704780 19.419200 -13.941600 8.360000
9.373480 -1.215400 19.361000 -13.408800 6.130000
-5.495520 1.748000 21.652000 -14.119200 13.520000
1.186560 0.953237 22.786900 0.888000 8.480000
-4.701530 1.922410 22.265700 -14.119200 5.940000
9.940300 1.094360 20.531800 -13.408800 4.950000
2.102530 0.971223 23.153100 0.888000 6.200000
-5.095780 1.958680 22.619100 -14.119200 5.200000
10.287200 1.186880 20.837300 -13.320000 5.940000
-0.454660 2.195730 23.593200 0.888000 4.930000
-5.058500 1.903640 23.075000 -14.208000 6.650000
10.472800 1.410110 21.213200 -13.320000 4.630000
-0.462927 2.235650 24.022200 0.888000 7.300000
10.659100 1.584720 21.590500 -13.320000 5.560000
0.471193 2.275570 24.451100 0.888000 10.510000
0.479595 2.238520 24.887100 0.888000 5.070000
-5.238850 1.826490 24.810300 -14.208000 11.440000
-5.155280 1.754510 26.154900 -14.296800 7.140000
-4.725400 1.782810 26.672700 -14.296800 5.850000
-5.011950 1.555710 27.073700 -14.296800 4.720000
-4.876380 1.752960 27.525000 -14.296800 4.850000
10.159400 -1.666500 26.047800 -13.852800 4.420000
-4.951400 1.779930 27.948400 -14.296800 5.530000
10.162600 -1.692140 26.507700 -13.852800 5.610000
18.686500 0.611644 22.561100 -11.632800 10.710000
10.993100 1.952600 27.556100 -13.852800 9.870000
18.964100 0.344817 22.896300 -11.632800 9.060000
11.313800 1.980900 27.890500 -13.852800 9.210000
19.239500 0.256533 23.228900 -11.632800 8.610000
9.704130 2.292350 28.923400 -14.030400 5.270000
-16.971700 -5.969730 24.744900 -0.355200 6.180000
-17.435300 -6.802500 24.201700 -0.088800 9.640000
-8.838850 0.911405 29.725100 -13.941600 7.900000
-17.210700 -6.053810 25.093500 -0.355200 8.330000
-9.193630 0.924063 30.068000 -13.941600 7.270000
-8.494060 0.936721 30.720200 -13.941600 6.840000
-9.495600 0.936721 30.425500 -13.941600 6.140000
-7.943540 1.348920 31.297000 -14.030400 6.560000
-9.861300 0.949380 30.761600 -13.852800 6.450000
-8.042200 1.948520 31.685700 -14.030400 6.790000
-17.685600 -1.714380 28.529400 -12.165600 7.820000
-18.525100 -3.049020 28.395800 -11.988000 8.250000
-3.574630 1.944640 34.231000 -14.474400 7.950000
-3.619310 1.968950 34.658900 -14.474400 5.850000
-3.663990 1.993260 35.086700 -14.474400 7.960000
10.772300 1.802300 33.603400 -14.119200 6.570000
10.903700 1.824280 34.013200 -14.119200 7.420000
10.766300 2.041870 34.497000 -14.119200 5.250000
-5.265640 0.429771 36.678900 -14.385600 5.520000
-7.647280 1.775750 36.216300 -14.208000 6.120000
-4.610270 0.782545 37.195500 -14.474400 6.090000
-7.735010 1.912200 36.631800 -14.208000 6.260000
-8.109270 1.934170 36.991400 -14.208000 6.040000
-16.612900 -1.738530 34.999300 -13.053600 7.260000
10.547300 -1.019360 37.305200 -14.119200 5.360000
10.664500 -1.030690 37.719700 -14.208000 6.010000
-15.767800 -1.757850 35.858900 -13.142400 9.180000
-17.352400 -1.030690 35.148300 -12.964800 8.830000
-8.708860 1.164570 38.656800 -14.208000 8.740000
-15.943200 -1.654680 36.257800 -13.142400 7.960000
-8.803520 1.177230 39.077000 -14.208000 7.300000
-18.417700 -0.469750 36.072000 -12.876000 7.580000
12.402500 0.651978 42.609600 -14.208000 11.070000
12.771900 0.519724 42.951900 -14.208000 9.220000
12.894200 0.664638 43.363200 -14.208000 6.090000
-16.974100 -2.831700 41.844100 -13.408800 7.700000
19.993500 -2.692040 40.497900 -13.231200 9.820000
19.547600 -2.858670 41.182000 -13.408800 4.880000
20.068200 -2.209360 41.450900 -13.320000 9.690000
-16.640100 -2.230010 43.403300 -13.497600 6.510000
12.755700 -2.794590 45.116300 -14.119200 7.300000
-15.833400 -1.731420 46.012900 -13.675200 5.950000
-18.162500 -0.270528 46.567100 -13.497600 5.680000
-1.940920 1.948520 50.340200 -14.563200 6.670000
-2.250950 1.965180 50.758300 -14.563200 8.320000
13.949800 0.594684 49.339500 -14.208000 6.840000
14.067000 0.599681 49.754200 -14.208000 6.190000
14.184200 0.604678 50.168800 -14.208000 5.510000
14.698600 -0.298513 53.159800 -14.208000 7.950000
14.813600 0.000000 53.575900 -14.208000 7.420000
14.733500 0.835544 54.931100 -14.296800 14.570000
14.844400 1.019090 55.344400 -14.296800 20.300000
15.181400 0.317170 56.600900 -14.296800 7.970000
-26.092300 1.435460 53.893900 -12.964800 11.510000
15.287800 1.259270 58.343200 -14.296800 14.490000
15.400300 0.000000 58.772700 -14.296800 22.000000
15.509300 -0.331163 59.188700 -14.296800 18.830000
15.158700 -0.333495 59.724100 -14.296800 10.090000
15.264300 0.527725 60.140500 -14.296800 15.560000
15.370300 0.531390 60.558100 -14.296800 11.040000
15.475900 0.729612 60.973800 -14.296800 14.990000
15.581900 0.734609 61.391500 -14.296800 10.950000
15.686300 0.999469 84.734500 -14.474400 9.800000
15.764700 1.004470 85.158200 -14.474400 10.100000
15.183500 0.740281 85.704100 -14.474400 7.760000
-14.093100 1.825940 86.310600 -14.385600 8.170000
-14.163300 1.563120 86.741000 -14.385600 9.250000
-14.232800 1.570780 87.166200 -14.385600 6.630000
-14.302900 1.303960 87.595800 -14.385600 6.320000
-13.863300 1.310290 88.102600 -14.385600 6.150000
-13.516200 0.000000 98.181000 -14.385600 4.860000
-13.574900 0.230882 98.607600 -14.385600 10.570000
-13.633700 0.231882 99.034500 -14.385600 12.410000
-12.925500 0.000000 99.564200 -14.474400 9.980000
-12.980900 -0.233881 99.991300 -14.474400 9.200000
-13.036400 -0.234880 100.419000 -14.474400 13.810000
-13.091900 -0.235880 100.846000 -14.474400 13.670000
-13.258100 0.557380 102.127000 -14.474400 6.220000
-12.720600 0.559712 102.629000 -14.474400 5.310000
-12.177700 0.571373 104.864000 -14.474400 9.770000
-12.227200 0.901530 105.290000 -14.474400 12.480000
-12.276900 0.905195 105.718000 -14.474400 10.200000
-12.326600 0.908859 106.146000 -14.474400 7.620000
13.636400 3.148170 150.164000 -14.652000 6.290000
13.675400 3.157160 150.593000 -14.652000 5.910000
-6.460360 0.137922 4.289910 -7.370400 3.960000
-6.819270 0.145585 4.528240 -7.548000 6.390000
-7.178180 0.153247 4.766570 -7.814400 6.960000
-7.478720 0.160910 5.091700 -7.992000 3.420000
-6.545080 1.137400 6.144170 -9.945600 5.280000
-6.767720 0.377698 5.994820 -9.412800 5.980000
-6.734060 1.162470 6.570210 -10.034400 6.830000
-6.955300 0.395683 6.429140 -9.590400 9.870000
-6.332280 1.215310 7.526430 -10.922400 4.340000
-6.838720 1.215310 7.069440 -10.300800 5.410000
-7.221920 0.321780 6.779550 -9.768000 8.990000
-6.546870 1.268150 7.904360 -11.011200 5.090000
8.832570 0.191559 6.164070 -8.524800 6.250000
-6.479870 1.097530 8.535430 -11.366400 7.380000
-6.755270 0.839451 8.898190 -11.366400 8.840000
-7.015090 0.871738 9.240430 -11.366400 7.770000
8.765600 0.560193 8.888360 -10.567200 6.210000
8.978860 0.579510 9.281790 -10.656000 6.880000
-5.853100 1.197670 11.463600 -12.698400 8.370000
-9.594010 1.443110 9.181830 -10.123200 4.930000
-6.139320 1.237590 11.798800 -12.698400 8.830000
-9.725390 1.404840 9.673380 -10.300800 9.470000
-9.932730 1.448740 10.071800 -10.389600 9.080000
-9.082610 1.350830 11.963800 -11.721600 5.560000
-9.151330 1.389430 12.448200 -11.810400 10.260000
-9.405530 1.428020 12.794000 -11.810400 10.360000
-6.246630 1.466620 15.064600 -13.231200 6.880000
-6.201900 1.505210 15.546100 -13.320000 6.900000
8.953870 -0.805281 14.198300 -12.432000 10.720000
8.616830 -0.772681 14.907500 -12.698400 7.700000
9.295420 -0.825929 14.491100 -12.432000 10.010000
8.832250 -0.791998 15.280200 -12.698400 11.170000
11.118200 -2.066430 14.129600 -11.632800 6.880000
9.651620 0.377780 15.304700 -12.432000 11.700000
-5.275640 1.411840 17.254100 -13.764000 5.380000
9.881420 0.386775 15.669100 -12.432000 16.090000
-5.508180 1.216840 17.649100 -13.675200 8.930000
10.110500 0.454392 16.032400 -12.432000 15.870000
10.213000 0.509682 16.475000 -12.520800 11.360000
-5.767650 1.093860 18.480500 -13.675200 5.540000
-5.016210 1.118170 19.143500 -13.852800 7.360000
9.682110 0.735470 18.262300 -12.964800 8.680000
10.520600 -1.765200 19.213100 -12.876000 7.420000
10.461700 -1.799810 19.732700 -12.876000 5.760000
18.296800 1.483270 14.989800 -9.501600 11.010000
18.477900 1.584720 15.438100 -9.590400 11.990000
18.811600 1.537210 15.716900 -9.590400 8.590000
-20.672400 0.459742 15.519900 -8.524800 11.460000
-21.017000 0.467404 15.778600 -8.524800 14.730000
-21.361500 0.475066 16.037300 -8.524800 13.490000
18.657400 1.743410 22.526000 -11.366400 6.950000
-17.781600 -1.149130 23.801100 -11.455200 10.680000
-18.039300 -1.165780 24.146000 -11.455200 11.510000
19.287200 0.070964 23.748400 -11.544000 13.620000
19.558800 0.071963 24.082900 -11.544000 15.150000
19.830500 0.072963 24.417400 -11.544000 12.070000
-18.072600 -0.274857 26.790400 -11.899200 6.460000
-18.313900 -0.177242 27.148200 -11.810400 7.470000
-17.032700 -1.195140 28.950000 -12.254400 6.440000
-17.251100 -1.210460 29.321200 -12.254400 10.140000
20.173400 -2.102350 28.932500 -12.076800 9.830000
20.419400 -2.127990 29.285400 -12.165600 7.500000
11.103400 1.603310 33.959600 -13.941600 9.640000
11.237200 1.622630 34.368800 -13.941600 6.170000
11.641700 1.415590 34.698200 -13.941600 7.630000
-17.752400 -1.231160 33.484400 -12.609600 8.800000
22.713000 -0.563359 30.895500 -11.899200 10.650000
-16.902600 -0.588679 36.329800 -12.964800 6.240000
-16.751200 -1.708630 37.312100 -12.964800 11.470000
-8.455950 0.727924 40.046000 -14.119200 8.900000
-8.543860 0.991400 40.462300 -14.119200 7.700000
-16.666600 -2.642920 38.709900 -13.053600 5.140000
-17.137600 -2.669890 38.974000 -13.053600 8.060000
12.391300 1.989650 42.571400 -14.030400 8.450000
12.511600 2.008970 42.984700 -14.030400 6.030000
12.631900 2.028290 43.398000 -14.030400 8.190000
-2.638800 0.105946 45.599000 -14.385600 8.620000
13.013900 1.200580 43.765700 -14.030400 9.760000
13.139100 0.819872 44.186900 -14.030400 9.180000
-15.001700 -0.392129 43.595700 -13.586400 7.630000
13.261900 0.827535 44.599900 -14.030400 8.590000
14.300200 0.934808 50.578800 -14.119200 7.720000
14.418100 0.778575 50.995900 -14.119200 9.490000
14.535900 0.619670 51.412600 -14.119200 7.150000
15.500200 1.034420 56.058900 -14.119200 9.950000
15.615000 1.042080 56.474100 -14.119200 14.480000
15.072400 0.321835 57.521400 -14.208000 11.260000
15.072400 0.321835 57.521400 -14.119200 21.080000
15.290100 0.699628 58.352000 -14.119200 17.770000
15.475200 0.924163 60.971400 -14.208000 13.390000
15.579500 1.322230 61.382200 -14.208000 13.390000
15.685500 1.331230 61.799800 -14.208000 20.360000
15.791500 1.340220 62.217400 -14.208000 9.470000
15.898400 1.149350 62.638700 -14.208000 13.610000
16.218900 -0.152922 63.901400 -14.208000 24.400000
16.254700 6.148030 64.042600 -14.119200 22.180000
16.261100 -1.202990 65.656900 -14.208000 10.540000
16.056400 1.012780 67.040600 -14.208000 7.950000
16.751900 4.153430 67.638500 -14.208000 13.710000
25.442100 0.696304 77.814400 -13.941600 11.770000
25.575200 0.954492 78.221500 -13.941600 11.610000
25.709900 0.703633 78.633500 -13.941600 8.960000
15.922400 0.473423 86.010000 -14.296800 8.720000
16.000800 0.475755 86.433700 -14.296800 9.340000
-13.861800 1.861920 88.092900 -14.296800 10.620000
-13.929600 1.593770 88.523800 -14.296800 13.070000
-12.925400 0.232881 99.563900 -14.296800 12.610000
-12.980900 0.233881 99.991300 -14.296800 10.540000
-13.036400 0.234880 100.419000 -14.296800 10.110000
-11.729800 1.179370 101.007000 -14.296800 9.080000
-12.560900 1.184370 101.341000 -14.296800 12.600000
-12.613900 1.189370 101.769000 -14.296800 14.900000
-12.667300 0.875877 102.199000 -14.296800 12.610000
-12.719900 1.199360 102.624000 -14.296800 5.420000
-11.976500 2.167740 103.131000 -14.296800 7.360000
-12.025300 2.499150 103.552000 -14.296800 4.890000
-11.713000 0.578369 106.218000 -14.296800 10.600000
-11.760000 0.912524 106.644000 -14.296800 11.010000
-11.807200 0.916189 107.072000 -14.296800 7.780000
-11.854100 1.254330 107.497000 -14.296800 7.140000
14.627500 3.645460 151.359000 -14.474400 12.610000
14.669000 3.655790 151.788000 -14.474400 5.630000
13.830300 3.666110 152.299000 -14.474400 6.990000
-6.711960 0.293799 6.061830 -9.590400 2.370000
-6.845120 0.307789 6.551040 -9.856800 6.580000
-7.212860 0.278485 6.145220 -9.235200 4.520000
-7.089950 0.321780 6.917440 -9.945600 6.690000
-7.478470 0.291143 6.496900 -9.324000 5.760000
8.204890 -0.367735 6.284370 -8.968800 5.790000
8.470500 -0.383057 6.644590 -9.146400 5.230000
-6.573960 0.449640 8.522180 -11.366400 5.850000
-6.769250 0.433005 8.916610 -11.455200 8.190000
-6.958030 0.449659 9.313460 -11.544000 6.270000
-6.155950 1.405420 10.281000 -12.343200 3.960000
-6.129570 1.426820 10.795600 -12.432000 5.460000
8.607600 0.637398 9.036340 -10.833600 5.900000
-6.111030 1.317040 11.314900 -12.609600 5.210000
-10.087700 1.192570 9.324560 -9.945600 6.990000
-5.786760 1.443110 11.952600 -12.964800 8.270000
-10.328500 1.229830 9.695850 -10.034400 9.200000
-6.537020 0.948101 12.103700 -12.609600 4.580000
-5.423170 1.317440 13.078700 -13.231200 7.640000
-6.641940 1.065460 12.527900 -12.698400 7.800000
-5.643110 1.443720 13.911200 -13.320000 5.270000
-9.241680 1.484970 12.370200 -11.810400 6.220000
-9.498390 1.526210 12.713800 -11.810400 5.090000
-6.089620 1.194600 14.686000 -13.231200 7.420000
9.257450 -0.481019 13.497500 -12.254400 9.910000
-6.140510 1.125870 15.137400 -13.320000 9.210000
9.286410 -0.493677 13.997500 -12.343200 9.360000
-6.421650 1.155500 15.486700 -13.320000 12.420000
9.524520 -0.506336 14.356400 -12.343200 15.160000
9.762630 -0.518994 14.715300 -12.343200 12.350000
-5.374030 1.487150 16.763900 -13.764000 9.340000
8.470110 -1.051180 15.468400 -12.964800 13.180000
-5.505100 1.523420 17.172800 -13.764000 7.330000
9.651620 0.377780 15.304700 -12.609600 11.000000
-5.636180 1.559690 17.581600 -13.764000 8.590000
9.880730 0.444065 15.668000 -12.609600 15.280000
-5.628420 1.595960 18.034400 -13.764000 10.370000
9.986650 0.454392 16.109800 -12.698400 16.960000
-5.655100 1.393090 18.495200 -13.764000 14.310000
-5.889960 1.424050 18.872400 -13.764000 8.950000
9.836920 -0.713511 19.638400 -13.231200 9.950000
10.029800 -0.727502 20.023500 -13.231200 7.610000
9.946490 -0.741492 20.544500 -13.320000 3.610000
9.967750 -1.043120 20.999600 -13.320000 8.920000
10.340800 0.858049 21.785500 -13.408800 5.590000
-20.849200 0.539686 15.279000 -8.436000 7.530000
10.524200 0.949280 22.172000 -13.408800 7.460000
-21.198000 0.467404 15.534600 -8.436000 4.410000
10.534700 0.965934 22.642800 -13.408800 8.300000
-21.545500 0.475066 15.789200 -8.436000 6.030000
-3.492640 1.604330 28.178500 -14.385600 5.500000
-3.710850 1.628640 28.584500 -14.296800 7.960000
11.014500 -0.620639 27.609700 -13.764000 5.360000
18.834500 -0.069964 23.559800 -11.721600 4.130000
9.205850 -0.629634 28.716900 -13.852800 7.170000
19.103300 -0.165582 23.896100 -11.721600 8.100000
19.372400 -0.167914 24.232600 -11.721600 7.160000
-17.791700 -0.072963 25.940500 -11.810400 9.240000
-4.277850 2.356920 31.074200 -14.385600 10.720000
-18.035400 -0.073962 26.295900 -11.810400 8.790000
-3.974370 0.674607 32.065100 -14.385600 7.340000
-7.724650 0.974697 32.252800 -14.030400 7.530000
-7.824220 1.091250 32.668600 -14.030400 5.310000
-17.706100 -0.894774 29.060100 -12.165600 5.620000
-7.924530 1.105240 33.087400 -14.030400 9.560000
-18.144500 -1.545360 29.269600 -12.165600 7.660000
20.003900 -1.075960 30.662500 -12.432000 5.970000
20.951100 -1.088620 30.547000 -12.254400 6.130000
11.031900 1.432250 35.348200 -14.030400 8.430000
20.964200 -0.318834 31.076900 -12.343200 7.560000
11.160200 1.448900 35.759200 -14.030400 5.110000
20.199100 -1.008040 32.583900 -12.609600 5.940000
13.179500 0.093952 38.300300 -14.030400 6.350000
-16.007600 -1.440300 37.179300 -13.142400 6.700000
-8.454860 0.981073 40.040800 -14.208000 7.810000
-16.177900 -1.455620 37.574900 -13.142400 6.000000
-8.544960 0.735587 40.467500 -14.208000 8.610000
-8.633970 0.743249 40.889100 -14.208000 6.480000
-9.366110 1.912380 41.574200 -14.119200 7.990000
12.764200 0.529718 43.852400 -14.119200 5.900000
12.884600 0.534716 44.266100 -14.119200 8.770000
13.005100 0.539713 44.679800 -14.119200 8.760000
11.904400 0.544710 45.431200 -14.208000 5.420000
14.418100 0.778575 50.995900 -14.208000 7.240000
14.535300 0.784905 51.410500 -14.208000 13.550000
14.652500 0.791235 51.825100 -14.208000 6.690000
14.915100 4.741800 56.920900 -14.208000 8.960000
15.404700 0.321835 57.433300 -14.208000 8.100000
15.289400 0.886183 58.349600 -14.208000 6.990000
15.398700 0.892513 58.766400 -14.208000 7.250000
15.848000 1.277260 59.086000 -14.208000 17.520000
15.959600 1.286250 59.502100 -14.208000 13.490000
15.936300 2.237060 60.818400 -14.208000 7.250000
15.687200 0.936822 61.806600 -14.208000 10.840000
15.793200 0.943152 62.224200 -14.208000 7.920000
15.899900 0.749601 62.644400 -14.208000 10.700000
17.252100 -1.631680 65.839900 -14.208000 10.000000
17.361300 -1.642010 66.256600 -14.208000 20.270000
25.441300 0.949495 77.812000 -14.030400 9.700000
25.575200 0.954492 78.221500 -14.030400 16.690000
25.709100 0.959490 78.631000 -14.030400 10.700000
15.922600 0.202896 86.011100 -14.385600 13.080000
16.001000 0.203896 86.434800 -14.385600 25.090000
16.079300 0.478087 86.857400 -14.385600 24.000000
-13.927800 2.148030 88.512400 -14.296800 13.480000
-13.692500 0.000000 99.461600 -14.385600 12.050000
-13.751200 0.233881 99.888200 -14.385600 9.880000
-13.809800 0.548051 100.314000 -14.385600 6.050000
-13.091400 0.864882 100.843000 -14.385600 6.500000
-13.146900 0.868547 101.270000 -14.385600 5.780000
-12.614300 0.872212 101.772000 -14.385600 8.510000
-12.667300 0.875877 102.199000 -14.385600 7.030000
-13.313600 0.559712 102.554000 -14.385600 11.090000
-11.977800 1.525500 103.143000 -14.385600 14.020000
-12.027500 1.531830 103.571000 -14.385600 12.950000
-12.077200 1.538160 103.998000 -14.385600 8.400000
-12.126900 1.544490 104.426000 -14.385600 7.470000
-11.712800 0.908859 106.215000 -14.385600 7.420000
-11.760000 0.912524 106.644000 -14.385600 4.730000
-11.807200 0.916189 107.072000 -14.385600 9.230000
-11.854500 0.919854 107.500000 -14.385600 12.380000
-11.901300 1.259330 107.925000 -14.385600 11.270000
-55.171400 -14.314800 95.448800 -12.254400 8.930000
14.629400 2.704810 151.378000 -14.474400 9.570000
14.669000 3.655790 151.788000 -14.474400 5.200000
14.709500 4.020820 152.208000 -14.474400 10.820000
8.460540 0.711076 5.904440 -8.613600 2.580000
-6.431600 0.926285 8.045200 -11.100000 3.810000
9.015250 0.770332 6.606670 -8.880000 3.560000
-6.699580 0.964880 8.380410 -11.188800 7.920000
-6.898230 1.037980 8.766590 -11.277600 8.640000
-7.163550 1.077900 9.103770 -11.277600 5.200000
-5.445820 1.278720 12.130200 -13.142400 3.430000
-5.618040 1.404840 12.513800 -13.142400 5.700000
-5.797170 1.361220 12.912800 -13.142400 5.570000
-9.346530 1.305790 12.311500 -11.810400 3.650000
-5.574360 1.280630 14.882000 -13.497600 8.070000
-9.606150 1.342060 12.653400 -11.810400 4.810000
-6.140510 1.125870 15.137400 -13.408800 3.560000
8.836990 -0.481019 13.776500 -12.520800 9.520000
-9.768440 1.315240 13.075200 -11.810400 5.330000
-6.297800 1.311000 15.525200 -13.408800 9.780000
9.069540 -0.493677 14.139000 -12.520800 7.240000
9.413590 -0.506336 14.429400 -12.432000 5.300000
8.957800 0.259525 15.225300 -12.787200 4.620000
-5.269010 1.676740 17.232400 -13.764000 9.460000
9.534420 0.265855 15.380300 -12.609600 18.050000
-5.261250 1.602510 17.693600 -13.852800 12.880000
9.761430 0.272185 15.746500 -12.609600 18.990000
-5.278860 1.639780 18.135900 -13.764000 16.590000
9.988440 0.278515 16.112700 -12.609600 15.430000
-6.001750 1.736780 18.356300 -13.764000 9.000000
10.214900 0.344806 16.478100 -12.609600 16.090000
-5.109840 1.958470 19.051000 -13.941600 11.020000
-9.501250 1.240560 17.351500 -12.609600 6.350000
-5.222500 1.938700 19.471100 -13.941600 7.700000
-5.221590 1.852570 19.927300 -13.941600 6.950000
-5.330370 1.891160 20.342500 -13.941600 7.300000
-5.161130 1.813590 20.838900 -14.030400 8.740000
9.947380 1.815230 20.956700 -13.408800 10.550000
-5.375040 1.556420 23.029400 -14.119200 9.790000
9.835870 2.049720 21.464400 -13.408800 8.910000
-21.542700 0.640279 15.787200 -8.347200 7.400000
-21.890200 0.650606 16.041800 -8.347200 7.560000
10.228600 0.784821 24.667700 -13.675200 5.270000
-4.798360 1.981280 27.084600 -14.296800 5.220000
-4.714240 2.012240 27.535500 -14.296800 4.900000
-4.029980 2.130910 28.071700 -14.385600 5.860000
-4.475030 2.163200 28.439200 -14.296800 5.110000
10.796900 -1.057240 27.682300 -13.764000 13.560000
10.953300 -1.072560 28.083500 -13.764000 5.690000
19.013500 -0.443092 23.411500 -11.632800 7.730000
11.109800 -1.087880 28.484600 -13.764000 10.330000
19.285900 -0.354811 23.746900 -11.632800 6.340000
19.557500 -0.359809 24.081300 -11.632800 7.320000
-4.584600 0.815491 30.673400 -14.296800 8.380000
-17.990900 -0.170246 25.802300 -11.810400 9.840000
-4.468430 0.826817 31.125700 -14.385600 6.520000
10.771700 1.330940 29.982600 -13.852800 7.240000
-4.527260 1.330940 31.535500 -14.385600 9.070000
-8.184520 1.348920 31.234800 -14.030400 6.050000
-4.588440 1.348920 31.961700 -14.385600 10.210000
-8.295630 1.164490 31.658900 -14.030400 7.800000
-9.266880 1.179820 31.837100 -13.941600 8.890000
-17.265600 -0.285851 28.835100 -12.254400 6.070000
-7.923700 1.210460 33.083900 -14.119200 8.400000
-17.487000 -0.289516 29.204800 -12.254400 5.200000
-17.707800 -0.399787 29.573500 -12.254400 4.800000
-18.159400 -0.404785 29.804100 -12.165600 8.160000
-16.018600 -2.756460 31.373300 -12.698400 5.760000
-18.810800 -2.211430 29.828500 -12.076800 9.450000
11.969900 1.063310 34.142500 -13.941600 5.970000
11.912500 1.075960 34.618400 -13.941600 4.500000
11.717300 -0.216888 38.321800 -14.119200 7.450000
-15.833600 -1.672660 36.775000 -13.231200 6.670000
-17.444900 -1.796480 36.032600 -12.964800 7.530000
11.837200 1.315100 38.714000 -14.119200 13.150000
-16.003800 -1.690650 37.170400 -13.231200 7.400000
-8.364650 1.189890 39.613600 -14.208000 14.740000
-15.954500 -1.835120 37.653700 -13.231200 12.220000
-8.453640 1.202550 40.035000 -14.208000 8.550000
11.553500 1.470940 39.693000 -14.208000 7.640000
-16.978300 -2.023530 38.611700 -13.142400 7.400000
-9.680560 2.406500 41.476400 -14.119200 8.020000
-9.778350 2.430800 41.895400 -14.119200 6.300000
12.401800 0.789223 42.607500 -14.208000 5.610000
12.522200 0.796885 43.021100 -14.208000 6.040000
12.643800 0.524721 43.438700 -14.208000 6.890000
12.764600 0.388464 43.853800 -14.208000 6.800000
12.885000 0.392129 44.267500 -14.208000 6.380000
12.165700 0.835197 45.357500 -14.208000 6.520000
-2.098340 1.831940 47.317100 -14.563200 13.600000
12.271500 -1.685450 45.751900 -14.208000 8.000000
-2.485360 1.848600 47.729500 -14.474400 12.930000
-2.785750 2.014390 48.138200 -14.474400 7.630000
-2.811290 1.731420 48.579600 -14.474400 7.900000
14.185100 0.120938 50.172000 -14.208000 8.800000
14.535900 0.619670 51.412600 -14.208000 5.630000
14.743400 0.854534 56.265700 -14.208000 7.560000
15.071000 0.873524 57.516000 -14.208000 9.800000
15.508500 0.709623 59.185600 -14.208000 7.860000
15.962000 0.714620 59.511100 -14.208000 16.700000
15.475200 0.924163 60.971400 -14.296800 6.530000
15.581200 0.930493 61.389000 -14.296800 10.620000
15.687200 0.936822 61.806600 -14.296800 21.980000
15.793200 0.943152 62.224200 -14.296800 20.180000
15.897500 1.349210 62.634900 -14.296800 19.250000
17.332500 1.911420 62.685800 -14.208000 13.540000
16.056400 -0.154921 64.830600 -14.208000 19.080000
16.159500 -0.571702 65.246700 -14.296800 23.180000
25.576500 0.445438 78.225600 -14.030400 10.740000
25.709900 0.703633 78.633500 -14.030400 8.250000
15.183800 0.471091 85.705900 -14.385600 9.030000
15.258700 0.743945 86.128300 -14.385600 8.320000
15.333400 1.019460 86.549900 -14.385600 7.410000
-13.796900 1.029450 87.680600 -14.296800 6.910000
-13.863300 1.310290 88.102600 -14.296800 7.480000
-14.441800 1.316620 88.446200 -14.296800 5.680000
-18.515000 1.316620 87.684100 -14.296800 4.600000
-19.786000 2.367190 87.825800 -14.296800 8.450000
-13.633700 0.231882 99.034500 -14.385600 8.170000
-13.692400 -0.232881 99.461400 -14.385600 10.540000
-13.751200 -0.233881 99.888200 -14.385600 14.000000
-13.036400 -0.234880 100.419000 -14.385600 12.880000
-13.091900 0.235880 100.846000 -14.385600 9.050000
-13.202400 0.872212 101.697000 -14.385600 9.290000
-12.667300 0.875877 102.199000 -14.385600 10.330000
-12.720300 0.879541 102.627000 -14.385600 6.980000
-12.773700 0.240877 103.058000 -14.385600 5.260000
-12.826700 0.241877 103.486000 -14.385600 6.090000
-12.277100 0.576037 105.720000 -14.385600 6.930000
-12.326800 0.578369 106.148000 -14.385600 5.700000
-12.376500 0.580701 106.576000 -14.385600 5.080000
-12.426200 0.583034 107.004000 -14.385600 5.820000
-12.476100 0.250872 107.434000 -14.385600 4.950000
14.587100 3.166160 150.941000 -14.563200 7.300000
14.628500 3.175150 151.369000 -14.563200 11.820000
14.669000 3.655790 151.788000 -14.563200 11.730000
-6.906400 0.366389 6.483360 -9.679200 3.750000
-7.272350 0.383043 6.722210 -9.679200 4.600000
-6.213220 1.442580 9.210370 -11.810400 2.970000
-6.977610 0.804896 8.728190 -11.100000 6.020000
-6.452190 1.498060 9.564620 -11.810400 3.140000
-7.178960 0.764060 9.123360 -11.188800 6.700000
-6.203890 1.570700 10.733000 -12.432000 2.950000
-6.174350 1.356800 11.275800 -12.520800 6.330000
-5.949410 1.402030 11.877400 -12.787200 5.760000
-6.312700 1.402030 11.688400 -12.609600 5.780000
-6.135050 1.574420 12.248000 -12.787200 6.290000
-6.535600 0.990641 12.101100 -12.609600 6.480000
-5.789870 1.319970 12.444500 -12.964800 6.960000
-6.643450 1.021600 12.530800 -12.698400 8.890000
-5.968990 1.404990 12.829500 -12.964800 7.050000
-6.844770 1.052560 12.910500 -12.698400 5.900000
-6.081570 1.233240 13.271500 -13.053600 3.990000
-5.557400 1.582940 13.930600 -13.320000 6.680000
-9.650030 1.341640 12.071100 -11.544000 6.570000
-5.908920 1.628160 14.250200 -13.320000 7.320000
-9.920060 1.342060 12.408900 -11.544000 7.510000
-5.677630 1.624350 14.809300 -13.408800 8.250000
-6.272060 1.624350 14.567500 -13.231200 9.060000
-10.089600 1.378330 12.822400 -11.544000 4.830000
-5.935780 1.125870 15.218800 -13.408800 8.990000
-6.459950 1.125870 15.003900 -13.231200 7.560000
-5.332810 1.155500 15.894600 -13.497600 7.360000
9.588890 -1.756050 14.214400 -12.432000 9.800000
-5.571630 1.968030 16.191500 -13.586400 5.770000
8.057700 -1.078740 15.198300 -13.053600 6.940000
-5.359780 1.962940 16.719400 -13.675200 5.550000
8.470110 -1.051180 15.468400 -12.964800 7.370000
9.414560 0.377780 15.451700 -12.698400 9.350000
9.760360 0.386775 15.744800 -12.698400 14.410000
-5.512240 0.988028 17.662200 -13.675200 10.580000
-6.256530 0.945108 17.414800 -13.497600 7.140000
9.760360 0.386775 15.744800 -12.698400 15.890000
-5.779560 1.011010 18.028900 -13.675200 6.510000
-6.402030 0.967087 17.819800 -13.497600 5.370000
10.214300 0.404764 16.477100 -12.698400 12.680000
-10.097000 5.125700 15.740700 -12.254400 13.340000
-10.197000 5.239610 16.169600 -12.254400 8.380000
-5.375290 1.592140 19.012100 -13.852800 6.150000
-5.116850 1.626750 19.527600 -13.941600 6.970000
10.057300 1.166790 18.035600 -12.964800 8.590000
-5.342400 1.256280 20.388400 -13.941600 6.870000
10.009800 1.451780 18.533800 -13.053600 7.840000
-5.289920 1.348430 20.841900 -13.941600 6.110000
10.068000 1.481410 18.990200 -13.053600 5.390000
-5.272740 1.375400 21.289600 -14.030400 5.610000
9.439640 1.142920 20.289200 -13.408800 8.200000
9.780260 1.164900 20.604600 -13.320000 8.140000
10.531000 1.023800 20.238800 -13.142400 7.570000
9.675160 1.903640 21.550700 -13.408800 6.970000
10.293900 1.903640 21.262100 -13.231200 7.210000
10.154900 1.659180 21.826600 -13.408800 6.060000
10.338400 1.613020 22.221000 -13.408800 11.320000
-5.340160 1.641310 24.359800 -14.119200 13.300000
10.515300 1.795540 22.601200 -13.408800 5.000000
10.696600 1.826490 22.990900 -13.497600 12.200000
-4.696030 1.697910 25.367200 -14.208000 6.710000
-8.732640 1.159020 24.306900 -13.586400 4.090000
-4.575390 1.726210 25.826000 -14.208000 6.050000
-4.650390 1.754510 26.249400 -14.208000 4.830000
-10.036100 0.949982 24.740800 -13.408800 8.280000
-10.198000 0.965305 25.139800 -13.408800 6.010000
-10.359900 0.980627 25.538900 -13.408800 8.880000
-4.345970 1.666500 27.619000 -14.296800 4.340000
-4.196560 1.692140 28.077100 -14.296800 6.590000
-4.261630 1.539480 28.512500 -14.296800 5.790000
-4.939630 1.313560 28.851900 -14.296800 8.900000
11.003300 1.313560 27.125000 -13.675200 8.560000
-5.012950 1.241010 29.280200 -14.296800 12.350000
10.990800 -2.044340 27.550300 -13.764000 11.010000
-5.485770 1.258990 29.633200 -14.296800 7.790000
11.150100 -2.073970 27.949600 -13.764000 10.590000
19.102300 -0.354811 23.894800 -11.721600 10.570000
10.100000 -2.009200 28.808700 -13.941600 14.090000
12.069900 -2.103600 28.033500 -13.586400 10.580000
19.371400 -0.359809 24.231400 -11.721600 8.920000
-3.810800 1.654370 30.745400 -14.385600 14.640000
12.099800 -0.815491 28.556400 -13.675200 10.750000
-2.237490 1.677350 31.331200 -14.296800 11.390000
12.435000 -0.826817 28.881600 -13.586400 9.900000
-18.030300 -0.764204 26.288400 -11.721600 9.390000
-4.524760 1.700330 31.518100 -14.296800 9.310000
12.830700 -0.838143 29.179200 -13.586400 8.770000
-18.273900 -0.774531 26.643700 -11.721600 7.440000
-18.517600 -0.784858 26.998900 -11.721600 7.390000
-8.284610 2.049610 31.616800 -13.941600 9.860000
-7.526550 2.076580 32.247600 -14.030400 5.550000
-7.817210 1.792240 32.639300 -14.030400 6.610000
-7.918390 1.736360 33.061800 -14.030400 8.600000
-18.128200 -1.050650 30.812000 -12.254400 7.270000
-18.825100 -1.063310 30.896700 -12.165600 7.770000
-16.591700 -0.888129 33.123700 -12.698400 4.930000
-16.784600 -0.898456 33.508800 -12.698400 6.490000
-7.208910 1.777170 38.941300 -14.208000 8.990000
11.805300 1.164570 37.826300 -14.030400 8.690000
-16.705900 -1.777170 35.906900 -12.964800 9.270000
10.675000 1.177230 38.607800 -14.119200 7.440000
-16.887400 -1.796480 36.297200 -12.964800 9.220000
-17.905200 -2.159870 36.267900 -12.787200 7.520000
-8.365370 1.064670 39.617000 -14.119200 9.700000
-18.114500 -2.159870 36.163800 -12.787200 9.480000
-8.454370 1.075990 40.038500 -14.119200 6.770000
-18.307200 -2.182850 36.548500 -12.787200 9.000000
-8.543360 1.087320 40.460000 -14.119200 8.750000
-9.592000 1.501590 41.097000 -14.030400 7.710000
-9.687560 1.780580 41.506400 -14.030400 5.190000
-9.781200 2.197930 41.907600 -14.030400 7.970000
12.518800 1.316470 43.009400 -14.119200 8.390000
12.639200 1.329130 43.422900 -14.119200 6.410000
12.764900 0.247206 43.854700 -14.119200 7.090000
-2.396070 1.639490 46.014800 -14.474400 6.400000
12.885500 0.106945 44.269000 -14.119200 10.680000
12.661100 0.107945 44.781600 -14.119200 11.460000
13.118100 -1.670130 45.068100 -14.119200 8.610000
14.184700 0.443435 50.170300 -14.119200 7.420000
14.301900 0.447100 50.585000 -14.119200 7.270000
14.419100 0.450765 50.999600 -14.119200 7.310000
14.536400 0.454430 51.414200 -14.119200 7.680000
14.653100 0.624668 51.827300 -14.119200 7.340000
-26.238000 0.476418 49.489800 -12.698400 18.630000
14.928400 0.129934 53.991000 -14.119200 21.800000
15.157100 -0.659649 54.818100 -14.119200 20.470000
14.843500 1.196300 55.341100 -14.208000 14.200000
14.957400 0.669644 55.765600 -14.208000 7.850000
15.069000 0.674641 56.181800 -14.208000 7.230000
15.180600 0.679639 56.597900 -14.208000 8.320000
15.180800 0.694631 57.935200 -14.208000 14.410000
15.476700 0.340492 60.977100 -14.208000 17.710000
15.582700 0.342824 61.394700 -14.208000 20.210000
15.688700 0.345156 61.812400 -14.208000 17.670000
16.096700 2.936190 63.420100 -14.208000 14.610000
16.322400 -1.180000 64.309000 -14.208000 24.640000
16.418700 2.581380 64.688500 -14.296800 25.770000
16.574400 -0.159918 66.921900 -14.208000 10.240000
25.441300 0.949495 77.812000 -14.030400 7.190000
26.178100 0.699968 78.024500 -14.030400 13.190000
15.844000 0.471091 85.586300 -14.385600 13.470000
15.922400 0.473423 86.010000 -14.385600 11.820000
16.000800 0.475755 86.433700 -14.385600 9.290000
14.235000 0.204895 87.179700 -14.296800 7.600000
-13.793100 2.333210 87.656200 -14.296800 8.150000
-13.862600 1.586110 88.098200 -14.296800 9.400000
-13.247600 1.316620 88.633000 -14.296800 13.540000
-12.869800 0.541055 99.135400 -14.385600 8.840000
-12.925500 0.000000 99.564200 -14.385600 9.920000
-12.981000 0.000000 99.991500 -14.385600 12.010000
-13.036400 0.234880 100.419000 -14.385600 10.020000
-13.091400 -0.864882 100.843000 -14.385600 5.850000
-12.561600 -0.552716 101.346000 -14.385600 7.910000
-13.202700 -0.555048 101.699000 -14.385600 13.600000
-13.258300 0.000000 102.128000 -14.385600 14.450000
-11.929300 -0.239878 102.725000 -14.385600 12.250000
-11.979000 -0.240877 103.153000 -14.385600 10.290000
-12.028800 -0.241877 103.581000 -14.385600 8.650000
-11.713000 0.578369 106.218000 -14.385600 6.380000
-11.760300 0.580701 106.646000 -14.385600 6.080000
-11.807500 0.583034 107.074000 -14.385600 6.650000
-11.854500 0.919854 107.500000 -14.385600 8.990000
14.587100 3.166160 150.941000 -14.474400 6.880000
14.628500 3.175150 151.369000 -14.474400 10.570000
14.670000 3.184150 151.798000 -14.474400 14.570000
-6.357020 1.157860 11.196200 -12.432000 4.200000
-6.456610 1.638030 11.578500 -12.609600 4.790000
-6.568920 1.196450 11.569400 -12.432000 5.610000
-10.358400 1.362410 8.998820 -9.679200 3.730000
-5.893660 1.107570 12.416500 -12.876000 4.570000
-6.664890 1.690870 11.952000 -12.609600 6.690000
-10.682100 1.404990 9.280030 -9.679200 3.660000
-5.955110 1.796550 13.264600 -13.142400 3.260000
-5.557400 1.582940 13.930600 -13.408800 4.180000
-6.235320 1.849390 13.607100 -13.053600 4.240000
-5.716190 1.628160 14.328600 -13.408800 6.950000
-6.288580 1.145430 14.605800 -13.231200 7.630000
-5.505660 1.718620 15.324800 -13.586400 5.170000
-6.573960 1.176390 14.950400 -13.142400 8.750000
-5.532660 1.660440 15.781100 -13.586400 5.620000
-6.076560 1.660440 15.579800 -13.408800 5.480000
-6.234250 1.649960 15.984100 -13.408800 5.180000
8.169490 -1.238300 15.126300 -13.053600 5.780000
8.373730 -1.269260 15.504500 -13.053600 7.970000
9.533370 0.377780 15.378600 -12.787200 10.910000
9.760360 0.386775 15.744800 -12.787200 14.950000
9.987340 0.395770 16.111000 -12.787200 14.150000
-6.536330 6.526630 17.049100 -13.586400 6.410000
0.760804 1.714310 19.732500 0.888000 4.870000
-5.517300 1.775380 18.955100 -13.852800 6.160000
0.505345 1.751580 20.170100 0.888000 12.260000
-5.637240 1.813970 19.367200 -13.852800 5.400000
9.611500 1.033030 17.796300 -13.142400 6.950000
0.238386 1.613540 20.618800 0.888000 17.630000
9.816000 1.055000 18.174900 -13.142400 8.480000
0.243352 1.647150 21.048300 0.888000 18.060000
0.248488 1.481410 21.492600 0.888000 13.950000
0.253458 1.511040 21.922400 0.888000 7.370000
0.862902 0.658237 22.380500 0.888000 7.340000
0.878317 1.358840 22.780300 0.888000 7.920000
-0.134266 1.384480 23.227000 0.888000 6.580000
0.000000 1.410110 23.657500 0.888000 6.470000
18.140200 1.702660 15.155900 -9.768000 9.100000
9.527180 1.208860 21.666500 -13.497600 5.660000
2.034560 2.235650 23.940300 0.888000 5.610000
18.470000 1.733620 15.431500 -9.768000 9.450000
-5.469190 1.808050 23.432800 -14.119200 5.020000
9.870140 1.230840 21.985000 -13.497600 8.470000
0.612525 2.275570 24.448000 0.888000 7.210000
18.799800 1.764580 15.707000 -9.768000 5.340000
10.221600 1.101070 22.306100 -13.497600 12.410000
0.623089 2.392440 24.869600 0.888000 6.500000
10.400900 1.120390 22.697500 -13.497600 12.190000
-4.930830 1.782810 26.635500 -14.296800 9.660000
-4.800410 1.811110 27.096100 -14.296800 7.910000
-5.617030 1.752960 27.383400 -14.208000 4.320000
-5.703440 1.779930 27.804700 -14.208000 6.150000
-3.928820 1.896000 28.538800 -14.385600 4.490000
10.124600 -0.602649 27.030000 -13.852800 4.500000
-5.877390 1.743410 28.652700 -14.296800 6.290000
10.488400 -0.339819 27.357600 -13.852800 6.710000
-5.965900 1.585440 29.084200 -14.208000 11.050000
10.803000 -0.344817 27.697900 -13.852800 7.570000
-6.222820 1.608420 29.470300 -14.208000 13.490000
18.419100 0.629634 23.877700 -11.899200 12.580000
19.606400 -5.885650 22.152900 -0.355200 7.740000
19.967700 -3.493250 22.914500 -0.355200 7.790000
19.558600 -0.167914 24.082600 -11.810400 11.260000
-17.990900 -0.170246 25.802300 -11.721600 11.350000
-7.815880 1.896030 32.633800 -14.119200 8.650000
-7.913170 2.130520 33.040000 -14.119200 6.520000
-18.149200 -1.332320 29.277100 -12.254400 7.680000
-3.824590 0.836494 34.682600 -14.474400 5.570000
-17.220300 -1.348980 30.329100 -12.343200 5.340000
-17.647600 -1.271750 31.081500 -12.520800 6.210000
-19.035100 0.544370 31.790200 -12.254400 8.050000
-4.599360 2.693300 37.107500 -14.385600 6.450000
-3.938300 0.205228 37.713600 -14.474400 7.240000
23.531100 -4.213130 29.434700 -0.710400 6.730000
-4.203470 0.207560 38.118500 -14.474400 8.340000
-7.699400 1.600720 37.535100 -14.208000 5.120000
-17.681600 -1.837690 33.981100 -12.698400 6.870000
-7.785910 1.618700 37.956900 -14.208000 5.210000
-17.877500 -1.978130 34.357600 -12.787200 11.220000
-7.872420 1.636690 38.378600 -14.208000 6.530000
20.376100 -2.000110 33.442300 -12.787200 8.150000
-18.076200 -2.000110 34.739400 -12.787200 7.660000
-8.183080 1.654680 38.753700 -14.208000 6.050000
-7.515700 1.672660 39.327100 -14.296800 7.030000
-15.996900 -2.066050 37.154400 -13.231200 10.780000
-17.061900 -2.159870 36.672200 -13.053600 9.340000
-15.956700 -1.708630 37.658700 -13.231200 9.210000
-15.828700 -1.854430 38.173200 -13.320000 9.230000
-15.695800 -1.873750 38.692900 -13.320000 7.850000
12.894700 0.524721 43.364900 -14.119200 8.210000
12.764200 0.529718 43.852400 -14.208000 10.300000
-2.555450 13.010800 44.158600 -14.563200 7.480000
12.885000 0.392129 44.267500 -14.208000 5.540000
13.005700 0.251870 44.682200 -14.208000 5.260000
-4.056040 13.949100 44.665100 -14.563200 10.170000
12.158500 -1.815290 45.330700 -14.208000 6.260000
-2.353600 14.077100 45.199100 -14.563200 9.910000
11.998800 -2.417720 45.791400 -14.208000 6.510000
12.374800 -2.439700 46.136900 -14.208000 7.030000
-16.544300 -0.275192 48.078600 -13.675200 6.120000
14.301500 0.609676 50.583400 -14.208000 5.680000
14.419100 0.450765 50.999600 -14.208000 6.970000
14.927400 -0.649655 53.987500 -14.208000 21.720000
15.042300 -0.654652 54.402800 -14.208000 6.610000
15.156500 -0.835544 54.815900 -14.208000 7.660000
14.525600 0.664647 55.434400 -14.208000 6.550000
14.957400 0.669644 55.765600 -14.208000 7.820000
15.069000 0.674641 56.181800 -14.208000 14.730000
15.180000 0.860864 56.595600 -14.208000 16.130000
15.072400 0.321835 57.521400 -14.296800 21.620000
15.181600 0.324167 57.938200 -14.296800 21.800000
15.509500 0.141928 59.189400 -14.296800 18.430000
15.519200 -16.170800 57.860300 -14.296800 19.160000
15.837200 0.000000 60.440000 -14.296800 15.770000
15.473500 1.313240 60.964700 -14.296800 8.910000
15.581200 0.930493 61.389000 -14.296800 14.300000
15.687200 0.936822 61.806600 -14.296800 10.330000
15.793200 0.943152 62.224200 -14.296800 10.920000
15.536100 1.149350 62.729500 -14.296800 13.250000
15.633900 2.112550 63.124400 -14.296800 21.030000
16.102800 2.328990 63.443700 -14.296800 23.090000
16.369300 -13.264000 62.470600 -14.296800 21.100000
15.692500 -11.940500 63.361100 -14.296800 15.790000
13.796600 1.187670 65.338200 -14.385600 13.090000
16.510600 3.792050 65.050800 -14.296800 9.720000
15.843100 1.009460 85.581800 -14.474400 11.700000
15.921500 1.014460 86.005500 -14.474400 6.790000
16.000000 1.019460 86.429200 -14.474400 6.640000
-14.302900 1.303960 87.595800 -14.296800 6.320000
-14.371600 1.586110 88.016600 -14.296800 6.250000
-14.440200 1.870910 88.436500 -14.385600 8.860000
-14.508600 2.158360 88.855500 -14.385600 9.620000
-13.692500 0.000000 99.461600 -14.385600 6.620000
-13.751200 0.000000 99.888500 -14.385600 7.510000
-13.809800 -0.548051 100.314000 -14.385600 13.290000
-13.867800 1.179370 100.735000 -14.385600 13.600000
-13.927300 0.552716 101.168000 -14.385600 8.560000
-12.614700 0.237879 101.775000 -14.474400 10.770000
-12.667700 0.238878 102.203000 -14.474400 14.300000
-12.719900 1.199360 102.624000 -14.474400 13.220000
-12.376700 0.248873 106.578000 -14.474400 9.520000
-12.426200 0.583034 107.004000 -14.474400 8.930000
-12.476000 0.585366 107.432000 -14.474400 8.670000
14.588000 2.697150 150.950000 -14.563200 8.610000
14.629400 2.704810 151.378000 -14.563200 12.820000
14.671600 2.240780 151.815000 -14.563200 13.050000
