VERSION .7
FIELDS x y z velocity SNR
SIZE 4 4 4 4 4
TYPE F F F F F
COUNT 1 1 1 1 1
WIDTH 206
HEIGHT 1
VIEWPOINT 0 0 0 1 0 0 0
POINTS 206
DATA ascii
-8.12467698517917 5.78830066471866 -1.16860490458156 3.86786768229318 5.11381830550482
-7.38690127236966 6.7768488057398 -0.623255949110165 3.86786768229318 5.11381830550482
0.614114301246522 9.87753329087322 1.71395386005295 3.86786768229318 5.11381830550482
-8.16816736296531 5.81928471283621 -0.545348955471394 4.02258238958491 8.21273690106025
6.80680613580443 8.60196326707145 -0.596475420046837 2.93957943854282 5.14865125847139
7.49854813773167 8.02832115521747 -0 2.93957943854282 5.14865125847139
6.80680613580443 8.60196326707145 -0.596475420046837 3.09429414583454 5.4626623555246
7.49832255821996 8.02807963849547 0.085210774292405 3.09429414583454 5.4626623555246
7.00973081556734 8.85840521744831 -0.262936103530851 2.93957943854282 5.8269672631343
7.00403189181444 8.85120331808372 -0.525872207061701 3.09429414583454 5.7730989842645
-8.2735126722058 10.244749947227 0.613517574905318 0.309429414583454 10.5157014044152
-8.37237154703944 10.1574300143748 0.715770504056204 0.464144121875182 8.10543849829459
-7.66804681939416 10.7210798226007 0.204505858301772 0.464144121875182 8.10543849829459
9.90778678029583 8.6741959013244 0.613517574905318 0.464144121875182 8.10543849829459
-8.35886196610251 10.563342359454 0.837500181616785 0.154714707291727 6.15760912401374
-8.25437619152623 10.645189000678 0.837500181616785 0.309429414583454 11.1169014938209
-7.84943815284885 10.9746921193041 0.314062568106295 0.309429414583454 11.1169014938209
-7.95601237670871 10.9017012117306 -0.104687522702098 0.464144121875182 9.47584261407135
6.48105184216236 11.8158848315197 -0.732812658914685 0.464144121875182 9.47584261407135
-8.45016361716292 10.8976846589203 0.749854813773166 0.154714707291727 5.48775428400725
-8.33514034579796 10.9691853283935 0.964099046279786 0.309429414583454 5.55355950849134
6.28490382599968 12.4764588763915 -2.0815774862859 0.309429414583454 5.18471439385235
6.83791777719799 11.7124900737865 3.94404155296276 0.309429414583454 5.18471439385235
6.20261438470511 12.313102227078 3.06758787452659 0.464144121875182 7.163925081527
-12.7358612976004 6.72620982660222 1.00792173020159 4.79615592604354 5.8433529370725
-8.46649740884219 12.0784108737571 -0.228851793813888 -0.464144121875182 5.58132391878536
7.23459957700416 12.6508978084555 2.28851793813889 -0.464144121875182 5.58132391878536
5.93222002299285 13.4581350031594 1.14425896906944 0.309429414583454 7.93516286094542
6.34508697664162 13.1574924429213 2.059666144325 0.464144121875182 5.58323489803053
8.50894685153805 12.1389697785183 2.68779128053758 -0.154714707291727 6.59818857743427
7.11693930907556 12.7066269760368 3.85639618511914 0 9.51502074198927
7.55435346835187 12.1680947843457 4.67441961832623 0 9.51502074198927
-1.75545972163053 14.9853538796488 2.98237710023419 -0.154714707291727 17.8782111133151
6.32187859998941 14.0183440034583 -0.238590168018734 -0.154714707291727 17.8782111133151
6.62555472709492 13.4413738064226 3.45955743627165 -0.154714707291727 17.8782111133151
7.47728366321076 13.3499879901006 1.55083609212178 -0.154714707291727 17.8782111133151
-2.24440576567376 15.0628263924568 2.14731151216861 0 30.6972455642516
6.66010421244413 13.511464925812 3.10167218424355 0 30.6972455642516
6.84356194386632 13.5854774431818 2.26660659617798 0.154714707291727 11.7917768651654
7.60200419149339 13.5726647841995 2.06940451852984 -0.154714707291727 19.1719211329508
7.74462763655611 13.5427665003104 1.70421548584811 0 28.9859812881007
7.0594716749978 14.0140900291582 0.243459355121157 0.154714707291727 21.0526704314209
7.88859045610751 13.5121597573798 1.21729677560579 0.154714707291727 21.0526704314209
7.7076142574417 13.7612216419499 2.73161396445939 -0.154714707291727 5.50003863250435
7.88507853744233 13.7883682057407 1.98662833778865 0 8.37039669616574
-11.6196024005273 15.6037011066968 -0.452834400525355 -0.464144121875182 5.71720212780298
-11.6213509573929 15.606049204141 -0.301889600350235 -0.309429414583454 6.37835323192406
-11.8045274300363 15.8520327438856 -0.613517574905319 -0.464144121875182 8.12781974429975
-11.8045274300363 15.8520327438856 -0.613517574905319 -0.309429414583454 6.97272133805079
-12.8279360281526 14.935415518143 -1.84055272471595 1.23771765833382 5.50294278001755
-7.89760825816031 17.9169143640032 -2.76082908707393 1.23771765833382 5.50294278001755
-12.8368861328154 14.9458360200676 -1.68717333098963 1.39243236562554 18.6078884304644
-7.9350765405502 18.0019168084144 -1.99393211844228 1.39243236562554 18.6078884304644
-12.8182005655042 14.9240806331235 -1.99393211844228 1.54714707291727 5.16176236368225
-8.08767416633001 17.933877858978 -1.99393211844228 1.54714707291727 5.16176236368225
0.152337693472109 19.6390892955122 -2.30069090589494 1.54714707291727 5.16176236368225
0.15475575209865 19.9508208716314 -2.33720980916312 1.23771765833382 21.9337908665844
0.15475575209865 19.9508208716314 -2.33720980916312 1.39243236562554 80.7930757352594
0.154892552731122 19.9684569522071 -2.18139582188558 1.54714707291727 21.1019011759136
0.157312748867546 20.2804640920853 -2.21548013160254 1.23771765833382 30.3654913738029
0.153904473971913 19.8410756945497 4.74745742486258 1.54714707291727 34.6016580953423
0.648039711913101 20.876588308235 -2.44676651896764 1.39243236562554 17.4393539288127
0.646773689942931 20.8358034319774 -2.77300205482999 1.54714707291727 5.72530616750344
0.164573337276817 21.21648551172 -2.31773306075343 1.39243236562554 5.76662171838074
6.81140896843266 21.4614533052094 1.92819809255957 -1.701861780209 7.73333167868093
7.49908332403645 21.19618199085 2.27877956393404 -1.701861780209 7.73333167868093
6.92377735972073 21.8155047200909 1.06635197543067 -1.85657648750073 7.62280395839766
7.63091587867503 21.5688071104405 1.24407730466912 -1.85657648750073 7.62280395839766
6.93045374438577 21.8365407375141 0.35545065847689 -1.701861780209 20.001964031773
6.58922926605324 20.76140734848 7.10901316953782 -1.54714707291727 7.33659865405297
7.64126951304072 21.5980716896963 -0.35545065847689 -1.54714707291727 7.33659865405297
7.53386719113724 21.8641454552943 2.16191907347588 -1.85657648750073 8.71373018289474
8.23107156474699 21.5504154674528 2.70239884184486 -1.85657648750073 8.71373018289474
7.02623698879662 22.1383355110877 -0 -1.701861780209 17.8908570917206
8.20618391659881 21.4852551595412 3.24287861021382 -1.701861780209 17.8908570917206
6.02606563072733 22.0408453207737 5.66043000656692 -2.16600590208418 7.24501901709905
6.99670508263881 22.045286095327 4.38226839218084 -2.16600590208418 7.24501901709905
7.66743303887194 22.2517688429439 3.88561130773368 -1.39243236562554 5.48347810075719
-7.99055107239194 22.5853170873206 3.18688295853596 -2.01129119479245 23.6759118005564
-2.2068636500498 23.606509274539 4.68659258608229 -2.01129119479245 23.6759118005564
6.90080374359814 23.0334860340484 2.43702814476279 -2.01129119479245 23.6759118005564
-7.97291822524328 22.5354777908319 3.56181036542254 -1.85657648750073 39.4989125785503
-3.15566825699995 23.7225045014914 3.37434666197925 -1.85657648750073 39.4989125785503
-2.19586808102204 23.4888912231351 5.24898369641217 -1.85657648750073 39.4989125785503
6.90080374359814 23.0334860340484 2.43702814476279 -1.85657648750073 39.4989125785503
8.42672586983924 22.6235901977868 1.12478222065975 -1.85657648750073 39.4989125785503
7.02095080645151 23.4345126096603 0.949491484972516 -2.16600590208418 10.9292100124326
7.57740031436179 23.217099293744 1.70908467295053 -2.16600590208418 10.9292100124326
8.35150239948148 23.0010237037226 0.759593187978014 -2.16600590208418 10.9292100124326
7.02095080645151 23.4345126096603 0.949491484972516 -2.01129119479245 157.146732613198
7.57740031436179 23.217099293744 1.70908467295053 -2.01129119479245 157.146732613198
8.34647133774553 22.987167565664 1.13938978196702 -2.01129119479245 157.146732613198
7.01587232426128 23.4175616640967 1.32928807896152 -1.85657648750073 145.739714209029
7.57740031436179 23.217099293744 1.70908467295053 -1.85657648750073 145.739714209029
8.34319952074314 22.9781565953228 1.32928807896152 -1.85657648750073 145.739714209029
6.34679445106475 23.969144626208 0.192332890545714 -2.16600590208418 9.39617200905296
7.67848948048952 23.5268357614163 1.53866312436572 -2.16600590208418 9.39617200905296
8.45016361716292 23.2727483465449 1.34633023382 -2.16600590208418 9.39617200905296
7.11631695019145 23.7528254934302 -0 -2.01129119479245 113.474681897387
7.67848948048952 23.5268357614163 1.53866312436572 -2.01129119479245 113.474681897387
8.45016361716292 23.2727483465449 1.34633023382 -2.01129119479245 113.474681897387
7.11438999093866 23.7463936934999 0.576998671637146 -1.85657648750073 102.383132406118
7.67454647223822 23.5147544128946 1.73099601491143 -1.85657648750073 102.383132406118
8.45016361716292 23.2727483465449 1.34633023382 -1.85657648750073 102.383132406118
8.31025434093187 23.4889593553457 3.11627974555082 -2.01129119479245 8.20159149712693
8.28355140285016 23.4134834190461 3.7005821978416 -1.85657648750073 7.14938495072126
15.4518073820926 23.8979910479068 2.43702814476279 1.23771765833382 6.04092891286915
15.4410341079614 23.8813289447381 2.65857615792304 1.39243236562554 14.8741746045838
7.79303155928459 27.6274421848316 3.13575649396052 -2.47543531666763 5.03299006439229
15.8217093903766 23.9798864915086 2.91177388724905 1.23771765833382 6.01967580615008
-22.851204986484 20.0060652322763 2.12540017020771 3.24900885312627 10.1065329224027
17.3404086218631 24.7380433654848 3.77848919148037 3.24900885312627 10.1065329224027
18.1971344413609 23.9477359530735 4.72311148935047 3.24900885312627 10.1065329224027
24.5798135524953 17.5115086278635 4.01464476594789 3.24900885312627 10.1065329224027
-23.109106831056 20.2318564379954 1.67013117613114 3.09429414583454 10.0820916622957
-23.3367762565257 19.9474266106068 1.90872134414988 3.24900885312627 24.9692794314307
-23.3473450458092 19.9564604268579 1.67013117613114 3.403723560418 5.519410559875
-23.5855832605623 20.1600977781524 1.68717333098962 3.24900885312627 9.98207087383221
-5.62323433422238 34.0607779777795 0.535610581266546 -0.309429414583454 6.06732504185921
16.5794349450665 30.2266821271434 1.87463703443291 -0.309429414583454 6.06732504185921
18.3172100995031 28.9101551015874 4.55268994076565 -0.309429414583454 6.06732504185921
-21.5655931690404 27.811891519051 4.40174514059054 0.309429414583454 5.70691510745098
6.61580840221732 34.917242771157 4.1631549725718 -2.78486473125109 5.74992800140969
7.47539684859153 34.9026302086139 2.49789298354308 -2.78486473125109 5.74992800140969
6.64610519531001 35.0771446932335 5.3195869093973 -2.78486473125109 6.07850824317929
14.8970695732066 32.2957026511611 6.1595216845653 -0.464144121875182 9.66140316601934
-7.0601089022201 35.7170423252366 -0.282412851940542 -3.24900885312627 7.78208804778751
-6.65603117080167 33.6728158641945 -12.1437526334434 -3.09429414583454 5.1873944832192
15.6602146657538 32.4738111357207 5.08343133492978 -0.464144121875182 9.917983545593
-20.8980787713615 29.2186492758614 5.93066989075141 -0.309429414583454 6.24697443015654
-11.2880151565956 44.0541169076282 1.7650803246284 -3.09429414583454 5.29817558497118
4.94222490895951 45.242396313504 -0 -3.09429414583454 5.29817558497118
7.26101587070977 43.9810676144584 9.17841768806766 -3.09429414583454 5.29817558497118
8.43560419084864 44.5218515328425 4.23619277910815 -3.09429414583454 5.29817558497118
-33.9700987299876 53.6151967338531 8.44317043560176 -3.09429414583454 5.77263191071432
-29.5392162869457 56.1782131229529 8.44317043560176 -3.09429414583454 5.77263191071432
-26.7103732579569 56.6266620485581 13.4097412800734 -3.09429414583454 5.77263191071432
-18.7613604495572 60.8235844944468 6.95319918226028 -3.09429414583454 5.77263191071432
-14.1071165488076 61.1071646762843 12.9130841956262 -3.09429414583454 5.77263191071432
7.95079935229412 63.5692739487972 5.98910013598049 -3.24900885312627 14.9689108472941
11.456986677376 63.1896562519205 3.992733423987 -3.24900885312627 14.9689108472941
7.94476527869495 63.5210295320213 6.48819181397886 -3.09429414583454 22.6666388034547
10.9638198830278 63.3066050430733 3.49364174598861 -3.09429414583454 22.6666388034547
7.93824332747002 63.4688843720534 6.98728349197724 -2.93957943854282 11.1271016182826
10.96811938614 63.3314309658178 2.99455006799024 -2.93957943854282 11.1271016182826
7.98352023127395 63.8308882126653 6.51984153014461 -3.24900885312627 10.5175914382346
11.0123146599932 63.5866205599964 4.01221017239669 -3.24900885312627 10.5175914382346
7.9769664656528 63.7784886860634 7.0213678016942 -3.09429414583454 16.8732863866565
11.0123146599932 63.5866205599964 4.01221017239669 -3.09429414583454 16.8732863866565
7.98352023127395 63.8308882126653 6.51984153014461 -2.93957943854282 9.18801544133112
11.0123146599932 63.5866205599964 4.01221017239669 -2.93957943854282 9.18801544133112
8.2020548612285 65.5781449529416 7.74200749285283 -3.09429414583454 6.22312564587173
11.3426405359106 65.4939676329433 3.09680299714113 -3.09429414583454 6.22312564587173
-32.7742960794509 61.0234009444843 7.56671675716559 -3.24900885312627 10.1430762955714
-30.1241589310327 61.1133855917348 14.5929537459622 -3.24900885312627 10.1430762955714
-20.9540581491571 66.0222492302144 7.56671675716559 -3.24900885312627 10.1430762955714
-15.8812366827347 66.3745391347766 14.0524739775932 -3.24900885312627 10.1430762955714
-32.714379152587 60.9118399015709 8.64767629390353 -3.09429414583454 5.85319120059805
-20.9157506057524 65.9015494516768 8.64767629390353 -3.09429414583454 5.85319120059805
-15.798852303062 66.0302192721666 15.6739132827001 -3.09429414583454 5.85319120059805
8.09555607633757 69.1071239981393 7.60080106688256 -3.24900885312627 31.0718570293115
11.3843832621329 68.9569254380148 3.80040053344127 -3.24900885312627 31.0718570293115
8.08840610578105 69.0460887959651 8.14371542880274 -3.09429414583454 18.452013538305
11.3843832621329 68.9569254380148 3.80040053344127 -3.09429414583454 18.452013538305
8.08840610578105 69.0460887959651 8.14371542880274 -2.93957943854282 8.66413449170056
11.3843832621329 68.9569254380148 3.80040053344127 -2.93957943854282 8.66413449170056
8.12467698517917 69.3557125125389 8.18023433207091 -3.24900885312627 31.7005281502967
11.4302577582983 69.2347941761578 4.36279164377116 -3.24900885312627 31.7005281502967
8.12467698517917 69.3557125125389 8.18023433207091 -3.09429414583454 16.2417454456708
11.4243881662685 69.1992411724835 4.90814059924255 -3.09429414583454 16.2417454456708
8.11699261207299 69.290115421976 8.7255832875423 -2.93957943854282 8.67057721832158
11.4243881662685 69.1992411724835 4.90814059924255 -2.93957943854282 8.67057721832158
8.15322918623403 69.5994462943955 8.76453678436169 -3.24900885312627 5.68991604908652
11.4687968938794 69.4682315295495 5.47783549022606 -3.24900885312627 5.68991604908652
-0.966746396045732 2.80560876443254 -1.02252929150886 0 5.09290547476677
-0.599720997311056 3.03398439612686 -0.535610581266548 0 5.09290547476677
5.80570723883201 11.2797339027912 -4.60625099889231 -1.5573256720812 5.79155618695698
-1.26299496876352 13.5100790858281 -2.57093079007943 -1.34968224913704 8.01704381278333
7.4267116946009 12.7210197370246 -0.800981278348609 -1.5573256720812 5.37598119690583
6.63350685926181 13.1684871920337 -0.457703587627778 -1.34968224913704 5.25969496443371
-7.85874394876408 17.8287448219714 -3.37434666197925 0.5191085573604 16.5379978790401
-7.90608435915313 17.9361436763044 -2.6074496933476 0.62293026883248 25.3661322559102
-7.96035808167204 18.059271793932 -1.22703514981064 0.726751980304561 6.60227519926961
0.15475575209865 19.9508208716314 -2.33720980916312 0.5191085573604 86.4095188267022
0.15475575209865 19.9508208716314 -2.33720980916312 0.62293026883248 135.7306022499
0.15475575209865 19.9508208716314 -2.33720980916312 0.726751980304561 32.4391958643353
0.157173810725192 20.2625524477506 -2.37372871243129 0.5191085573604 195.906023716455
0.157173810725192 20.2625524477506 -2.37372871243129 0.62293026883248 307.494625854704
0.157173810725192 20.2625524477506 -2.37372871243129 0.726751980304561 73.0474022553211
0 20.5554431015543 -2.57093079007943 0.5191085573604 122.863641330605
0.159732945003969 20.5924712319636 -2.2495644413195 0.62293026883248 192.76801806681
0.159864179388373 20.6093897222939 -2.08888126693953 0.726751980304561 31.0538702825096
-0.323040142427802 20.8209847680378 -2.93611982276116 0.5191085573604 14.6077470509246
0.321450454558725 20.7185242296687 -3.58859089448587 0.5191085573604 14.6077470509246
-0.322673223250557 20.7973356371803 -3.09923759069234 0.62293026883248 23.6896078970305
0.320042996868694 20.6278090172943 -4.0779441982794 0.62293026883248 23.6896078970305
0.329417096921497 21.2320001650155 -2.15218069927104 0.62293026883248 6.23166493961976
14.7995475161055 25.3497569036211 2.97507331958055 -0.10382171147208 12.6591469315733
15.9400519485199 24.1592502404797 5.72129484534721 0 10.2534818809802
22.0047854660434 19.2650310439338 3.8904804948361 0 10.2534818809802
-20.7094159717191 20.7829127463876 -5.3195869093973 -0.10382171147208 44.6642669320508
-20.7383520870163 20.8119515546409 -5.0883005220322 0 38.2379760535699
-21.2151530699615 20.8266987103435 -4.90814059924255 -0.10382171147208 40.7763903718996
0 34.3288503044092 5.94527745205868 -1.66114738355328 6.43358131283988
-9.90428226665662 42.9019357269113 -6.91424568544089 -2.90700792121824 5.35637660752385
8.06932995840434 42.5887111639662 10.3713685281613 -2.90700792121824 5.35637660752385
