VERSION .7
FIELDS x y z velocity SNR
SIZE 4 4 4 4 4
TYPE F F F F F
COUNT 1 1 1 1 1
WIDTH 160
HEIGHT 1
VIEWPOINT 0 0 0 1 0 0 0
POINTS 160
DATA ascii
-0.598884209708478 3.02975109340697 -0.559956516778663 0 5.42314343597518
0.072771463337956 3.12643405907661 -0.267805290633274 0 5.42314343597518
6.45576513175661 8.4958958372571 -0.165552361482387 3.403723560418 7.32890047671799
1.23320989953612 10.5272063635104 1.24164271111791 3.55843826770973 7.74027752615652
6.53853135139451 8.43236368290398 -0.165552361482387 3.55843826770973 7.74027752615652
6.6220944592955 8.36853763034422 -0 3.71315297500145 6.66634262071555
7.0306818540003 8.017653794203 0.413880903705969 4.17729709687663 6.43991744282804
7.11103793460604 7.94172703707334 0.496657084447162 4.33201180416836 5.45261680887227
6.64464066892321 8.74445923094067 0.255632322877217 3.403723560418 5.26017469801255
6.73165116910002 8.68141908231285 -0 3.55843826770973 5.97751672309906
7.15425904850686 8.32961993101491 -0.340843097169622 3.55843826770973 5.97751672309906
7.27867587889175 9.0128845244493 -0.810719652553457 2.47543531666763 8.30085220321523
-8.27513145938509 8.12361188838746 -0.630559729763799 2.63015002395936 7.14212637383569
6.42912354480584 9.54933428894934 1.53135934371208 2.63015002395936 7.14212637383569
6.51508587284138 10.7104922653955 -0.681686194339242 1.701861780209 5.48214276535734
7.07277884566745 10.2955697614086 -1.26598864663002 1.701861780209 5.48214276535734
-8.13627224398384 11.3757292098867 -1.97202077648138 0.464144121875182 9.49826762522974
3.4952523867061 13.6410392021529 1.09556709804521 0.464144121875182 9.49826762522974
6.99050477341219 12.2240575413546 -1.09556709804521 0.464144121875182 9.49826762522974
7.86431787008872 11.6810634875276 1.09556709804521 0.464144121875182 9.49826762522974
-2.62143929002957 13.8355627211233 -1.09556709804521 0.618858829166909 7.94007697388814
0.218578855221974 14.088116049568 0.986010388240691 0.618858829166909 7.94007697388814
6.87210858651032 12.2695047063635 -1.31468051765425 0.618858829166909 7.94007697388814
-1.97053712862984 13.9754042387287 0.547783549022606 0.773573536458636 5.24690931087035
5.05915598283114 12.9223220945444 -2.62936103530851 0.773573536458636 5.24690931087035
7.01141849599789 12.2606286555413 0.109556709804521 0.773573536458636 5.24690931087035
6.78515589519523 12.3703100320804 0.657340258827126 1.08300295104209 5.33064854478016
7.15687045136008 12.5149755345553 -0.783939123490128 0.464144121875182 14.3617145813353
7.0418552260945 12.5725713950005 -0.895930426845863 0.618858829166909 16.2615917919665
-8.81504992567105 11.3682573136796 1.23190433691306 0.773573536458636 8.86546279630119
6.60080149869471 12.0342055894244 -4.47965213422931 0.928288243750363 6.94705870127821
7.50138554638144 12.331922163787 -0.335973910067199 0.928288243750363 6.94705870127821
-8.7509541694534 11.7514583160226 1.71638845360416 0.464144121875182 7.35192303210759
7.3153221981173 12.7920547058986 -0.686555381441665 0.464144121875182 7.35192303210759
7.20102028877172 12.8567456715014 -0.686555381441665 0.618858829166909 12.2572383100041
-9.00668144579433 11.6153933422379 1.25868486597639 0.773573536458636 15.4081947576208
-9.10741385606494 11.5093096358076 1.48753665979027 0.928288243750363 8.67214517256195
-8.98091681009154 12.0602699419748 0.934883923665248 0.309429414583454 8.45586836771235
-8.98498409926184 12.065731812557 0.81802343320709 0.464144121875182 10.8805416043303
13.5683206551553 5.97138496539673 -2.68779128053758 0.464144121875182 10.8805416043303
-9.21836030963228 11.8883832642767 0.81802343320709 0.618858829166909 5.74434185128899
-9.18492376122294 11.8452620920537 1.51918637595602 0.773573536458636 8.32358872234303
-9.17576816938051 12.3219314227876 0.715770504056204 0.309429414583454 5.96147895625244
-9.53642659781356 12.051465791279 0.596475420046837 0.464144121875182 7.27743311764169
-9.41040948274962 12.1360579156158 0.835065588065571 0.618858829166909 6.0655073772664
-9.92481046892178 13.3278033756683 -0.774200749285282 -0.309429414583454 6.57468843710662
-8.12812962855781 14.5120123577915 0.258066916428427 -0.309429414583454 6.57468843710662
-8.61612746080153 16.7400147875739 0.438226839218086 -1.08300295104209 5.33424638940351
-8.03198322617092 17.0280061358775 -0.438226839218086 -1.08300295104209 5.33424638940351
-8.16707843779918 17.3144113769938 0.297020413247812 -1.23771765833382 6.37485858408409
-8.60944507265894 17.0910152917885 0.594040826495626 -1.08300295104209 7.18997993502861
-8.74521634186132 16.9908176903494 1.18808165299125 -0.928288243750363 6.74930047038168
-8.16584961327376 17.3118062381421 0.44553061987172 -0.928288243750363 6.74930047038168
-12.6138703851182 14.3846141601877 -0.742551033119532 1.701861780209 11.3810496790257
-8.01351765642802 17.3726907933156 -0.742551033119532 1.701861780209 11.3810496790257
-12.7703408300133 14.2621319102802 -0.297020413247812 1.85657648750073 8.26023370458913
-8.01930990479758 17.3852479429016 -0.148510206623906 1.85657648750073 8.26023370458913
-8.30096496956637 17.5982541864527 0.301889600350235 -1.23771765833382 9.76412081762815
-8.75374487699727 17.3774716361562 0.301889600350235 -1.08300295104209 6.735588240173
-8.74531204269608 17.3607312192329 0.905668801050707 -0.928288243750363 5.4692265654194
-12.7544336389534 14.5449097799925 -2.11322720245165 1.54714707291727 9.75772247335586
-0.75087720621812 19.3463520686114 -1.96228240227653 1.54714707291727 9.75772247335586
-0.150175441243624 19.3603357997306 -1.96228240227653 1.54714707291727 9.75772247335586
-12.9495828449285 14.4623124140439 -1.35850320157606 1.701861780209 79.0423366023288
-0.300104320916548 19.3426966929421 -2.11322720245165 1.701861780209 79.0423366023288
-0.300104320916548 19.3426966929421 -2.11322720245165 1.85657648750073 49.6456604094777
-8.89359597225107 17.6550966383931 -0.46013818117899 -1.23771765833382 5.2472884672018
-9.04938422985344 17.5817763276325 -0 -1.08300295104209 5.95577132152094
-7.96972794245847 18.0805287349989 -0.766896968631648 -1.08300295104209 5.95577132152094
-0.306167618525847 19.7334958865609 -1.22703514981064 1.54714707291727 18.533047222048
-0.304944713189396 19.6546756718605 -2.14731151216861 1.701861780209 133.164427310288
-0.458140572434022 19.682801798978 -1.84055272471595 1.85657648750073 80.9587363304695
-1.23804601678921 19.9129717735712 -2.33720980916312 1.54714707291727 11.0083933438296
-0.467427899733194 20.0818073301857 -0.155813987277541 1.701861780209 49.7142862182483
-0.459943073056112 19.7602414858816 -3.58372170738345 1.85657648750073 24.1053770234394
6.16872336325337 19.4364732798712 -0.632994323315012 -0.928288243750363 6.94349322982673
6.64624044933133 19.2881509891742 0.158248580828752 -0.928288243750363 6.94349322982673
-1.2549340252624 20.1846017707426 -2.6902258740888 1.701861780209 9.66672989118547
6.4271336213314 19.6926905363294 -0.160683174379964 -1.08300295104209 6.13831488307678
6.42655352482558 19.6909131248668 -0.321366348759928 -0.928288243750363 6.56426511717565
-9.11625821759521 21.6659395433705 1.27816161438608 -1.701861780209 5.32838850516641
-9.04895405865283 22.0216725601871 1.48023287913664 -1.701861780209 5.16382754598684
3.8357730436077 24.4264380219881 5.91606232944414 -1.85657648750073 5.61647635084257
5.00486815869309 24.306920999829 5.52165817414786 -1.54714707291727 5.13494860387683
6.01519300231195 24.2818692665349 4.53564778590717 -1.54714707291727 5.13494860387683
7.08195490919198 24.3528182356869 1.77481869883324 -1.54714707291727 5.13494860387683
14.2018292295651 19.8562878374731 7.09927479533297 -1.54714707291727 5.13494860387683
6.22465291940461 24.2931625814332 5.78946346478113 -1.54714707291727 7.40361728232931
6.14530321599367 24.8070925133445 5.05178161876403 -1.54714707291727 10.1111701350396
6.33796494574214 25.5848209973048 -0.61351757490532 -1.54714707291727 5.04766973102701
7.49260270645978 25.0087911800154 -3.68110544943191 -1.54714707291727 5.04766973102701
6.25536344900027 33.0148684622366 4.46991376002446 -2.01129119479245 8.88634428311556
7.61941023070205 33.0046579038884 1.31468051765425 -2.01129119479245 8.88634428311556
7.40799325293542 33.2948749693787 2.65370697082062 -2.01129119479245 6.17480393823815
-8.25455980698938 33.3216477025877 5.94527745205868 -2.01129119479245 5.85568146709383
9.06050023004552 32.1208048969091 9.99887571482596 -2.01129119479245 5.85568146709383
6.48008882720846 34.2009352451116 4.90814059924254 -2.16600590208418 15.1246249964228
8.16816736296531 34.1382950914619 1.90872134414988 -2.16600590208418 15.1246249964228
6.49359408965839 34.2722139912576 4.36279164377115 -2.01129119479245 41.6396557697919
6.55157260831605 34.5782159018938 4.40174514059054 -2.16600590208418 43.9779268223014
6.55157260831605 34.5782159018938 4.40174514059054 -2.01129119479245 120.48151548056
6.27859041630288 34.6288235576135 4.40174514059054 -1.85657648750073 19.4606389824639
6.61580840221732 34.917242771157 4.1631549725718 -2.16600590208418 18.3912693913161
6.6028836406114 34.8490278212497 4.71824230224804 -2.01129119479245 47.2998763264815
14.8291133672882 35.243261657216 2.07914289273469 -0.309429414583454 6.17129552241264
16.6326427655061 34.4902870990727 0.297020413247812 -0.309429414583454 6.17129552241264
14.822400579426 35.2273078686638 2.3761633059825 -0.154714707291727 8.68022763864843
16.6326427655061 34.4902870990727 0.297020413247812 -0.154714707291727 8.68022763864843
15.2349462089716 35.3706409361947 2.69509506119122 -0.154714707291727 5.21562535748976
16.7689759029283 34.7729943703766 0.299455006799023 -0.154714707291727 5.21562535748976
28.8794717761446 26.4944401719043 1.82594516340868 0.618858829166909 5.74472729638311
28.7852872891746 26.4080339774112 3.65189032681737 0.773573536458636 14.1347283624148
-24.2076852260836 31.2192440132696 1.84055272471595 0.618858829166909 19.9363147459477
-24.1981958127847 31.2070060687262 2.14731151216861 0.773573536458636 62.3805247854136
-24.187241863542 31.1928793973355 2.45407029962128 0.928288243750363 13.39605768329
-24.4079000142509 31.4774493835263 1.54596690501935 0.618858829166909 22.7112645106541
-24.3998097120049 31.4670157911527 1.85516028602322 0.773573536458636 76.8427677525916
-24.3998097120049 31.4670157911527 1.85516028602322 0.928288243750363 19.1373456444375
-24.6000882033395 31.7253033156801 1.55813987277541 0.773573536458636 13.7092563812542
-24.2952797075825 31.9729980134025 1.24651189822033 0.928288243750363 6.52130192441348
-19.3164994309685 41.876687144289 1.43154100811241 -0.928288243750363 6.26825312153596
14.6693220921612 43.7320436153975 1.07365575608431 -0.928288243750363 6.26825312153596
16.0873857515113 43.190490377593 2.14731151216861 -0.928288243750363 6.26825312153596
19.5315134728006 41.4072990309736 5.72616403244964 -0.928288243750363 6.26825312153596
14.4088911208884 44.1487372961356 1.08095953673794 -1.08300295104209 7.97744536607728
15.8235200939708 43.5798426855927 2.88255876463451 -1.08300295104209 7.97744536607728
14.4019503722082 44.1274708928052 1.80159922789657 -0.928288243750363 11.1831878698199
15.8153945022833 43.557463846664 3.24287861021383 -0.928288243750363 11.1831878698199
17.2432451077501 42.9835210370102 3.60319845579314 -0.928288243750363 11.1831878698199
29.4724426518721 36.4945117346292 4.01707935949911 2.47543531666763 6.51420422334779
29.4518939421871 36.4690671138494 4.38226839218084 2.63015002395936 9.66070454861248
-34.5472636097788 32.4273769214777 1.10287087869885 2.47543531666763 30.8984892150653
-34.5399839913287 32.4205439944479 1.4704945049318 2.63015002395936 46.7343281544067
-34.7812866525409 32.6470398592338 0.740116439568318 2.47543531666763 30.8180811509621
-34.7812866525409 32.6470398592338 0.740116439568318 2.63015002395936 46.6001436230964
-36.8723508486868 30.7577148134963 0.744985626670741 2.63015002395936 5.17756033427993
-35.3772352098164 32.4555812162779 1.11747844000612 2.63015002395936 5.17756033427993
7.33118295702322 6.26642825027124 -2.80465177099574 0.830573691776641 5.15147444400446
-12.7333986254585 14.2208742334938 -1.48510206623906 0.62293026883248 42.0835573212321
-12.7407186054942 14.2290493105916 -1.33659185961516 0.726751980304561 93.0245803844323
-8.26739000202365 17.1436769700334 -2.07914289273469 0.726751980304561 93.0245803844323
-12.7472644983063 14.2363598740291 -1.18808165299125 0.830573691776641 18.1988405784611
-12.1774705961741 14.773807473521 0.148510206623906 0.830573691776641 18.1988405784611
-0.300104320916548 19.3426966929421 -2.11322720245165 0.62293026883248 230.200350726308
-0.300104320916548 19.3426966929421 -2.11322720245165 0.726751980304561 472.60887291763
-0.300350882487247 19.3585883857494 -1.96228240227653 0.830573691776641 91.1739784815805
-0.304675386944218 19.6373167219593 -2.30069090589494 0.62293026883248 472.156036864938
-0.304944713189396 19.6546756718605 -2.14731151216861 0.726751980304561 1106.45260596424
-0.304944713189396 19.6546756718605 -2.14731151216861 0.830573691776641 181.467130901678
-0.309511504197301 19.9490201619904 -2.33720980916312 0.62293026883248 133.104235390126
-0.309511504197301 19.9490201619904 -2.33720980916312 0.726751980304561 339.439569830647
-0.309785105462244 19.9666546507789 -2.18139582188558 0.830573691776641 48.8764875104905
-1.3707478939219 19.5876025123448 5.53870032900635 0.62293026883248 8.19443418718203
0.156135071280287 20.1286401096529 -3.32322019740381 0.62293026883248 8.19443418718203
0.156520593367808 20.1783408930221 -3.0067230357463 0.726751980304561 19.6037189244287
-0.479198835011911 20.5875145301585 -2.2495644413195 0.726751980304561 5.68840313036284
-0.665366263508012 21.4347628734642 -3.02376519060478 0.62293026883248 5.34069225533417
-0.667974133652966 21.5187753658728 -2.35181737047039 0.726751980304561 5.01479054408347
16.8500249470794 19.2154430046495 -5.05178161876403 -0.31146513441624 11.5102436071633
16.9265254281073 19.7073551031422 -4.499128882639 -0.31146513441624 5.42481752624563
