VERSION .7
FIELDS x y z velocity SNR
SIZE 4 4 4 4 4
TYPE F F F F F
COUNT 1 1 1 1 1
WIDTH 221
HEIGHT 1
VIEWPOINT 0 0 0 1 0 0 0
POINTS 221
DATA ascii
5.18736111987507 6.6898380028435 -0.394404155296276 -3.55843826770973 5.08621860921285
-0.408013863081019 8.7574942940169 -0.613517574905319 -3.86786768229318 15.165579159143
5.29776253100319 6.97194487645179 -0.749854813773167 -3.86786768229318 15.165579159143
5.49045895745083 7.22553662489655 -0.706032129851359 -3.86786768229318 27.7789997267862
5.57161009171766 7.18538155860968 -0.423619277910815 -3.55843826770973 17.4748329410816
4.37751993238402 8.32524618536084 0.438226839218084 -4.95087063333527 8.33669398450185
4.82817681959041 7.93729376580456 1.5337939372633 -4.95087063333527 8.33669398450185
-0.446192421999426 9.57694809727001 -1.6603928019263 -3.71315297500145 7.37956389436632
-8.45265452017523 4.81880299154554 -0.0754724000875587 3.86786768229318 14.0129221400292
5.94008142494109 7.97680091876606 -1.40232588549787 -3.86786768229318 8.67407799084397
-8.90465736807457 4.31855038693537 -1.71395386005295 3.71315297500145 12.8991340395652
-8.90465736807457 4.31855038693537 -1.71395386005295 3.86786768229318 95.0112374171557
-2.449444787905 9.55953066576957 -1.86976784733049 3.86786768229318 95.0112374171557
-2.45302972296592 9.57352171256469 -1.79186085369172 4.02258238958491 49.2697782959947
-2.87360545515253 9.59151333350476 -2.65127237726941 3.71315297500145 43.8835677788749
-2.5332214926419 9.88648883276482 -1.76751491817961 3.86786768229318 311.807162331849
-2.5332214926419 9.88648883276482 -1.76751491817961 4.02258238958491 134.072901183597
5.54583726870944 9.11709351664305 -0.0827761807411935 -4.33201180416836 5.07335068776338
-2.98422765724505 9.96074785192116 -2.40050924149462 3.71315297500145 39.804627752757
-3.03413746602864 9.83655300632079 -2.81439014520059 3.86786768229318 182.737010661731
-2.53499599539973 10.2331614842329 -1.65552361482388 3.86786768229318 182.737010661731
-2.52842372466341 10.2066308278197 -1.82107597630626 4.02258238958491 73.8147367882129
-3.45134654022639 10.2891215068272 -1.70421548584811 3.71315297500145 12.5686162278222
-3.10222020628991 10.3545830965574 -1.95984780872532 3.71315297500145 12.5686162278222
-3.43759536372666 10.2481266301266 -1.95984780872532 3.86786768229318 13.638471957862
-3.04776336152542 10.172817171899 -2.81195555164937 3.86786768229318 13.638471957862
-9.29902417837884 5.30131279141612 2.47111245447975 4.02258238958491 8.38191455380076
-3.3911388941544 10.1096310445237 2.64153400306457 4.02258238958491 8.38191455380076
-2.43486724908289 10.5470053671015 -1.87463703443292 4.02258238958491 8.38191455380076
-2.10940391510692 10.6714598826092 -1.53379393726329 4.02258238958491 8.38191455380076
-3.45439294451169 10.5842347856861 -1.92819809255957 3.86786768229318 6.29166926792357
-2.61381182733769 10.92424720382 -1.22703514981064 4.02258238958491 7.97103479873537
5.3449197468701 9.9518592234189 -0.262936103530851 4.79615592604354 11.2110289899697
5.60778465245387 9.80614197301531 0.262936103530851 4.79615592604354 11.2110289899697
-3.45675965843733 10.8915917897021 -2.07183911208105 4.02258238958491 6.52093988001564
-2.23670422955081 11.3154712968777 -1.35119942092243 4.02258238958491 6.52093988001564
5.40479768368971 10.2789414997089 -0 4.79615592604354 22.2944151075705
5.18019162910183 10.7419066852362 0.185029109892079 4.79615592604354 10.4455027392381
5.55070630933166 10.5564331497298 0.0925145549460397 4.79615592604354 10.4455027392381
5.58739220003058 15.0007100456697 -0 3.71315297500145 5.02190344107319
4.1007288160878 16.5536435774355 2.67805290633274 3.403723560418 8.66736871811397
-4.78278601858845 15.505602075213 5.89171639393202 3.71315297500145 6.42927934350501
-2.64311858921993 16.0097677040542 -5.89171639393202 3.71315297500145 6.42927934350501
4.74597631097622 15.8411082445589 4.95439787671557 3.71315297500145 6.42927934350501
5.41269681189671 15.7082660734896 4.68659258608229 3.71315297500145 6.42927934350501
4.00607772177091 16.7431269889527 3.54476821056406 3.24900885312627 15.6794607151817
4.19774977567591 16.9452935637164 -2.04505858301773 3.403723560418 26.3482377466334
-2.6790802367711 17.0605472783325 3.27209373282836 3.55843826770973 24.3263102171845
-0.654569906877073 16.8649943920171 4.90814059924255 3.55843826770973 24.3263102171845
5.79848598199511 16.3894383933323 2.59040753848912 3.55843826770973 24.3263102171845
5.44657130447904 16.237266612963 3.9537799271676 3.71315297500145 14.8302002197572
4.11769561013773 17.2096262954959 -2.63666481596214 3.24900885312627 22.3100936948117
4.82402695995013 17.1018845387976 2.0815774862859 3.24900885312627 22.3100936948117
-6.03203980689044 16.6129498554295 2.7754366483812 3.55843826770973 64.6022716877663
4.57823043891742 17.2900301669782 0.416315497257181 3.55843826770973 64.6022716877663
5.62751733385489 16.7767011961689 2.63666481596214 3.55843826770973 64.6022716877663
6.670746942196 16.2340314627235 3.4692958104765 3.55843826770973 64.6022716877663
5.46945549547683 16.758371744003 3.05298031321932 3.71315297500145 21.2510298469854
6.03928689486866 16.6329091914144 2.63666481596214 3.71315297500145 21.2510298469854
3.42658633904103 17.335076696072 4.37739920507842 3.09429414583454 10.6121803969042
4.05922890479107 17.5831799705921 2.40050924149462 3.09429414583454 10.6121803969042
5.45311046396783 17.1817132304014 2.54171566746489 3.403723560418 80.4318634088891
4.65855027117913 17.5933640295568 -0.423619277910816 3.55843826770973 62.7202610451587
5.7501434139155 17.1422729007033 2.11809638955408 3.55843826770973 62.7202610451587
6.65942801711673 16.60045208889 3.38895422328652 3.55843826770973 62.7202610451587
5.58658117866639 17.1172439829825 2.68292209343516 3.71315297500145 12.8668349482634
6.16504915059829 16.9792732929503 2.25930281552435 3.71315297500145 12.8668349482634
6.82670573197809 16.6135751513314 2.9653349453757 3.71315297500145 12.8668349482634
5.42357922841004 16.6178071963312 5.08343133492978 3.86786768229318 5.52330817310823
4.26702277684486 17.8337289437023 2.5855383513867 3.09429414583454 20.3711367385159
4.16566884162161 17.4101271251328 4.74015364420895 3.24900885312627 31.6750680127124
-5.55308306178612 17.4967078592398 2.44189733186521 3.403723560418 27.2597747747739
5.76490314371121 16.7304091872051 -5.45835874181636 3.403723560418 27.2597747747739
6.99060748933124 17.012448966921 2.15461529282225 3.403723560418 27.2597747747739
4.73316126657543 17.8751380421151 -1.00548713665038 3.55843826770973 17.9290847572143
6.02129649767501 17.4744920655746 1.14912815617187 3.55843826770973 17.9290847572143
6.96947053551326 16.9610097538493 2.5855383513867 3.55843826770973 17.9290847572143
5.88485100513036 17.5438618914775 0.718205097607416 3.71315297500145 9.37221615067014
6.9839957266378 16.9963584804254 2.29825631234373 3.71315297500145 9.37221615067014
5.15221960432727 17.7170102243478 1.58005121473632 3.86786768229318 5.84899268248533
5.8885730971792 17.5549581569217 0.287282039042966 3.86786768229318 5.84899268248533
6.62297933072306 16.9167095119333 3.59102548803708 3.86786768229318 5.84899268248533
3.65189032681737 18.4748880189429 -0 3.24900885312627 19.7276005139673
4.22994381296418 18.3226580893372 -1.02252929150886 3.403723560418 15.5257348257275
4.72144874351571 17.8309048214994 3.79796593989007 3.403723560418 15.5257348257275
5.69420618146465 17.9413599506503 0.58430245229078 3.403723560418 15.5257348257275
6.66080367254659 17.4391736678973 2.48328542223581 3.403723560418 15.5257348257275
4.70577879118709 18.3654013688369 2.67318371923031 3.24900885312627 12.0930017564983
4.70043381929172 18.3445413670137 2.82169392585422 3.403723560418 15.7881064294473
-4.61289416124696 18.0028973954158 4.6038164053411 3.55843826770973 7.87212162868987
4.30355577845208 18.641519742011 0.742551033119532 3.55843826770973 7.87212162868987
4.89552645771613 18.4883223477862 -0.891061239743438 3.55843826770973 7.87212162868987
5.33332406741618 18.3397766960111 1.33659185961516 3.55843826770973 7.87212162868987
6.57574862259908 17.6541926697541 3.41573475234985 3.55843826770973 7.87212162868987
2.8258853393297 18.9652962589561 3.32078560385259 2.78486473125109 6.35420339560345
2.84290823415213 19.0795416032379 2.56606160297701 2.93957943854282 12.2528469352532
3.45403514860335 19.0503227304342 1.96228240227653 2.93957943854282 12.2528469352532
3.4590702239975 19.0780930938219 1.6603928019263 3.09429414583454 6.36477276813286
4.7657227910783 18.5993468359969 3.16984080367748 3.24900885312627 8.48942181806235
5.50303987132625 18.3680331640491 3.32078560385259 3.403723560418 7.408845577799
14.7767562667946 12.9369435865547 -2.30069090589494 -2.93957943854282 8.18923012647207
2.87892808965226 19.3212807924601 3.06758787452659 2.78486473125109 5.15243414857724
4.64068861323523 23.4772117417402 3.37434666197925 2.93957943854282 21.7249023535234
4.62985511493784 23.4224051484458 3.74927406886583 3.09429414583454 26.7264102518174
4.70095729652399 23.782110595529 3.41816934590106 2.93957943854282 26.3988140563303
4.68405213840861 23.6965875170207 3.98786423688457 3.09429414583454 42.4594944309074
-16.5629811298914 20.5092572863779 0.409011716603544 -1.54714707291727 5.55776296574563
-16.1408696626618 21.2416568103066 0.206940451852984 -1.54714707291727 6.8617107516015
-11.6270797987792 24.6497011486334 1.69447711164326 3.403723560418 5.63629466314963
-11.6211091359683 24.6370431935411 1.90628675059867 3.55843826770973 5.19996195730935
-11.770664707077 24.9541047598795 1.28546539503971 3.403723560418 7.18865098408052
-11.7660506061762 24.9443227501021 1.49970962754633 3.55843826770973 5.72561404260773
16.4141505220744 23.8934420914061 -5.49244305153332 -4.33201180416836 6.00892129642355
16.0897825948052 32.6416113410741 1.12965140776217 4.48672651146009 8.02914153199084
16.2284876171742 32.9230045422903 1.13938978196702 4.33201180416836 5.04814972027816
16.224089025719 32.9140810461595 1.42423722745877 4.48672651146009 17.932228581352
16.3627564532893 33.195397978178 1.43641019521483 4.48672651146009 6.88368979621527
14.445139627392 37.8199555193921 0.628125136212586 4.02258238958491 5.87528359917036
15.6988763056977 37.3103631796667 0.942187704318884 4.02258238958491 5.87528359917036
14.4429662012419 37.8142651015461 0.942187704318884 4.17729709687663 8.05728346686987
-13.3551680540626 42.079592769107 3.0894992164875 3.86786768229318 7.45365471743241
14.0743853195541 41.9584237627146 -0 3.86786768229318 7.45365471743241
13.828075367107 42.3691220630118 0.345712284272043 3.71315297500145 5.16000785200332
15.199896271209 41.8623090439282 1.72856142136022 3.71315297500145 5.16000785200332
16.581705023137 41.3344508088656 1.72856142136022 3.71315297500145 5.16000785200332
13.8284913708818 42.3703966955435 -0 3.86786768229318 9.48684723323641
15.199896271209 41.8623090439282 1.72856142136022 3.86786768229318 9.48684723323641
16.5762088106275 41.3207499906872 2.07427370563227 3.86786768229318 9.48684723323641
16.2538133285968 47.1704278564535 1.16130112392793 3.55843826770973 6.25068487261143
16.3584998813742 47.4742402225424 0.779069936387703 3.55843826770973 5.4020404849207
-20.7615892131493 47.1007935355937 0.399273342398698 3.403723560418 34.0245694936631
-14.9887049746974 48.5927854721411 7.98546684797399 3.403723560418 34.0245694936631
-8.38070345682233 50.7631840990864 1.5970933695948 3.403723560418 34.0245694936631
13.5421744079748 49.5316496241157 3.59346008158829 3.403723560418 34.0245694936631
16.7674623784086 48.661096228106 0.798546684797396 3.403723560418 34.0245694936631
17.5421118128445 48.3130472004223 2.79491339679089 3.403723560418 34.0245694936631
-14.94984502097 48.4668030475005 8.78401353277138 3.55843826770973 19.9056512127865
-8.37237154703944 50.7127164656253 2.79491339679089 3.55843826770973 19.9056512127865
16.7674623784086 48.661096228106 0.798546684797396 3.55843826770973 19.9056512127865
16.4700253739463 49.1002831265809 -0 3.24900885312627 12.2387280677596
13.6379222935224 49.8818556232648 2.81195555164937 3.403723560418 119.472084645308
16.4695299046617 49.0988060382581 0.401707935949909 3.403723560418 119.472084645308
13.6317487296032 49.859275290464 3.21366348759929 3.55843826770973 73.5366023747776
16.4695299046617 49.0988060382581 0.401707935949909 3.55843826770973 73.5366023747776
14.5276690955597 49.9565006285443 2.82899770650785 3.24900885312627 8.87559082851006
16.569843709546 49.3978606000754 -0 3.24900885312627 8.87559082851006
16.5693452374172 49.3963745597021 0.404142529501121 3.403723560418 78.5643352080276
16.5693452374172 49.3963745597021 0.404142529501121 3.55843826770973 52.8364220332396
-15.4271399063625 50.0141740853572 2.84603986136633 -0.154714707291727 6.30163852361245
-18.7238556206707 50.2687334354525 8.42369368719207 2.63015002395936 5.18419283012562
4.17059288358283 53.6061248592125 7.58132431847286 2.63015002395936 5.18419283012562
5.47898142085609 54.0585346852977 5.50705061284059 2.47543531666763 7.01234703677258
6.74848335267891 53.956359351662 5.08343133492978 2.47543531666763 7.01234703677258
4.18490799999576 53.7901221802713 8.4723855582163 2.63015002395936 11.3226309065005
5.48314272405161 54.099592308212 5.08343133492978 2.63015002395936 11.3226309065005
6.7531917977623 53.9940049294355 4.65981205701897 2.63015002395936 11.3226309065005
12.2612841514399 53.1116551842826 3.38895422328652 2.63015002395936 11.3226309065005
13.2274872931985 57.2969140421018 7.82234908004281 3.09429414583454 7.54643116199646
16.073799972607 56.9839831977422 3.68110544943191 3.09429414583454 7.54643116199646
13.2274872931985 57.2969140421018 7.82234908004281 3.24900885312627 18.8148782024538
16.073799972607 56.9839831977422 3.68110544943191 3.24900885312627 18.8148782024538
16.1588465333086 57.285485754344 3.70058219784161 3.09429414583454 17.672869129745
16.150548746957 57.2560688822387 4.1631549725718 3.24900885312627 31.7854132249362
-26.779378471113 53.1610066725277 -14.2423722745877 3.24900885312627 5.00287220519734
-12.2898026573571 59.6873389715569 5.6969489098351 3.24900885312627 5.00287220519734
13.2929487345969 59.7445287787471 6.2033443684871 3.09429414583454 26.4088882999204
16.211925216283 59.2964892751951 2.38590168018735 3.09429414583454 26.4088882999204
13.2929487345969 59.7445287787471 6.2033443684871 3.24900885312627 20.1064143546682
16.211925216283 59.2964892751951 2.38590168018735 3.24900885312627 20.1064143546682
13.3607699016102 60.0493478031285 6.23499408465285 3.09429414583454 12.6763038384982
16.2946391204477 59.599022383742 2.39807464794341 3.09429414583454 12.6763038384982
13.3607699016102 60.0493478031285 6.23499408465285 3.24900885312627 13.9277784426653
16.2892380595045 59.5792675459901 2.87768957753209 3.24900885312627 13.9277784426653
15.179239495142 61.2748932319873 5.90145476813687 3.09429414583454 5.4973777497382
15.254384245118 61.5782342875912 5.93066989075141 3.09429414583454 6.43669480871991
3.10151575781134 6.43145953636768 -1.06391738187946 2.90700792121824 7.47553170773257
5.96817341868966 3.76962982556907 -1.51188259530239 2.90700792121824 7.47553170773257
6.2380353096147 3.94008054163403 -1.51918637595603 2.90700792121824 10.0492719738377
5.24990015257185 6.23981006629719 -0.316497161657506 1.34968224913704 16.9599958930345
4.63421092806952 7.46450613671151 0.204505858301773 0.726751980304561 20.8118828810259
4.79740644155315 7.72737158042789 0.353016064925679 0.726751980304561 28.1481411375861
5.51036697718428 7.86115830450795 -1.58492040183874 0.830573691776641 12.5841592684783
6.11032124857168 7.56615911149084 -0.301889600350236 0.934395403248721 5.16450150699862
6.55344497749374 7.16671029104048 -0.603779200700473 0.934395403248721 5.16450150699862
-6.40294491259884 7.61027047343141 -1.40232588549787 1.5573256720812 5.24739571097534
6.73028820247508 7.05342963827835 -2.41511680280189 1.5573256720812 5.24739571097534
-6.49359408965839 7.56041546530635 -1.24651189822033 1.66114738355328 16.0268406590748
-2.37969291733027 9.60624077912439 -1.71395386005295 1.66114738355328 16.0268406590748
-2.38874505570563 9.64278205727265 -1.48023287913664 1.76496909502536 6.03607287029883
-2.46043728965268 9.93218614646132 -1.60683174379964 1.5573256720812 38.0240563327217
-2.46339333869643 9.94411899656243 -1.52649015660966 1.66114738355328 157.742752281162
-2.46619452017643 9.95542668402369 -1.44614856941968 1.76496909502536 45.0283418687974
-3.38116290510604 9.81252200095191 -2.48328542223581 1.5573256720812 122.583766238005
-2.86209225287066 10.146537665388 1.65552361482388 1.5573256720812 122.583766238005
-2.95392162869457 10.1576919690203 -1.40719507260029 1.66114738355328 373.557873147578
-2.6391784037232 10.3000104380418 -0.910537988153131 1.66114738355328 373.557873147578
-2.63533677537198 10.2850175856978 -1.07609034963552 1.76496909502536 89.8667869895324
-3.49948740545425 10.1559132528685 -2.30069090589494 1.5573256720812 225.153351691655
-3.50531800654954 10.1728343250357 -2.21548013160254 1.66114738355328 326.108922890414
-3.61512741964357 10.2181687275388 -1.78942626014051 1.76496909502536 44.7415075819788
-3.60546994959382 10.4634867343225 -2.27877956393404 1.5573256720812 125.964301737795
-3.61123142735423 10.480207202655 -2.19113419609042 1.66114738355328 148.383657278005
-3.71347241535006 10.4961411592096 -1.92819809255957 1.76496909502536 23.2388428882147
-2.60064985903435 10.8692376603132 -1.66526198902872 1.76496909502536 23.2388428882147
-3.70562189263809 10.7541391436092 -2.34207899626554 1.5573256720812 14.034906418322
-2.5837937951332 11.1921038138805 -1.71151926650174 1.66114738355328 38.9820981598105
-2.58950809443568 11.2168561881363 -1.53135934371208 1.76496909502536 18.1658294199079
-3.40817801503827 11.3758083301182 -1.11017465935248 1.66114738355328 5.68329330515672
6.94440755494323 13.4920804839017 -2.50519676419672 0 6.40935190923963
-5.68305023577134 15.2575272523941 1.13938978196702 -0.10382171147208 6.25091716521318
5.85614888732263 16.5524227719064 0.818023433207091 0 5.56194266668935
5.69230131286874 16.5197103588891 1.90872134414988 0.10382171147208 5.30956722775879
5.27340070115718 16.6154819703309 4.02438314015274 -0.20764342294416 32.4207583127267
5.76477385419281 16.7300339742149 2.63666481596214 -0.10382171147208 10.6022775555951
5.55764546609467 17.0285851707195 -3.24774779731625 -0.20764342294416 19.2104120399997
14.4734786171589 9.72777357796961 -5.22463776090005 0.31146513441624 8.07402254793183
-9.12813423746371 15.3168610015239 -3.67136707522706 0.41528684588832 6.12517901749682
5.50407466500919 17.3422917283239 -3.4473844685156 -0.20764342294416 8.96632282209384
-9.31458789463095 15.6297272100789 -3.4473844685156 0.41528684588832 9.00805800002489
3.993618702481 17.2989791969517 6.28125136212588 -0.41528684588832 12.1878231383476
-9.72059567869651 15.9801983985685 -2.19113419609042 0.41528684588832 5.28686042953806
