VERSION .7
FIELDS x y z velocity intensity
SIZE 4 4 4 4 4
TYPE F F F F F
COUNT 1 1 1 1 1
WIDTH 971
HEIGHT 1
VIEWPOINT 0 0 0 1 0 0 0
POINTS 971
DATA ascii
-6.673930 0.949380 31.606600 -11.455200 9.210000
18.892200 2.251740 26.654700 -9.856800 6.590000
-15.508000 7.651350 27.810300 -25.041600 17.500000
19.144700 2.178990 27.011100 -9.856800 17.680000
18.551200 1.896030 27.962500 -10.123200 9.070000
18.789100 1.920330 28.321000 -10.123200 5.710000
-14.348900 1.315670 30.841100 -14.385600 5.970000
19.030200 1.838190 28.684400 -10.123200 9.540000
19.264800 1.968950 29.038000 -10.123200 5.260000
18.583900 2.102350 29.978300 -10.212000 14.290000
-6.826160 1.584000 34.632000 -11.455200 5.270000
18.813900 2.017570 30.349300 -10.212000 14.380000
-6.910330 1.492810 35.059000 -11.544000 10.080000
19.040500 2.041870 30.715000 -10.212000 11.050000
9.171480 0.951406 35.001400 -11.544000 7.110000
19.267200 2.066180 31.080600 -10.212000 16.140000
9.280670 0.962732 35.418100 -11.544000 5.860000
9.391050 0.773550 35.839400 -11.544000 16.290000
18.990900 1.680580 32.278400 -10.389600 6.290000
9.500250 0.782545 36.256100 -11.544000 11.680000
19.206500 1.817040 32.644700 -10.389600 13.790000
9.112790 0.996711 36.794400 -11.544000 17.820000
19.419400 2.044990 33.006600 -10.389600 9.940000
8.207780 -1.245150 37.440800 -11.544000 17.690000
8.300000 -1.259140 37.861500 -11.544000 10.870000
19.060000 2.454140 34.179900 -10.567200 12.580000
9.426680 0.090954 38.061800 -11.632800 7.390000
19.269400 2.481110 34.555500 -10.567200 12.690000
7.441260 0.214556 38.937600 -11.632800 9.750000
19.478900 2.508080 34.931100 -10.567200 8.090000
7.749630 0.092953 39.317100 -11.632800 8.950000
7.832960 0.093952 39.739900 -11.632800 9.250000
9.921120 -2.844300 40.058200 -11.544000 6.220000
8.063840 -2.873930 40.911200 -11.544000 9.910000
19.392000 1.121300 37.980200 -10.744800 9.890000
19.587800 1.132630 38.363800 -10.744800 9.020000
19.783700 1.143950 38.747400 -10.744800 7.590000
19.977900 1.291160 39.127700 -10.744800 6.290000
19.317900 2.126770 39.901400 -10.833600 16.010000
19.505500 2.147420 40.288700 -10.833600 7.460000
19.693000 2.168060 40.676100 -10.833600 10.740000
19.880600 2.188710 41.063500 -10.833600 18.000000
20.390000 2.066920 41.300900 -10.833600 19.710000
19.603000 2.481560 42.134000 -10.922400 17.000000
19.784500 2.504540 42.524100 -10.922400 7.960000
19.968500 2.417720 42.919500 -10.922400 7.690000
19.743300 2.312600 43.976800 -10.922400 10.550000
19.916500 2.483660 44.362700 -10.922400 11.570000
16.718800 1.580920 45.704100 -9.412800 9.050000
20.092800 2.505640 44.755200 -10.922400 11.740000
20.269000 2.527610 45.147800 -10.922400 10.510000
19.746700 2.240770 45.863800 -11.011200 16.480000
19.914100 2.415840 46.252500 -11.011200 16.440000
20.084300 2.436490 46.647800 -11.011200 11.730000
20.254500 2.457140 47.043100 -11.011200 9.650000
19.953400 2.176260 48.120600 -11.100000 6.050000
20.118400 2.194240 48.518300 -11.100000 16.180000
20.283300 2.212230 48.915900 -11.100000 17.340000
20.442500 2.560380 49.299900 -11.100000 14.150000
19.943200 2.081750 49.991000 -11.100000 13.750000
20.102700 2.098410 50.391000 -11.100000 16.490000
20.262300 2.115060 50.790900 -11.100000 14.830000
20.424200 1.961250 51.196700 -11.100000 9.390000
20.269700 1.916690 55.411200 -11.277600 8.650000
20.415500 2.114480 55.809700 -11.188800 7.450000
20.563400 2.129800 56.214200 -11.188800 8.340000
10.898000 -1.759520 58.869000 -11.632800 6.300000
10.519100 -1.772180 59.375400 -11.721600 8.920000
11.399800 -1.784830 59.651200 -11.632800 5.140000
11.480600 -1.797490 60.074200 -11.632800 8.220000
11.563200 -1.476770 60.506000 -11.632800 6.730000
20.804900 1.848130 59.343000 -11.277600 5.790000
20.947400 1.860780 59.749400 -11.277600 7.130000
21.091700 1.676290 60.161100 -11.277600 8.200000
20.550600 1.898760 61.251500 -11.277600 7.250000
21.162200 1.911420 61.498600 -11.277600 8.120000
21.304200 1.721590 61.911200 -11.277600 8.500000
-3.425340 2.751800 65.781100 -11.721600 11.990000
-3.447730 2.769780 66.211100 -11.721600 13.790000
-3.855750 2.581380 66.628100 -11.721600 11.130000
-17.410400 -1.403180 64.911400 -11.277600 8.850000
-3.880630 2.598030 67.058000 -11.721600 7.080000
-17.144100 -1.412180 65.427700 -11.277600 12.020000
20.917800 1.846180 67.024100 -11.455200 7.270000
21.565200 1.857510 67.271100 -11.366400 7.040000
12.323400 1.857510 69.560000 -11.721600 8.840000
21.175700 1.703970 67.850400 -11.366400 8.930000
12.937600 1.868830 69.886500 -11.721600 6.180000
-29.797000 -0.608349 65.024800 -10.567200 8.910000
13.016000 1.880160 70.310100 -11.721600 7.700000
-13.888800 -4.503760 70.463500 -11.455200 5.180000
-18.454500 1.520120 70.428500 -11.366400 6.800000
-18.563700 1.529110 70.845300 -11.366400 11.510000
-18.671600 1.765930 71.257100 -11.366400 9.770000
21.116800 1.948120 71.016100 -11.455200 5.850000
21.239600 1.959440 71.429000 -11.455200 10.440000
21.913600 2.202560 71.668900 -11.455200 6.950000
22.037400 2.448320 72.073900 -11.455200 7.630000
21.183700 2.462310 72.778100 -11.455200 10.450000
21.307900 2.004750 73.204900 -11.455200 5.600000
21.428300 2.016070 73.618500 -11.455200 13.260000
21.974400 2.265850 73.899900 -11.455200 14.760000
21.670300 1.858880 74.450000 -11.455200 12.810000
21.790700 1.869200 74.863600 -11.455200 11.760000
21.911100 1.879530 75.277200 -11.455200 15.000000
-27.653800 1.646040 73.828300 -10.922400 13.440000
22.030200 2.072710 75.686400 -11.455200 7.170000
-27.804900 1.655040 74.231800 -10.922400 7.450000
-27.954100 1.910510 74.630000 -10.922400 12.080000
22.269100 2.341800 76.507000 -11.455200 11.950000
-28.105200 1.920840 75.033400 -10.922400 5.890000
-28.256300 1.931160 75.436800 -10.922400 4.880000
21.460400 2.865270 77.615100 -11.455200 15.370000
21.579500 2.379780 78.045800 -11.455200 14.400000
21.694300 2.392440 78.461000 -11.455200 8.510000
21.807000 2.658180 78.868600 -11.455200 8.970000
18.566000 0.905195 104.797000 -11.721600 11.860000
18.641100 0.908859 105.221000 -11.721600 6.100000
18.716300 0.912524 105.645000 -11.721600 6.640000
18.791500 0.916189 106.069000 -11.721600 7.460000
20.890400 2.076200 139.767000 -11.721600 5.990000
20.954100 2.082530 140.193000 -11.721600 8.770000
21.016700 2.528580 140.613000 -11.721600 11.910000
21.077700 3.418260 141.020000 -11.721600 10.640000
21.141300 3.428590 141.446000 -11.721600 4.770000
-60.881800 -11.364900 138.456000 -10.567200 7.960000
-62.123100 -11.397200 138.375000 -10.567200 7.590000
-6.948340 1.819030 156.683000 -11.810400 4.390000
-6.967640 1.337640 157.118000 -11.810400 5.710000
-8.222950 1.834020 157.916000 -11.721600 9.270000
-8.245360 1.839020 158.346000 -11.810400 9.170000
-7.139220 1.869010 160.988000 -11.810400 6.380000
-6.225120 1.874000 161.457000 -11.810400 6.060000
-6.241720 1.879000 161.887000 -11.810400 7.360000
-6.258060 2.386370 162.311000 -11.810400 9.810000
6.395490 0.073295 5.776010 -7.814400 7.130000
6.773380 0.076960 5.999830 -7.814400 13.410000
7.035040 0.080625 6.353610 -7.814400 16.370000
7.277530 0.084289 6.726990 -7.903200 15.200000
5.611350 2.491060 9.371420 -10.034400 5.590000
5.751990 2.586870 9.776490 -10.034400 8.160000
4.435160 -1.516540 11.117500 -10.656000 3.950000
6.485440 -2.818920 9.775570 -9.768000 9.790000
4.509780 -1.455610 11.562700 -10.656000 6.960000
6.717060 -2.919600 10.124700 -9.768000 8.560000
4.669770 -1.396560 11.972900 -10.656000 6.910000
5.689070 -1.396560 11.523500 -10.300800 7.070000
6.457070 -3.020270 10.783900 -10.034400 8.690000
5.878710 -1.443110 11.907600 -10.300800 7.650000
4.260060 -1.489660 13.029300 -10.833600 7.120000
3.849760 -1.404990 13.616400 -10.833600 7.120000
4.267760 -1.267100 13.957800 -10.833600 9.490000
4.477150 -1.269520 14.345600 -10.833600 9.870000
6.029330 -1.341640 14.229600 -10.656000 7.150000
-7.127450 1.484970 13.697800 -9.945600 4.090000
6.301550 -0.517645 14.636000 -10.567200 7.120000
8.465410 1.526210 13.423700 -9.856800 6.290000
-7.835810 1.526210 13.800700 -9.768000 5.930000
6.469630 -0.683453 15.026400 -10.656000 10.070000
8.711750 1.176390 13.814300 -9.856800 6.980000
-8.047590 1.567460 14.173700 -9.768000 5.410000
6.429490 -0.805281 15.505600 -10.567200 10.390000
-7.398240 1.763850 14.985500 -10.123200 6.260000
6.594350 -0.825929 15.903200 -10.567200 8.930000
-7.230560 1.809070 15.541100 -10.212000 9.600000
6.866730 -1.527980 16.205900 -10.656000 8.310000
6.096070 -1.565240 16.968200 -10.833600 9.800000
-7.375980 1.788170 16.429500 -10.300800 11.480000
6.839860 -1.602510 17.145300 -10.744800 11.130000
-7.560300 1.602510 16.840000 -10.300800 8.940000
7.898270 -0.043978 17.236100 -10.567200 4.420000
-7.736120 1.639780 17.231700 -10.300800 10.070000
7.941680 -0.044977 17.689500 -10.567200 8.370000
-8.058680 1.333270 17.586100 -10.300800 9.080000
7.450880 0.000000 18.367700 -10.656000 9.690000
-8.237760 1.362900 17.976900 -10.300800 6.640000
8.294660 0.000000 18.475800 -10.478400 8.150000
-7.284520 0.000000 20.276200 -10.656000 3.930000
6.284810 1.481410 20.554600 -11.011200 6.720000
8.124340 1.471520 20.830100 -10.744800 5.820000
-8.286430 1.613020 23.064900 -10.567200 8.900000
18.178300 1.718430 17.064800 -8.080800 9.960000
18.487700 1.826490 17.355200 -8.080800 8.560000
18.224000 1.969480 18.838900 -8.436000 9.950000
-6.687120 1.458480 24.931600 -10.922400 7.100000
18.374600 2.001770 19.289900 -8.524800 6.870000
-7.139820 1.482790 25.253100 -10.833600 4.840000
18.671000 2.034050 19.601000 -8.524800 6.180000
-7.573350 1.615220 26.018800 -10.833600 10.880000
-7.692110 1.725990 26.426800 -10.833600 5.950000
18.371300 1.580020 21.082600 -8.880000 12.030000
7.341990 -1.236290 26.553500 -11.011200 7.240000
-7.812290 1.752960 26.839700 -10.833600 8.690000
18.650600 1.692140 21.403100 -8.880000 10.270000
18.933200 1.717780 21.727400 -8.880000 9.960000
7.569190 -1.450630 27.375200 -11.100000 12.550000
19.002400 1.743410 22.235800 -8.880000 6.080000
18.457700 1.723300 26.471900 -9.590400 5.920000
18.703800 1.746280 26.824900 -9.590400 5.000000
18.949900 1.769260 27.177800 -9.590400 7.450000
19.196000 1.792240 27.530800 -9.590400 6.040000
18.585700 1.838190 28.974300 -9.856800 10.340000
19.043600 1.861170 29.190600 -9.856800 5.360000
19.278700 1.884150 29.550900 -9.856800 8.260000
19.513800 1.907120 29.911300 -9.856800 6.540000
9.500820 0.666625 36.258300 -11.188800 17.000000
18.957000 1.699900 32.796500 -10.123200 5.860000
9.610510 0.557030 36.676900 -11.188800 10.420000
19.169700 1.837690 33.164400 -10.123200 5.680000
9.719720 0.563359 37.093700 -11.188800 10.960000
19.385100 1.858340 33.537000 -10.123200 7.480000
9.828930 0.569689 37.510400 -11.188800 5.970000
19.600500 1.878990 33.909600 -10.123200 14.590000
7.582180 -0.576019 38.467500 -11.188800 4.780000
9.232440 -0.582349 38.548300 -11.100000 5.450000
19.486000 2.260650 34.944000 -10.212000 13.770000
9.288130 -3.959510 38.780800 -11.188800 6.650000
19.695600 2.284960 35.319800 -10.212000 7.940000
9.388000 -4.002080 39.197800 -11.100000 6.300000
19.905100 2.309260 35.695500 -10.212000 10.370000
19.282900 1.357070 37.058600 -10.300800 4.720000
19.481700 1.371060 37.440700 -10.300800 7.420000
19.682400 1.253180 37.826300 -10.300800 17.320000
19.484500 1.143950 38.898800 -10.389600 9.880000
19.677400 1.155280 39.283900 -10.389600 8.820000
19.870300 1.166600 39.669000 -10.389600 6.250000
20.063200 1.177930 40.054200 -10.389600 11.590000
19.886100 1.906470 41.074900 -10.389600 9.100000
19.753600 1.924460 41.615900 -10.478400 8.580000
9.853630 2.885640 44.948500 -11.188800 10.420000
19.938200 1.942450 42.004800 -10.478400 4.950000
19.733200 1.685450 43.063000 -10.567200 7.500000
19.905200 2.144190 43.438300 -10.567200 9.540000
20.084500 2.163510 43.829600 -10.567200 6.830000
-22.924000 -1.417740 42.445100 -9.856800 8.980000
20.261000 2.333250 44.214600 -10.567200 12.210000
-23.128600 -1.430400 42.824100 -9.856800 6.660000
-23.001600 -1.291190 43.385300 -9.945600 11.780000
20.269000 2.527610 45.147800 -10.567200 5.510000
-22.865400 -1.302520 43.943500 -9.945600 10.900000
9.947330 2.221460 48.494000 -11.277600 15.480000
20.093700 2.549590 45.696700 -10.567200 14.760000
-4.929910 1.664860 51.012400 -11.277600 13.270000
20.437400 1.678850 47.468000 -10.656000 4.470000
20.607800 1.692840 47.863600 -10.656000 11.750000
-5.012760 1.692840 51.869800 -11.277600 5.200000
-22.887800 2.194240 47.274900 -10.123200 6.450000
20.445400 2.395310 49.307000 -10.656000 11.390000
20.226600 2.414630 49.862000 -10.656000 16.510000
20.385500 2.601680 50.253700 -10.656000 16.890000
19.865100 2.453260 50.932400 -10.744800 7.510000
20.421800 2.131720 51.190800 -10.744800 12.720000
20.581400 2.148370 51.590800 -10.744800 8.050000
-22.374600 -0.128934 50.883900 -10.300800 9.000000
20.740900 2.165020 51.990700 -10.744800 7.340000
20.352500 1.670910 53.086500 -10.744800 8.450000
20.506700 1.683570 53.488700 -10.744800 9.550000
20.847200 1.930680 55.656600 -10.922400 8.150000
20.713600 1.958660 56.624500 -10.922400 6.640000
20.861500 1.972650 57.029000 -10.922400 6.800000
21.009500 1.986640 57.433500 -10.922400 8.450000
-9.168410 1.822810 61.341400 -11.277600 8.140000
-10.539100 1.835470 61.557900 -11.277600 6.540000
-7.204220 1.835470 62.036600 -11.277600 6.330000
-19.951300 -0.744604 61.021000 -10.744800 4.510000
-16.742700 0.949482 62.421700 -10.922400 14.690000
-8.050460 2.531410 64.950900 -11.277600 5.830000
-7.600960 2.140530 65.453100 -11.277600 12.880000
20.479500 1.936730 62.636300 -11.011200 6.240000
-7.650640 2.154520 65.880900 -11.277600 14.090000
-17.353300 -2.647990 66.226100 -10.922400 6.730000
-16.046200 -2.664650 66.997700 -11.011200 6.080000
21.306200 1.241300 66.463200 -11.011200 5.900000
21.172600 2.088640 67.840700 -11.011200 10.740000
12.477200 0.829559 70.427900 -11.277600 6.250000
21.300900 2.101290 68.251800 -11.011200 6.540000
12.552300 0.834556 70.852100 -11.277600 8.800000
21.429300 2.113950 68.663000 -11.011200 8.070000
12.627900 0.615679 71.278600 -11.277600 9.950000
-14.052300 -4.782450 71.293200 -11.100000 7.820000
-14.135500 -4.810750 71.715000 -11.100000 5.360000
-17.919200 1.095070 72.351700 -11.011200 5.540000
-20.209400 0.879532 73.090800 -11.011200 7.140000
-17.334100 0.884530 74.268100 -11.011200 5.970000
22.468700 1.889860 75.562200 -11.100000 5.960000
22.591400 1.900180 75.975100 -11.100000 7.080000
22.272300 1.910510 76.518100 -11.100000 6.430000
22.389400 2.354460 76.920600 -11.100000 6.530000
22.509800 2.367120 77.334100 -11.100000 6.230000
22.623000 3.130960 77.723100 -11.100000 5.250000
22.267900 1.962150 78.760100 -11.100000 5.790000
-0.965699 3.230880 83.526600 -11.366400 11.950000
-0.970676 3.247540 83.957100 -11.366400 11.960000
-0.490479 2.493700 84.849200 -11.366400 10.320000
-0.492969 2.506360 85.280000 -11.366400 10.220000
-4.952280 2.253930 85.576300 -11.366400 10.530000
-55.336600 -9.007960 106.348000 -9.945600 7.390000
-55.534900 -9.040240 106.729000 -9.945600 6.600000
-55.758100 -8.325510 107.158000 -9.945600 5.050000
-62.100300 -3.986840 138.324000 -10.212000 12.720000
-6.108910 1.839020 158.443000 -11.366400 7.610000
-6.125510 1.844020 158.873000 -11.366400 5.850000
-4.914280 1.355960 159.351000 -11.366400 7.050000
-7.101500 0.371810 160.137000 -11.366400 6.890000
-6.241910 1.377950 161.892000 -11.366400 6.760000
-6.258510 1.381610 162.323000 -11.366400 5.590000
-6.275110 1.385280 162.753000 -11.366400 6.090000
-6.291710 1.388940 163.184000 -11.366400 6.060000
-5.047100 1.392610 163.658000 -11.366400 7.290000
-47.559600 -14.087000 168.216000 -10.833600 4.770000
-47.707400 -12.630700 168.738000 -10.833600 5.030000
6.773530 0.048975 5.999960 -7.903200 12.060000
7.035190 0.051307 6.353750 -7.992000 16.170000
7.355060 0.022988 6.642630 -7.992000 6.290000
7.594200 0.023988 7.019710 -8.080800 15.720000
5.519760 -0.773938 9.218460 -9.945600 4.620000
6.249190 -0.804896 9.263690 -9.679200 8.260000
6.415210 -0.835853 9.669720 -9.679200 5.760000
5.234180 -1.801900 12.156900 -10.567200 4.340000
3.818390 -1.860030 13.118400 -10.922400 4.760000
3.944040 -1.743710 13.550100 -10.922400 8.240000
4.668990 -1.743710 13.317700 -10.833600 8.240000
5.680390 -1.627800 13.406100 -10.744800 7.870000
5.847460 -1.675680 13.800400 -10.744800 5.330000
-7.422390 1.211410 13.072600 -9.856800 6.880000
6.027680 -1.389430 14.225700 -10.744800 4.740000
-7.242700 1.246020 13.661100 -9.945600 9.360000
6.700220 -1.378910 14.401200 -10.567200 11.190000
-7.632580 1.280630 13.938900 -9.945600 12.040000
6.799210 -1.315240 14.837600 -10.567200 6.760000
7.547370 -0.873141 14.504800 -10.300800 9.100000
-7.834810 1.416170 14.308200 -9.945600 6.070000
-8.709770 1.226890 13.811200 -9.590400 7.000000
6.990800 -0.896118 15.255700 -10.567200 7.420000
-7.395790 1.815520 14.980600 -10.123200 8.660000
7.049240 -0.919096 15.701700 -10.567200 8.560000
-7.138240 1.862070 15.577500 -10.300800 7.940000
6.405730 -1.160240 16.423800 -10.833600 3.510000
7.225470 -0.942073 16.094200 -10.567200 9.360000
-7.319120 1.854300 15.972200 -10.300800 5.650000
6.335710 -1.132680 16.914700 -10.833600 9.070000
-7.592090 1.899530 16.318200 -10.300800 8.680000
6.497060 -0.487029 17.345400 -10.833600 8.300000
-7.304950 1.445460 16.966500 -10.389600 7.490000
7.495090 -0.498355 17.408100 -10.744800 10.800000
-8.465350 1.479070 16.900200 -10.123200 9.640000
8.173450 -0.749431 17.567700 -10.478400 8.830000
-8.684210 0.000000 17.337100 -10.123200 9.490000
-8.877060 -0.107278 17.722100 -10.123200 5.740000
6.277360 1.813590 20.530300 -11.011200 5.760000
-7.276150 1.032410 20.252900 -10.744800 5.560000
6.402910 1.849860 20.940900 -11.100000 7.830000
-7.540970 1.053060 20.614700 -10.744800 5.960000
-7.852780 0.935252 20.964800 -10.656000 5.360000
6.372580 1.471520 21.431000 -11.100000 6.910000
7.420430 1.217800 21.564200 -10.922400 7.210000
6.617680 1.528120 22.255300 -11.100000 6.740000
-7.093100 1.240780 22.126400 -10.833600 4.760000
18.285300 1.702660 14.980400 -7.636800 9.190000
7.563190 4.624440 21.979100 -11.011200 7.200000
8.737420 4.624440 21.539200 -10.833600 4.160000
17.989700 1.764580 16.628800 -8.080800 7.890000
-7.622960 1.252820 23.314800 -10.744800 5.130000
18.305300 1.795540 16.920500 -8.080800 7.180000
-7.939310 1.274800 23.663300 -10.833600 8.720000
18.487700 1.826490 17.355200 -8.169600 6.500000
-7.883660 1.669610 24.112100 -10.833600 10.500000
18.239600 1.645090 18.854900 -8.524800 8.060000
18.538600 1.672050 19.164000 -8.524800 5.990000
18.837600 1.699020 19.473100 -8.524800 8.940000
-7.028230 0.965305 26.203400 -11.011200 6.960000
-7.346210 0.810137 26.568800 -11.011200 9.100000
7.444930 -2.012240 26.925800 -11.100000 4.700000
8.472710 0.000000 27.148000 -11.011200 7.400000
-7.569480 2.195490 28.221300 -11.100000 5.010000
18.513300 2.227770 23.158000 -9.235200 10.770000
18.785900 2.167030 23.499000 -9.235200 12.780000
19.054200 2.197980 23.834700 -9.235200 10.330000
18.496500 1.746280 26.968200 -9.679200 15.920000
18.739900 1.769260 27.323100 -9.679200 7.220000
18.983300 1.792240 27.677900 -9.679200 8.540000
19.049000 1.734450 30.728600 -10.034400 17.700000
19.275800 1.755100 31.094400 -10.034400 5.990000
19.502500 1.775750 31.460300 -10.034400 16.410000
8.143530 0.544370 36.147400 -11.277600 10.060000
19.726300 1.912200 31.821200 -10.034400 7.180000
9.011370 0.550700 36.384900 -11.277600 5.580000
9.610510 0.557030 36.676900 -11.277600 7.830000
19.424700 1.837690 33.015600 -10.123200 5.780000
9.433540 0.563359 37.167500 -11.277600 8.390000
19.640000 1.978130 33.381500 -10.123200 7.990000
9.519960 -2.546870 37.508000 -11.188800 4.700000
6.826940 -2.454140 38.535000 -11.277600 7.040000
19.012700 2.113920 34.721700 -10.300800 6.310000
8.692000 -2.725790 38.582000 -11.277600 6.420000
19.219400 2.136900 35.099100 -10.300800 10.390000
8.786480 -2.755420 39.001400 -11.277600 14.910000
19.422800 2.284960 35.470500 -10.300800 14.660000
7.052000 -2.535050 39.805300 -11.277600 6.600000
19.421800 2.309260 35.960700 -10.300800 7.850000
7.127020 -2.562020 40.228800 -11.188800 9.420000
19.280900 1.486260 37.054700 -10.389600 9.890000
9.731050 1.227860 40.630200 -11.277600 12.450000
19.475000 1.762590 37.427800 -10.389600 8.920000
9.038640 1.240520 41.230900 -11.277600 8.230000
19.671100 1.912380 37.804600 -10.389600 14.650000
8.809580 1.253180 41.720700 -11.277600 16.090000
19.485600 1.043040 38.901000 -10.478400 10.840000
19.678600 1.053360 39.286200 -10.478400 13.360000
19.871500 1.063690 39.671400 -10.478400 6.740000
20.065800 0.935456 40.059300 -10.478400 6.410000
20.073700 1.924460 41.462400 -10.567200 10.320000
19.938200 1.942450 42.004800 -10.567200 10.350000
19.910400 1.848600 43.449500 -10.567200 7.410000
20.342800 1.865250 43.724100 -10.567200 10.080000
-23.382200 -0.865847 42.701400 -9.945600 5.610000
19.933800 1.762060 45.333100 -10.656000 13.480000
20.107100 1.777390 45.727300 -10.656000 8.150000
20.280500 1.792710 46.121500 -10.656000 6.980000
-24.763300 -0.275192 44.407700 -9.945600 5.420000
19.985100 2.298720 47.166200 -10.656000 8.230000
-5.278700 1.493690 50.549400 -11.366400 6.480000
20.155800 2.158270 47.568900 -10.656000 5.920000
-5.323440 1.506350 50.977800 -11.366400 9.790000
20.323700 2.176260 47.965300 -10.656000 6.890000
20.768100 2.356680 48.236000 -10.656000 8.740000
20.285800 2.048450 48.922000 -10.744800 11.110000
20.450700 2.065100 49.319800 -10.744800 12.500000
20.615600 2.081750 49.717500 -10.744800 8.300000
20.780600 2.098410 50.115300 -10.744800 9.350000
20.557900 1.945930 50.678700 -10.744800 7.660000
20.424200 1.961250 51.196700 -10.744800 6.850000
20.583700 1.976580 51.596700 -10.744800 8.250000
20.341900 1.991900 52.155000 -10.833600 6.570000
20.352500 1.670910 53.086500 -10.922400 10.870000
-21.373400 -1.495070 52.689100 -10.567200 7.130000
20.506700 1.683570 53.488700 -10.922400 6.130000
-21.228100 -1.506390 53.211800 -10.567200 13.780000
-22.784600 -3.792000 52.919400 -10.389600 8.460000
-20.360700 -3.820300 54.357800 -10.567200 10.460000
20.558500 2.500000 56.200700 -10.922400 9.070000
20.706400 2.517990 56.605000 -10.922400 9.480000
20.856900 2.348220 57.016400 -10.922400 8.050000
21.004900 2.364870 57.420800 -10.922400 6.240000
-7.997490 2.514760 64.523500 -11.366400 5.200000
21.448400 1.172340 62.330200 -11.011200 5.780000
-20.483800 1.376200 62.649700 -10.833600 6.690000
-8.051380 2.328990 64.958300 -11.366400 12.230000
21.588600 1.180000 62.737600 -11.011200 13.020000
21.728800 1.187670 63.145000 -11.011200 9.400000
21.511500 1.778220 64.115500 -11.100000 7.990000
21.172000 1.662660 66.044400 -11.100000 6.670000
21.306200 1.241300 66.463200 -11.100000 9.100000
21.699500 1.484140 67.689900 -11.100000 5.650000
21.962500 1.502130 68.510400 -11.100000 6.790000
13.097500 1.057090 70.750400 -11.366400 7.020000
13.175900 1.063420 71.174100 -11.366400 7.330000
-14.416000 0.000000 73.138500 -11.188800 8.780000
-16.331900 0.176910 74.500000 -11.100000 7.700000
-16.424200 0.177909 74.920900 -11.100000 4.930000
-16.516400 0.178909 75.341800 -11.100000 6.240000
22.101800 1.619060 74.328700 -11.100000 6.690000
22.226000 1.386890 74.746100 -11.100000 8.230000
21.446200 2.072710 75.854000 -11.100000 10.760000
21.563400 2.084030 76.268500 -11.100000 9.680000
21.680600 2.095360 76.683000 -11.100000 11.080000
21.789000 3.097650 77.066500 -11.188800 11.420000
21.906200 3.114300 77.480900 -11.188800 7.790000
21.207400 1.202680 79.067500 -11.188800 5.590000
23.456000 0.954492 78.882900 -11.188800 6.540000
24.190600 0.447770 79.115900 -11.188800 6.460000
20.860000 0.954492 79.608700 -11.188800 6.260000
22.154600 1.196350 78.359600 -11.188800 10.280000
22.023300 3.130960 77.895200 -11.188800 9.520000
-0.981084 2.034440 84.857200 -11.455200 9.750000
-1.643140 2.506360 85.265500 -11.455200 8.180000
30.848900 1.574160 132.172000 -11.277600 10.820000
30.946800 1.579160 132.592000 -11.277600 10.570000
31.044700 1.584160 133.011000 -11.277600 7.800000
-62.251700 -5.878870 138.661000 -10.300800 6.270000
-62.284300 -11.899800 138.734000 -10.300800 7.220000
-60.308300 -11.933400 140.072000 -10.389600 6.460000
-6.986230 2.316740 157.538000 -11.455200 7.400000
-7.005600 1.834020 157.974000 -11.455200 5.630000
-7.025060 0.858225 158.413000 -11.455200 4.950000
-6.125710 1.352290 158.878000 -11.455200 5.010000
-6.142120 1.849020 159.304000 -11.455200 7.270000
-6.158720 1.854010 159.734000 -11.455200 8.250000
-6.242050 0.876882 161.896000 -11.455200 4.880000
-6.258650 0.879215 162.326000 -11.455200 6.040000
-6.275250 0.881547 162.757000 -11.455200 8.590000
-6.291920 0.378807 163.189000 -11.455200 7.290000
6.328500 0.019990 5.849760 -8.080800 3.220000
6.527020 -0.510469 6.246600 -8.258400 7.060000
6.773610 0.020989 6.000030 -7.992000 8.420000
5.368580 -1.192910 7.185950 -9.324000 5.020000
7.035190 0.051307 6.353750 -8.080800 13.950000
7.354970 0.053639 6.642550 -8.080800 14.430000
7.539780 0.055971 7.077950 -8.169600 10.390000
7.103010 -0.341777 9.208010 -9.501600 7.070000
4.744630 -1.647350 11.442300 -10.656000 6.000000
4.908240 -1.704150 11.836900 -10.656000 6.680000
4.217560 -2.439180 12.899400 -10.922400 4.440000
5.813400 -2.731520 12.686300 -10.656000 7.650000
5.982110 -1.142920 13.324700 -10.656000 10.350000
5.945890 -1.176540 13.809900 -10.656000 10.370000
6.012420 -1.771220 14.189700 -10.744800 9.470000
-8.130710 1.580450 13.116000 -9.679200 5.310000
6.214700 -0.665468 14.667100 -10.744800 9.080000
7.055800 -0.382102 14.291900 -10.478400 7.900000
-7.212280 1.624350 14.125600 -10.034400 5.680000
-8.252420 1.624350 13.544300 -9.679200 3.750000
6.382660 -0.683453 15.063500 -10.744800 7.910000
7.331230 -0.392429 14.636000 -10.478400 7.150000
4.662900 -2.009160 16.019700 -11.100000 5.470000
7.086920 -0.402756 15.232400 -10.567200 10.950000
8.949900 -0.948013 14.192000 -9.945600 5.930000
5.878810 -2.060670 16.070900 -11.011200 5.050000
-7.138240 1.862070 15.577500 -10.300800 6.030000
9.291290 -0.972321 14.484700 -9.945600 6.910000
5.930460 -2.112190 16.507200 -11.011200 7.050000
-7.316700 1.908630 15.966900 -10.300800 9.930000
9.523580 -0.996629 14.846800 -9.945600 7.860000
6.117240 -0.433738 17.027100 -11.011200 9.840000
-7.495150 1.955180 16.356400 -10.300800 8.730000
6.497440 -0.444065 17.346400 -10.922400 11.750000
-7.770280 2.001730 16.701200 -10.300800 7.060000
6.648540 -0.454392 17.749800 -10.922400 10.830000
8.123970 -0.732777 17.115200 -10.567200 7.310000
-7.876090 1.420610 17.187700 -10.389600 7.850000
8.173450 -0.749431 17.567700 -10.656000 7.530000
-7.646530 1.452900 17.759800 -10.478400 7.620000
8.154360 1.613540 18.939300 -10.744800 4.960000
8.212350 1.647150 19.381700 -10.744800 4.430000
17.802800 1.968350 12.732800 -7.104000 5.300000
18.146800 2.075960 12.978800 -7.104000 8.320000
18.495800 2.115880 13.228400 -7.104000 8.690000
6.676650 -0.406105 21.836200 -11.100000 6.310000
17.956800 1.599920 14.711300 -7.636800 5.710000
6.619000 1.456310 22.259700 -11.188800 5.810000
18.289300 1.629550 14.983700 -7.636800 10.350000
6.908310 7.038550 21.549900 -11.188800 6.810000
7.672220 -0.708870 22.867200 -11.100000 7.120000
7.630260 -0.645597 23.337100 -11.100000 8.060000
-8.433480 1.564180 23.474200 -10.744800 6.150000
18.243000 1.563950 18.858500 -8.613600 6.530000
18.542100 1.589580 19.167600 -8.613600 4.470000
18.686900 1.699020 19.617700 -8.613600 4.170000
17.884600 1.640860 20.927800 -9.057600 10.610000
9.252710 0.417772 26.888900 -11.100000 7.280000
18.440000 1.779930 21.577700 -9.057600 5.260000
-6.940540 0.000000 28.023600 -11.100000 6.980000
18.715700 1.896000 21.900300 -9.057600 6.420000
18.253100 2.014720 22.832600 -9.235200 8.880000
-7.309800 1.057240 28.800100 -11.100000 12.010000
18.521500 2.044340 23.168300 -9.235200 8.580000
-7.244990 1.258990 29.252900 -11.100000 6.370000
-7.348490 1.276980 29.670800 -11.100000 6.210000
18.595200 1.968710 25.294300 -9.590400 10.730000
18.849900 1.995680 25.640800 -9.590400 6.050000
19.104700 2.022650 25.987300 -9.590400 12.510000
18.285000 1.847410 27.105400 -9.768000 8.490000
18.736700 1.871720 27.318500 -9.768000 5.960000
18.980100 1.896030 27.673200 -9.768000 6.370000
18.810800 1.758340 28.833700 -9.856800 9.970000
19.045900 1.780320 29.194100 -9.856800 5.270000
19.281100 1.802300 29.554500 -9.856800 9.490000
19.516200 1.824280 29.914900 -9.856800 8.410000
19.051700 1.622630 30.733000 -10.034400 5.680000
19.035500 1.755100 31.242100 -10.123200 7.860000
19.259500 1.775750 31.609600 -10.123200 6.700000
9.501680 0.434769 36.261600 -11.277600 4.410000
9.610900 0.439766 36.678400 -11.277600 5.840000
9.719720 0.563359 37.093700 -11.277600 7.470000
9.539530 0.569689 37.585100 -11.277600 8.280000
9.644460 0.818524 37.998500 -11.277600 14.080000
19.015000 2.022090 34.725900 -10.300800 6.040000
19.224700 1.920290 35.108800 -10.300800 6.270000
19.431400 1.940930 35.486300 -10.300800 10.480000
7.138550 -1.075990 40.293900 -11.277600 7.530000
19.638100 1.961580 35.863800 -10.300800 15.910000
10.173700 -0.991400 40.083600 -11.277600 18.860000
19.475000 1.762590 37.427800 -10.389600 17.560000
19.673800 1.780580 37.809700 -10.389600 7.620000
19.488100 0.773898 38.906100 -10.478400 15.400000
19.679900 0.917466 39.288900 -10.478400 10.090000
19.871500 1.063690 39.671400 -10.478400 7.370000
19.577600 1.341790 41.245100 -10.656000 12.230000
19.762300 1.354450 41.634200 -10.656000 7.650000
19.948700 1.223240 42.027000 -10.656000 9.200000
19.569800 2.144190 43.590400 -10.744800 11.030000
19.746100 2.163510 43.983100 -10.744800 7.040000
-22.799800 -1.279870 43.004800 -10.034400 6.660000
19.758200 1.898560 44.933700 -10.744800 9.350000
-23.001600 -1.291190 43.385300 -10.034400 6.370000
19.931500 1.915210 45.327900 -10.744800 5.990000
-22.865400 -1.302520 43.943500 -10.123200 7.400000
20.104800 1.931870 45.722000 -10.744800 10.300000
20.278200 1.948520 46.116200 -10.744800 10.210000
19.990300 1.981830 47.178400 -10.833600 6.310000
-5.618840 1.228920 50.953500 -11.366400 6.630000
20.158300 1.998480 47.574900 -10.833600 8.470000
-5.665720 1.359150 51.378700 -11.366400 8.170000
20.326300 2.015140 47.971300 -10.833600 8.750000
20.494200 2.031790 48.367800 -10.833600 8.660000
19.905600 2.212230 49.070800 -10.833600 15.840000
20.070000 2.065100 49.475900 -10.833600 7.510000
20.231800 2.081750 49.874900 -10.833600 8.720000
20.393700 2.098410 50.273900 -10.833600 17.060000
20.266700 1.776780 50.802100 -10.922400 6.440000
20.426300 1.790770 51.202100 -10.922400 13.830000
20.585900 1.804760 51.602100 -10.922400 5.850000
20.743300 1.991900 51.996700 -10.922400 5.120000
20.659000 1.670910 52.968000 -10.922400 13.740000
-31.077800 0.307842 47.636900 -9.412800 6.090000
-12.264300 2.037870 55.944900 -11.188800 16.380000
20.815500 1.683570 53.369300 -10.922400 6.390000
-21.518000 -2.746220 53.045600 -10.567200 14.650000
-31.311600 0.664647 47.995300 -9.412800 7.430000
-12.356500 2.053190 56.365600 -11.188800 8.080000
-20.227300 -2.945220 54.001500 -10.744800 6.670000
-31.547000 0.669644 48.356100 -9.412800 10.370000
-12.448700 2.068510 56.786200 -11.188800 15.010000
-20.378200 -2.967200 54.404500 -10.656000 15.080000
20.973700 1.223290 54.706900 -11.011200 10.590000
-21.292800 0.679639 54.593000 -10.656000 10.190000
20.702600 1.232280 55.270400 -11.011200 15.110000
-21.448500 0.867194 54.992200 -10.656000 15.150000
20.242200 1.759520 56.343400 -11.011200 10.510000
20.387900 1.772180 56.748800 -11.011200 7.480000
20.533500 1.784830 57.154100 -11.011200 7.040000
20.679100 1.797490 57.559400 -11.011200 8.320000
-18.261300 -1.835470 59.724100 -10.922400 11.380000
-18.385500 -2.042600 60.130200 -10.922400 7.020000
-18.044300 -2.056590 60.683000 -10.922400 8.180000
20.970600 0.152922 62.503400 -11.100000 14.980000
-7.601690 1.936730 65.459300 -11.366400 15.440000
21.107400 0.359149 62.911100 -11.100000 11.240000
21.244000 0.568037 63.318300 -11.100000 6.950000
21.021700 0.993791 64.294600 -11.100000 6.840000
21.155600 1.000120 64.704200 -11.100000 8.460000
21.289500 1.006450 65.113700 -11.100000 6.590000
21.309300 0.377806 66.472700 -11.100000 7.450000
21.440800 0.380138 66.883000 -11.100000 7.270000
13.175300 1.287280 71.170500 -11.366400 8.740000
13.252000 1.745280 71.584900 -11.366400 7.550000
22.291400 2.240540 72.904600 -11.188800 8.540000
21.546800 2.265850 74.025700 -11.188800 5.180000
21.671800 1.619060 74.455200 -11.188800 7.890000
21.793500 1.386890 74.873300 -11.188800 5.860000
21.336300 0.181907 75.465400 -11.188800 10.060000
22.031500 1.889860 75.690900 -11.188800 9.050000
22.151900 1.900180 76.104500 -11.188800 9.780000
22.272300 1.910510 76.518100 -11.188800 11.290000
21.799100 1.920840 77.102000 -11.188800 5.940000
22.273500 0.696304 78.779900 -11.188800 8.660000
22.390000 0.954492 79.192000 -11.188800 13.600000
22.506300 1.215340 79.603400 -11.188800 14.020000
22.621000 1.735990 80.009200 -11.188800 10.150000
-0.980510 3.543170 84.807700 -11.455200 10.200000
16.248200 0.857553 99.509200 -11.366400 6.310000
16.317600 0.861218 99.934400 -11.366400 12.290000
29.926000 0.000000 132.835000 -11.277600 11.210000
30.020600 0.316838 133.255000 -11.277600 7.990000
30.114900 0.741619 133.674000 -11.277600 11.020000
21.146600 1.216700 141.482000 -11.455200 11.120000
22.303900 0.776601 141.744000 -11.455200 9.430000
-61.846600 -8.532120 137.759000 -10.389600 10.930000
-62.022800 -8.556430 138.151000 -10.389600 14.410000
-62.199000 -8.580740 138.544000 -10.300800 13.550000
-62.339800 -10.017700 138.858000 -10.300800 7.220000
-61.440800 -10.046000 139.727000 -10.300800 6.430000
-6.948340 1.819030 156.683000 -11.455200 5.610000
-6.059110 1.824030 157.151000 -11.455200 5.390000
-7.006050 0.366813 157.985000 -11.455200 6.270000
-7.025140 0.367812 158.415000 -11.455200 7.520000
-7.044150 0.860557 158.844000 -11.455200 7.120000
-7.063090 1.355960 159.271000 -11.455200 4.740000
-7.082180 1.359620 159.701000 -11.455200 6.850000
-7.101270 1.363290 160.132000 -11.455200 7.080000
-6.258720 0.376808 162.328000 -11.455200 6.190000
-6.275320 0.377807 162.759000 -11.455200 4.180000
-6.291920 0.378807 163.189000 -11.455200 8.540000
6.715490 0.020989 6.065010 -8.080800 10.010000
7.035290 0.000000 6.353840 -8.080800 12.030000
7.277790 0.000000 6.727240 -8.169600 9.350000
6.380500 -0.091619 8.679140 -9.590400 4.360000
6.635720 -0.095284 9.026310 -9.590400 6.360000
5.662030 -0.449659 10.153600 -10.212000 6.650000
6.275310 -0.521559 9.782910 -9.945600 6.090000
5.871730 -0.466313 10.529700 -10.212000 5.530000
6.507730 -0.540876 10.145200 -9.945600 7.170000
5.997200 -0.482967 10.952300 -10.212000 6.360000
4.701280 -1.690870 12.851800 -10.922400 16.720000
5.243160 -1.404990 13.142900 -10.744800 13.840000
5.481880 -1.402470 13.513800 -10.744800 8.680000
5.711160 -2.265240 13.773300 -10.744800 4.710000
-7.487460 1.895670 12.953600 -9.856800 10.370000
5.294300 -1.771220 14.473000 -10.922400 6.650000
-7.524650 1.389430 13.493800 -9.856800 7.670000
9.030980 1.389430 12.535800 -9.590400 7.990000
5.557800 -1.771430 14.837800 -10.922400 5.980000
-7.628630 1.378910 13.931700 -9.945600 8.440000
9.405530 1.428020 12.794000 -9.590400 6.600000
4.967600 -1.819310 15.496000 -11.011200 5.300000
6.346450 -1.869630 14.978000 -10.744800 7.020000
-7.641120 1.416170 14.412600 -10.034400 6.720000
5.858220 -1.867180 15.639900 -11.011200 6.310000
7.042590 -1.918830 15.137100 -10.656000 8.290000
5.886630 -1.862070 16.092200 -11.011200 10.490000
-7.223170 1.968030 15.525200 -10.300800 10.290000
5.834630 -1.051180 16.642500 -11.011200 6.550000
-7.401760 2.057930 15.909100 -10.300800 9.810000
5.748460 -0.965050 17.133400 -11.011200 9.480000
-7.589580 1.955180 16.312800 -10.300800 8.410000
6.121380 -0.988028 17.460400 -11.100000 7.700000
7.324120 -0.544311 17.011000 -10.744800 8.420000
-7.291430 1.830740 16.935100 -10.389600 6.600000
-7.906390 1.830740 16.656800 -10.212000 5.720000
7.496050 -0.395770 17.410300 -10.744800 7.850000
-8.367520 1.479070 16.948800 -10.389600 8.190000
7.802430 -0.509682 17.744100 -10.744800 7.200000
-8.423830 1.512690 17.399500 -10.212000 9.320000
7.975810 -0.521008 18.138400 -10.744800 8.890000
-8.472130 1.592140 17.848700 -10.300800 7.030000
-8.656310 1.626750 18.236700 -10.300800 6.710000
6.553700 1.813590 20.443800 -11.100000 5.770000
6.534260 -1.375400 20.936900 -11.100000 7.090000
6.662380 -1.402370 21.347400 -11.188800 9.220000
6.969250 -0.600292 21.740000 -11.188800 6.780000
7.087870 1.528120 22.110100 -11.100000 6.900000
7.230930 -0.769473 22.556300 -11.100000 10.340000
8.460020 1.775760 22.066700 -10.922400 8.960000
7.495030 -0.783463 22.923500 -11.100000 7.330000
-7.829560 1.808050 22.753100 -10.833600 8.250000
7.631240 -0.512702 23.340100 -11.100000 9.880000
-7.271920 2.469370 23.783000 -11.011200 8.020000
7.722930 2.511950 24.091100 -11.100000 9.460000
8.215070 0.405112 26.322500 -11.100000 7.090000
-7.859300 0.405112 26.430900 -10.922400 4.230000
18.368000 1.666500 21.078800 -8.968800 7.640000
9.028430 1.779930 26.909500 -11.100000 7.400000
18.650600 1.692140 21.403100 -8.968800 13.430000
18.933200 1.717780 21.727400 -8.968800 7.180000
18.076600 2.014720 22.972600 -9.324000 5.380000
18.346200 1.952600 23.315200 -9.324000 10.820000
18.612100 1.980900 23.653100 -9.324000 8.640000
7.917740 1.371510 29.519700 -11.277600 5.240000
18.874100 2.103600 23.986100 -9.324000 13.610000
8.029260 1.390830 29.935500 -11.277600 6.470000
8.374460 1.410140 30.287600 -11.188800 9.350000
18.357400 1.774490 25.481700 -9.590400 7.540000
8.493240 1.035290 30.717200 -11.188800 6.310000
18.608900 1.798790 25.830800 -9.590400 7.180000
8.608020 1.049280 31.132300 -11.188800 6.480000
18.493400 1.847410 26.963700 -9.768000 6.600000
-6.406160 1.871720 32.501100 -11.277600 4.890000
18.736700 1.871720 27.318500 -9.768000 6.470000
18.976700 1.999800 27.668300 -9.768000 6.650000
19.219900 2.025440 28.023000 -9.768000 6.230000
18.810800 1.758340 28.833700 -9.945600 13.640000
19.045900 1.780320 29.194100 -9.945600 7.240000
19.281100 1.802300 29.554500 -9.945600 7.900000
19.516200 1.824280 29.914900 -9.945600 6.700000
19.054300 1.510790 30.737200 -10.034400 7.040000
19.281100 1.528780 31.103100 -10.034400 5.910000
19.510400 1.432250 31.472900 -10.034400 7.410000
19.737200 1.448900 31.838900 -10.034400 9.850000
9.610020 0.674288 36.675000 -11.277600 6.520000
18.951400 1.934170 32.786700 -10.212000 5.030000
9.718650 0.800534 37.089600 -11.277600 6.730000
19.166800 1.956150 33.159300 -10.212000 8.090000
9.827850 0.809529 37.506300 -11.277600 8.990000
19.379800 2.067960 33.527800 -10.212000 12.150000
9.615400 -3.149660 37.884000 -11.277600 7.600000
19.595100 2.090940 33.900300 -10.212000 11.740000
18.805100 2.358740 34.818900 -10.389600 6.950000
8.981310 -3.184280 38.480500 -11.366400 8.120000
19.009500 2.384380 35.197300 -10.389600 17.050000
8.771920 -3.589350 38.936800 -11.366400 7.060000
19.217400 2.284960 35.582200 -10.389600 19.300000
19.421800 2.309260 35.960700 -10.389600 12.550000
19.273700 1.873750 37.040900 -10.478400 7.750000
19.472400 1.893070 37.422700 -10.478400 9.230000
19.673800 1.780580 37.809700 -10.478400 10.130000
19.423900 2.351780 41.748900 -10.656000 12.110000
19.605400 2.373760 42.139100 -10.656000 9.140000
10.226800 -0.683627 45.394500 -11.366400 10.160000
10.321400 -0.689957 45.814800 -11.366400 11.130000
19.725900 2.124870 43.046900 -10.744800 10.420000
10.416600 -0.549708 46.237000 -11.366400 8.810000
19.905200 2.144190 43.438300 -10.744800 7.730000
20.084500 2.163510 43.829600 -10.744800 5.220000
20.266600 2.032370 44.226900 -10.656000 5.550000
19.573700 2.374550 45.461900 -10.744800 4.920000
20.096800 2.395200 45.703600 -10.744800 9.660000
20.270000 2.415840 46.097600 -10.744800 9.350000
-4.849280 0.584689 50.178100 -11.455200 7.780000
-4.598110 0.589686 50.634400 -11.455200 5.990000
19.994700 1.664860 47.188800 -10.833600 7.770000
20.160600 1.838680 47.580300 -10.833600 11.670000
20.328600 1.854000 47.976800 -10.833600 6.030000
20.123200 1.869320 48.529900 -10.833600 15.600000
-22.871300 2.965580 47.240800 -10.300800 14.960000
19.910400 1.884640 49.082600 -10.833600 9.280000
-23.040900 3.644260 47.591100 -10.300800 6.910000
20.072300 1.899960 49.481600 -10.833600 10.960000
20.234200 1.915290 49.880700 -10.833600 7.190000
20.393700 2.098410 50.273900 -10.833600 12.460000
19.872500 1.945930 50.951400 -10.922400 5.930000
20.426300 1.790770 51.202100 -10.922400 9.310000
20.187600 1.804760 51.759200 -10.922400 6.410000
20.745500 1.818750 52.002100 -10.922400 5.370000
20.348400 2.022540 53.075900 -10.922400 14.040000
20.396000 1.708880 54.451900 -11.011200 16.250000
20.547100 1.721540 54.855200 -11.011200 14.060000
-30.875600 -0.498407 49.806500 -9.679200 7.150000
20.698200 1.734200 55.258600 -11.011200 6.170000
20.561100 2.314910 56.207700 -11.011200 12.610000
20.711400 2.145120 56.618600 -11.011200 7.020000
20.859300 2.160440 57.023000 -11.011200 16.680000
21.007300 2.175770 57.427400 -11.011200 10.830000
-19.280100 -1.103380 58.967900 -10.833600 15.790000
-19.871000 -1.111040 59.226000 -10.833600 9.760000
-17.923200 -1.848130 60.275900 -10.922400 6.470000
-18.040300 -2.448140 60.669600 -11.011200 10.330000
-18.163000 -2.464800 61.082300 -11.011200 5.980000
-17.930000 -2.481450 61.599700 -10.922400 9.820000
21.584500 1.744240 62.725800 -11.100000 6.320000
21.724700 1.755570 63.133100 -11.100000 7.270000
11.526500 0.608349 70.592000 -11.455200 9.400000
12.142900 0.612014 70.925700 -11.455200 8.820000
12.626300 1.287280 71.269900 -11.455200 6.980000
12.701500 1.294940 71.694200 -11.455200 13.250000
-13.310600 -4.358540 71.901600 -11.188800 10.080000
-17.712000 1.082410 71.515200 -11.100000 7.840000
-18.229100 1.547100 71.821400 -11.100000 7.940000
-18.335100 1.556090 72.238900 -11.100000 6.730000
21.365100 1.565090 71.851000 -11.188800 7.310000
21.487900 1.574080 72.264000 -11.188800 6.430000
21.610700 1.583080 72.676900 -11.188800 6.090000
21.732000 1.827890 73.084800 -11.188800 5.100000
21.982400 0.894524 73.926900 -11.188800 6.100000
21.675100 0.899522 74.466400 -11.188800 10.020000
21.795500 0.904519 74.880100 -11.188800 11.490000
21.327200 2.303830 75.433000 -11.188800 8.890000
21.446200 2.072710 75.854000 -11.188800 9.390000
21.564700 1.900180 76.272900 -11.188800 9.910000
21.681900 1.910510 76.687500 -11.188800 12.470000
21.799100 1.920840 77.102000 -11.277600 15.010000
21.464700 2.367120 77.630700 -11.188800 11.520000
21.579500 2.379780 78.045800 -11.277600 15.800000
21.816100 1.202680 78.901600 -11.188800 8.930000
21.930900 1.209010 79.316900 -11.188800 10.660000
22.045800 1.215340 79.732200 -11.188800 7.970000
-1.635190 1.771970 84.853100 -11.455200 8.840000
21.083000 1.213030 141.056000 -11.455200 8.920000
21.146600 1.216700 141.482000 -11.455200 7.610000
-61.835500 -8.999090 137.734000 -10.389600 15.850000
-60.945200 -9.024730 138.600000 -10.389600 13.590000
-61.094700 -9.989380 138.940000 -10.389600 7.370000
-60.166400 -10.959000 139.742000 -10.389600 6.770000
-8.200980 0.853561 157.494000 -11.544000 7.430000
-7.005970 0.855893 157.983000 -11.544000 7.570000
-7.025060 0.858225 158.413000 -11.544000 4.700000
-7.044000 1.352290 158.840000 -11.544000 5.870000
-7.062870 1.849020 159.266000 -11.455200 5.270000
-7.100760 2.354720 160.120000 -11.544000 4.840000
-6.258650 0.879215 162.326000 -11.544000 7.320000
-6.275250 0.881547 162.757000 -11.544000 6.240000
-6.291850 0.883879 163.187000 -11.544000 6.510000
-0.435788 0.274333 0.691035 0.000000 0.850000
6.644920 -0.020989 6.142240 -8.347200 8.850000
6.961350 -0.021989 6.434730 -8.347200 12.240000
7.277770 -0.022988 6.727220 -8.347200 10.990000
6.457320 -0.087954 8.077370 -9.412800 7.000000
6.726380 -0.091619 8.413930 -9.412800 8.740000
6.995430 -0.095284 8.750490 -9.412800 6.570000
5.708840 -1.292670 10.054600 -10.300800 6.010000
6.075200 -0.743515 10.894600 -10.389600 5.980000
6.044420 -0.769153 11.400900 -10.478400 9.970000
6.245900 -0.794792 11.780900 -10.478400 9.570000
-1.686170 1.489660 13.604000 2.664000 11.020000
-2.345490 1.672820 14.364600 2.664000 14.460000
-2.410140 1.941930 14.760500 2.664000 12.310000
-1.302650 1.997420 15.328000 2.664000 9.360000
7.016520 -1.722420 14.212300 -10.922400 7.070000
-2.035460 2.052900 15.679000 2.664000 7.190000
5.693450 -2.158600 15.200000 -11.100000 6.850000
-7.940440 1.517050 14.239500 -10.034400 5.870000
5.196950 -1.660440 15.894800 -11.100000 6.880000
5.455700 -1.703010 16.260800 -11.100000 9.010000
-7.218570 2.060670 15.515300 -10.389600 7.460000
-7.399040 2.112190 15.903200 -10.389600 10.320000
-7.579500 2.163710 16.291100 -10.389600 11.410000
6.945370 -1.388320 17.121500 -10.922400 9.290000
-7.561800 1.559690 16.843400 -10.478400 6.140000
7.253790 -0.908522 17.493500 -11.011200 10.850000
-7.737660 1.595960 17.235100 -10.478400 9.000000
-8.049130 1.632230 17.565300 -10.478400 8.910000
-7.338180 0.827338 18.394400 -10.656000 8.620000
-8.751920 1.424050 17.727500 -10.300800 7.750000
7.377830 1.741050 19.244000 -11.100000 6.430000
8.323650 -0.431749 18.929500 -10.833600 5.350000
7.531530 1.777320 19.644900 -11.100000 5.970000
-7.670520 -0.440743 19.666600 -10.744800 6.250000
5.832960 -2.128770 20.630800 -11.277600 5.710000
8.375730 1.813590 19.767300 -10.922400 5.940000
6.111630 -2.171340 20.997000 -11.366400 4.590000
7.552810 1.748000 21.022900 -11.188800 5.120000
-8.122650 1.540660 20.825800 -10.744800 7.980000
7.242210 1.781610 21.585600 -11.188800 5.300000
6.502530 -0.269856 22.339900 -11.366400 9.150000
7.548140 1.815230 21.935300 -11.188800 6.690000
7.233170 -0.494712 22.563300 -11.277600 4.440000
7.497350 -0.503707 22.930600 -11.277600 6.820000
-7.660490 1.510240 22.832300 -11.011200 4.300000
7.608240 1.972870 23.269700 -11.277600 7.620000
-7.617930 1.537210 23.299400 -11.011200 9.050000
-7.751580 1.564180 23.708100 -11.011200 9.210000
-8.394590 1.591150 23.944400 -10.922400 8.750000
18.390300 1.672050 19.306300 -8.791200 4.370000
-7.233770 -0.398783 26.162100 -11.188800 6.910000
-8.086710 -0.398783 25.911200 -11.011200 9.600000
18.686900 1.699020 19.617700 -8.791200 8.190000
6.962120 2.470090 26.569700 -11.366400 11.310000
8.669200 2.508690 26.514700 -11.277600 7.140000
-16.407800 1.769050 24.731600 -11.544000 5.310000
-17.217900 1.887800 24.693800 -11.366400 10.250000
-16.441900 2.073970 25.202600 -11.544000 6.400000
-17.270400 1.914770 25.180500 -11.366400 6.450000
18.340500 1.941740 24.947800 -9.679200 8.590000
18.595200 1.968710 25.294300 -9.679200 7.710000
-16.352700 1.312950 26.838900 -11.899200 10.460000
-7.421340 1.232400 30.986500 -11.277600 6.690000
18.849900 1.995680 25.640800 -9.679200 10.510000
-16.576700 1.330940 27.206500 -11.899200 15.230000
19.104700 2.022650 25.987300 -9.679200 7.200000
-13.613200 1.723300 29.259700 -14.208000 9.670000
18.713900 2.486070 27.285100 -9.945600 6.860000
-13.973900 1.871720 30.034900 -14.119200 9.850000
18.956900 2.518350 27.639500 -9.945600 6.260000
-15.486600 1.999800 29.762600 -13.675200 14.190000
-12.611700 1.999800 31.090000 -13.675200 14.120000
19.199900 2.550640 27.993800 -9.945600 8.230000
-12.773400 2.025440 31.488600 -13.675200 6.300000
18.593500 1.545360 28.986400 -10.123200 14.080000
-16.993400 1.944640 29.929300 -13.320000 6.810000
18.825900 1.564680 29.348700 -10.123200 7.600000
19.058400 1.584000 29.711100 -10.123200 9.470000
19.290800 1.603310 30.073400 -10.034400 6.490000
18.811600 1.734450 30.874500 -10.212000 5.730000
19.035500 1.755100 31.242100 -10.212000 7.680000
19.259500 1.775750 31.609600 -10.212000 5.680000
-6.461710 1.088620 36.473400 -11.455200 12.240000
19.483400 1.796400 31.977200 -10.212000 11.930000
9.218560 1.101280 36.320500 -11.455200 5.100000
18.682100 2.490270 32.903500 -10.389600 7.050000
9.326520 0.791539 36.745800 -11.455200 9.910000
18.898100 2.400210 33.284100 -10.389600 14.630000
9.433060 0.681950 37.165600 -11.455200 14.570000
19.110500 2.427180 33.658000 -10.389600 6.050000
9.321080 0.809529 37.635500 -11.455200 9.730000
19.322800 2.454140 34.032000 -10.389600 11.790000
9.121180 -2.000110 38.083800 -11.455200 8.440000
8.701280 -2.022090 38.623200 -11.455200 17.450000
19.227400 1.796480 35.113800 -10.478400 13.400000
8.277440 -0.836513 39.200600 -11.544000 17.990000
19.431400 1.940930 35.486300 -10.478400 13.690000
19.433300 1.835120 35.981900 -10.478400 9.280000
19.276300 1.744600 37.045800 -10.567200 5.370000
