VERSION .7
FIELDS x y z velocity SNR
SIZE 4 4 4 4 4
TYPE F F F F F
COUNT 1 1 1 1 1
WIDTH 229
HEIGHT 1
VIEWPOINT 0 0 0 1 0 0 0
POINTS 229
DATA ascii
-8.09091067255132 4.61257519281762 1.3877183241906 3.24900885312627 5.50964610877177
-7.82710001878467 5.10248130234934 -1.16860490458156 3.24900885312627 5.50964610877177
4.55113725331012 8.12562829091598 -1.3877183241906 3.24900885312627 5.50964610877177
-7.01365252078992 6.73351342392549 -0.377362000437795 2.63015002395936 8.39366950383757
-7.24447851889429 6.49374109805136 -0.150944800175117 2.78486473125109 9.2811549413163
-6.94011796134067 6.81304279627091 -0.301889600350236 2.78486473125109 9.2811549413163
-7.09099009093503 6.65587327038335 -0.301889600350236 2.93957943854282 6.11432128547023
-7.31289024259931 6.40238268907277 -0.452834400525354 3.09429414583454 9.37533408799602
-7.01703261850022 6.73675851387528 -0.226417200262678 3.09429414583454 9.37533408799602
-8.45689316222463 4.28537966631953 -2.18869960253921 3.24900885312627 7.33348460900502
-8.25114066808281 4.70392126403815 -2.11322720245165 3.24900885312627 7.33348460900502
-8.08800335274416 5.27256401242766 -1.20755840140094 3.24900885312627 7.33348460900502
-7.3853846573478 6.31275789012851 -0.528306800612912 3.24900885312627 7.33348460900502
-8.30981675940334 4.56404056368106 -2.18869960253921 3.403723560418 6.57303760719385
-7.76991467410966 5.84903542630729 -0.301889600350236 3.55843826770973 5.85116195529746
-7.80912294466845 5.72091667221466 -0.981141201138266 3.71315297500145 5.34554680116665
-7.24338850941959 6.95407330464545 -0.233720980916312 2.63015002395936 9.43057893819759
-7.24447851889429 6.95511977699468 -0.155813987277541 2.78486473125109 12.2278777670091
-6.84587111484238 9.3805336007914 -0.0900799613948282 0.309429414583454 7.47571469625805
-7.29559883102359 9.03383951899979 -0.180159922789656 0.464144121875182 5.32890635679013
-6.93281769700546 9.30992399244077 -0.360319845579314 0.464144121875182 5.32890635679013
-8.50698941952961 7.80443368098332 -1.2611194595276 1.08300295104209 5.29918138011773
-7.29450112994977 9.03248028097556 0.270239884184486 1.08300295104209 5.29918138011773
-5.66410094272819 10.1127204698917 -0.720639691158629 1.08300295104209 5.29918138011773
7.46853539575074 8.87678641279922 0.540479768368971 1.08300295104209 5.29918138011773
8.14160339556496 8.17049757544048 1.35119942092243 1.08300295104209 5.29918138011773
10.1685322444811 5.37032242317504 1.62143930510691 1.08300295104209 5.29918138011773
2.57742971513458 11.1645368136971 1.8916791892914 3.403723560418 23.6443553000081
2.5627323555232 11.1008729195929 2.25199903487071 3.55843826770973 14.8196841895446
-7.40094174577555 9.35279009990099 -0.0925145549460397 0.309429414583454 5.58521547953431
-7.03026006806677 9.63319199039884 0.185029109892079 0.309429414583454 5.58521547953431
-7.4916498091376 9.27660136965057 0.277543664838121 0.928288243750363 8.83540902644109
-8.10593690063157 8.67862198213271 -1.11017465935248 1.08300295104209 6.86519322879435
-7.4916498091376 9.27660136965057 0.277543664838121 1.08300295104209 6.86519322879435
2.19069515396341 11.5621598870518 1.94280565386684 3.24900885312627 20.6494658221483
2.62779621987592 11.3827071455824 2.40537842859704 3.24900885312627 20.6494658221483
7.60349708371112 9.0371961871998 1.66526198902872 3.24900885312627 20.6494658221483
-0.183008693783898 11.7955037942217 1.75777654397476 3.403723560418 138.740191102211
2.19346902068743 11.5767999388685 1.8502910989208 3.403723560418 138.740191102211
2.63199539215897 11.4008965120143 2.312863873651 3.403723560418 138.740191102211
7.66743303887194 8.92710239135656 1.94280565386684 3.403723560418 138.740191102211
7.66743303887194 8.92710239135656 1.94280565386684 3.55843826770973 90.1343726543178
8.0764626177789 9.01992959753213 1.80403382144778 3.24900885312627 49.7121237026802
8.63387193766334 8.66451315618854 0.474745742486258 3.24900885312627 49.7121237026802
9.7559029047408 7.34404740576919 0.854542336475265 3.24900885312627 49.7121237026802
7.88863790573753 9.18464862436104 1.80403382144778 3.403723560418 313.030926163592
7.98255026175822 9.10314614181932 1.80403382144778 3.55843826770973 207.65745206407
8.29297082053463 9.26172960807709 1.75290735687234 3.24900885312627 18.2160239821407
10.0003054397424 7.52802871643497 0.973837420484632 3.24900885312627 18.2160239821407
8.18723103770074 9.33656014545572 1.8502910989208 3.403723560418 99.0644321684202
8.18723103770074 9.33656014545572 1.8502910989208 3.55843826770973 57.9708861479168
-10.7651970053624 7.45253828080247 1.5337939372633 -4.02258238958491 9.30493289367616
-10.3123112957437 8.18084503937555 0.715770504056204 -4.02258238958491 9.30493289367616
-10.6520762111509 8.23418098217805 0.942187704318882 -4.02258238958491 8.48510475596076
7.44625009654418 11.060097208502 2.09375045404196 1.39243236562554 6.44143551818765
7.51959013709964 10.9459756233059 2.40781302214825 1.54714707291727 5.2760260217493
8.1301771425593 10.6994502947225 1.25625027242518 1.54714707291727 5.2760260217493
-7.78596570718559 11.3337282060456 1.28546539503971 -0.928288243750363 5.25312344213111
7.7736699901932 11.3158298078596 1.49970962754633 1.39243236562554 5.35980469037194
-3.57310244457244 16.0591397808955 -4.07550960472819 -0.309429414583454 7.89125955415768
-2.48516133412836 16.6786034440543 1.70908467295053 -0.309429414583454 7.89125955415768
-1.81597098289072 16.6238648412831 2.76082908707393 -0.309429414583454 7.89125955415768
0.523191859816497 16.8546168742719 1.70908467295053 -0.309429414583454 7.89125955415768
7.36132494661839 15.2648147632304 -0.26293610353085 -0.309429414583454 7.89125955415768
8.66409181000249 14.5382053447018 0.920276362357976 -0.309429414583454 7.89125955415768
8.56951149510853 14.9852128012172 0.133902645316636 -0.464144121875182 7.57594721188856
8.69948166612654 14.9011140498604 0.535610581266548 -0.309429414583454 14.4249892525397
7.59354852094776 15.4051590231176 -1.74073438911628 -0.154714707291727 8.75044596671055
8.7034101122196 14.9078429821713 0.133902645316636 -0.154714707291727 8.75044596671055
9.60583316061017 14.2677787003565 1.47292909848301 -0.154714707291727 8.75044596671055
8.72532079501959 15.2576712157847 -0.136337238867848 -0.464144121875182 7.2694399958861
8.85765406005612 15.1720433962215 0.545348955471395 -0.309429414583454 14.0158136832598
7.61625877751236 15.7934584155208 -1.22703514981064 -0.154714707291727 8.32192024391173
9.13212153472523 15.0127748080886 0.409011716603547 -0.154714707291727 8.32192024391173
9.66566471284228 14.6495891790249 0.954360672074938 -0.154714707291727 8.32192024391173
-11.3925267030999 14.9927573598655 0.292151226145389 -0.309429414583454 5.91000825603738
-12.6476803281367 16.3109778848446 -1.76751491817961 1.39243236562554 32.8788911547742
-7.66718136019055 19.1125538859388 -2.2495644413195 1.39243236562554 32.8788911547742
-12.6476803281367 16.3109778848446 -1.76751491817961 1.54714707291727 30.0409313772244
-7.67348061064195 19.1282564965902 -2.08888126693953 1.54714707291727 30.0409313772244
0.806683058126397 20.7841899062308 -3.09923759069234 1.39243236562554 220.418847797343
0.806683058126397 20.7841899062308 -3.09923759069234 1.54714707291727 185.992567520491
0.807600356069507 20.8078240887739 -2.93611982276116 1.701861780209 19.497442764653
0.818723103770074 21.094401695876 -3.14549486816536 1.39243236562554 430.196933114876
0.818723103770074 21.094401695876 -3.14549486816536 1.54714707291727 517.498480350135
0.819654092727261 21.1183886274123 -2.97994250668297 1.701861780209 31.6481865874886
-7.71902681410383 20.2097908564909 -1.00792173020159 -2.78486473125109 6.71574642473533
7.21561202187966 20.3949494868132 -1.00792173020159 -1.85657648750073 5.04126019434915
0.66608036725466 21.4577677135289 -2.85577823557118 1.23771765833382 5.65329099151595
0.66608036725466 21.4577677135289 -2.85577823557118 1.39243236562554 147.323004100206
0.66608036725466 21.4577677135289 -2.85577823557118 1.54714707291727 158.404587603786
0.667384180925433 21.4997700487794 -2.51980432550399 1.701861780209 9.73442213301295
-8.0372407103133 20.0350283831431 -4.09011716603545 -2.93957943854282 7.81170371738682
-7.0952039120605 20.5910943785627 2.89716632594178 -2.93957943854282 7.81170371738682
-8.23912760755976 20.0508665619516 3.57885252028102 -2.78486473125109 16.5676852260748
-8.62430465032755 20.0228592163622 2.72674477735697 -2.63015002395936 5.64962440815782
7.40776818390054 20.4018682435099 3.40843097169621 -2.01129119479245 5.17184526078816
7.17755591817288 20.2873837930908 4.43096026320508 -1.85657648750073 7.08790045233437
7.13160340711967 20.6967298821204 -1.87463703443292 -1.701861780209 5.43489228618429
7.72440644536641 20.2238756919656 3.74927406886583 -1.701861780209 5.43489228618429
7.49290661256779 20.636349528697 0.852107742924053 -1.54714707291727 5.5800517607993
8.34965098111808 20.3198379289155 0.34084309716962 -1.54714707291727 5.5800517607993
0.340011552567515 21.914847188217 -1.5337939372633 1.39243236562554 11.4687341753518
0.34034030679022 21.9360364639891 -1.19295084009367 1.54714707291727 12.7251697685776
-7.94407447074886 20.2911097033654 -4.6671158376726 -2.93957943854282 6.03032370425659
-7.18884854268439 20.8628618219119 3.1114105584484 -2.93957943854282 6.03032370425659
-6.07428443191811 20.8877275525102 4.83997197980862 -2.93957943854282 6.03032370425659
-8.33407266230317 20.2819262947358 -3.97569126912851 -2.78486473125109 10.334971411644
-7.36791072908867 20.8254222493476 2.93855441631238 -2.78486473125109 10.334971411644
7.36791072908867 20.8254222493476 2.93855441631238 -1.85657648750073 6.69177337568215
7.8451868123295 20.5401002646584 3.62997898485647 -1.701861780209 5.4323375161632
0.172335360733425 22.2171509957757 -1.72856142136022 1.54714707291727 6.17413869131337
0.860528588434273 22.1715200555956 -2.07427370563227 1.54714707291727 6.17413869131337
-8.3990950733308 21.9903310227723 0.182594516340868 -1.85657648750073 5.77712725658539
7.85599213469321 21.6363299276015 4.93005194120345 -1.85657648750073 5.77712725658539
-10.7701593260019 20.9250184844674 -0.547783549022607 -1.701861780209 5.52755107399581
-20.4490680902296 12.0803304766162 2.22034931870496 -2.01129119479245 9.3506630020038
-11.2782841090468 20.9993603366417 0.925145549460401 -2.01129119479245 9.3506630020038
21.062202985932 11.1236133452991 1.29520376924456 -2.01129119479245 9.3506630020038
21.8097770853444 9.59842992335217 1.11017465935248 -2.01129119479245 9.3506630020038
-20.2369853332643 11.9550421367648 4.07064041762576 -1.85657648750073 9.09230648185302
-19.1104435665867 13.2297915376894 5.36584418687032 -1.85657648750073 9.09230648185302
-11.0853699925958 21.0823561445009 -1.29520376924456 -1.85657648750073 9.09230648185302
21.9381704809491 9.14346044321274 2.03532020881288 -1.85657648750073 9.09230648185302
-11.5974195592657 20.7061038213804 2.40537842859704 -1.701861780209 7.65268420326876
-10.9167174836327 21.2097619190488 -0 -1.701861780209 7.65268420326876
-7.68508692343726 22.9107081031012 0.374927406886582 -3.24900885312627 6.42127081408124
-6.36685954610076 23.2873279240672 1.12478222065975 -3.24900885312627 6.42127081408124
-11.0550336249547 21.4784921881428 0.749854813773168 -2.16600590208418 6.93206410385089
-10.1202988649753 21.9400306401182 -0.562391110329876 -2.16600590208418 6.93206410385089
22.471268986238 8.82488597495476 1.12478222065975 -2.16600590208418 6.93206410385089
-11.4228950680043 21.2686156246282 1.12478222065975 -2.01129119479245 26.4029560718367
-10.8725677094189 21.5836467291956 0.187463703443291 -2.01129119479245 26.4029560718367
-10.1227354535969 21.9453129771054 -0.187463703443291 -2.01129119479245 26.4029560718367
-11.4349419012854 21.2910459686894 0.187463703443291 -1.85657648750073 13.5725535749193
-10.8728947997109 21.5842960515544 -0 -1.85657648750073 13.5725535749193
-10.1230399859377 21.9459731798303 -0 -1.85657648750073 13.5725535749193
-11.011118822787 21.8586910761058 0.569694890983511 -2.16600590208418 6.84831409865508
-10.2541995503969 22.2303170417431 -0.189898296994503 -2.16600590208418 6.84831409865508
-11.0137698874633 21.8639538295748 0.189898296994503 -2.01129119479245 23.1668825137574
-11.0141012256812 21.8646115846914 -0 -1.85657648750073 9.56101567610304
-12.902957648885 28.6114477086648 0.243459355121157 -2.78486473125109 5.46737865926017
-14.1722464960898 32.1518766841361 -1.09069791094279 -2.47543531666763 5.01144935945412
-17.5706239504367 33.4161288303074 4.12420147575242 -3.09429414583454 5.32411808189998
7.59235085283753 36.8734333315777 5.00795893484222 -3.09429414583454 5.32411808189998
7.57559671900192 36.7920642735626 5.59713057423543 -2.93957943854282 5.02890632832042
7.65509755410065 37.1781724500205 5.04934702521282 -3.09429414583454 11.903991019777
7.64689053567903 37.1383137879953 5.34636743846063 -2.93957943854282 11.1363340167868
8.66883286344784 43.8555657685118 6.66104795611489 -3.09429414583454 11.5501223409628
8.34890668670364 44.0642751316169 5.60930354199148 -2.93957943854282 9.54186399740258
8.72903309166623 44.1601183085709 6.70730523358791 -3.09429414583454 18.5733166462696
10.5646446690621 44.1542075746538 3.17714458433111 -3.09429414583454 18.5733166462696
8.72903309166623 44.1601183085709 6.70730523358791 -2.93957943854282 32.7299251570834
10.5646446690621 44.1542075746538 3.17714458433111 -2.93957943854282 32.7299251570834
10.631392676231 44.4331762911656 3.55450658476891 -3.09429414583454 5.14041467814421
10.6246336473416 44.4049273936458 3.9099572432458 -2.93957943854282 11.7780425298802
14.9722999133288 44.6352782165983 0.365189032681736 -2.01129119479245 7.61566570064253
15.0721152460843 44.9328467380423 -0.367623626232947 -2.01129119479245 8.13254268020943
-21.8598909685244 44.3475268076776 3.8466578109143 -2.32072060937591 5.53956073601242
-22.0221994182521 44.6768046771681 3.09680299714113 -2.32072060937591 10.7196856892878
8.5115663654258 49.1469557091181 5.84302452290779 -3.403723560418 6.48929980049536
10.1202894507409 49.1507604945177 1.94767484096926 -3.403723560418 6.48929980049536
8.42137983502573 51.0095670531978 6.46628047201796 -3.24900885312627 5.05029650458717
8.47211103885119 51.316853601711 6.50523396883734 -3.403723560418 6.25019296554354
10.9613888808365 51.1787280902327 2.84603986136633 -3.403723560418 6.25019296554354
8.47211103885119 51.316853601711 6.50523396883734 -3.24900885312627 7.60317289444137
10.9613888808365 51.1787280902327 2.84603986136633 -3.24900885312627 7.60317289444137
25.5209521926211 45.5652641538442 4.47234835357567 0.309429414583454 5.97739561687833
8.14580659519851 54.6687557332892 5.60199976133784 -3.55843826770973 5.96130863463524
10.3309470404263 54.5251863318216 2.5855383513867 -3.55843826770973 5.96130863463524
-28.2727312657027 47.4411838897904 6.0329228199023 -3.403723560418 24.9403503365959
-24.3957934831764 49.4921546977305 6.46384587846675 -3.403723560418 24.9403503365959
-14.9798731914241 53.1058519888979 6.46384587846675 -3.403723560418 24.9403503365959
8.53404555368972 54.3453255508473 7.75661505416009 -3.403723560418 24.9403503365959
10.3222225674429 54.4791398742019 3.4473844685156 -3.403723560418 24.9403503365959
-28.2210439566181 47.3544534245939 6.89476893703119 -3.24900885312627 5.7592563827508
-24.3481334247545 49.3954659392384 7.32569199559564 -3.24900885312627 5.7592563827508
-14.9506082432703 53.0021034467536 7.32569199559564 -3.24900885312627 5.7592563827508
-10.8307389882162 52.6011692234233 14.2204609326268 -3.24900885312627 5.7592563827508
8.1319311610588 54.5756338661282 6.46384587846675 -3.24900885312627 5.7592563827508
9.89212996046608 54.558873934585 3.4473844685156 -3.24900885312627 5.7592563827508
8.19182810138607 54.9776187600309 5.63364947750359 -3.55843826770973 15.880317414133
10.3893139728581 54.8332382320014 2.60014591269397 -3.55843826770973 15.880317414133
8.18510333338525 54.9324869864118 6.06700712961926 -3.403723560418 108.112213080403
10.3893139728581 54.8332382320014 2.60014591269397 -3.403723560418 108.112213080403
8.17787427496309 54.8839707806261 6.50036478173492 -3.24900885312627 19.3594592131189
10.8222020550605 54.7494456822486 2.60014591269397 -3.24900885312627 19.3594592131189
8.2310870599773 55.2410964638635 6.10109143933622 -3.55843826770973 9.96576535420061
10.4476809052899 55.1412901321812 2.61475347400124 -3.55843826770973 9.96576535420061
8.22381738886737 55.192307695124 6.5368836850031 -3.403723560418 55.1565591305943
10.8787348063303 55.0354444816765 3.05054571966811 -3.403723560418 55.1565591305943
8.22381738886737 55.192307695124 6.5368836850031 -3.24900885312627 11.1447648016621
10.8787348063303 55.0354444816765 3.05054571966811 -3.24900885312627 11.1447648016621
-0.969443065323689 2.81343480753129 -0.998183355996748 0 5.58611004319827
-0.601279885056862 3.04187079849945 -0.486918710242316 0 5.58611004319827
0.072859618407325 3.13022140920966 -0.219113419609042 0 5.58611004319827
1.08093510886353 2.90203257007042 -0.511264645754432 0 5.58611004319827
-8.08846168586126 5.59948603974999 2.02558183460803 1.34968224913704 7.40898204291629
8.62657881942726 5.09616978932406 -0.701162942748936 1.34968224913704 7.40898204291629
-6.19006719154682 8.48192031479669 1.90385215704746 0.31146513441624 6.09300396645156
7.67940378013204 7.37267326660195 0.744985626670744 0.31146513441624 6.09300396645156
-8.96418803931528 7.84808200596017 -0.55508732967624 0.41528684588832 7.62094469336451
8.10753824644112 9.24568002550693 -2.53197729326004 -0.62293026883248 33.4813351230951
7.85830220883009 19.1240840654256 -1.28546539503972 -2.18025594091368 7.38027736320025
-12.6292701716815 16.2872353765739 -2.08888126693953 0.62293026883248 12.8696907057841
-7.50744841518658 19.1758599375955 -2.2495644413195 0.62293026883248 12.8696907057841
-12.6557263501983 16.3213543716393 -1.60683174379964 0.726751980304561 6.20709974098514
-7.50081785953149 19.1589238762975 -2.41024761569947 0.726751980304561 6.20709974098514
-12.6367743823055 16.6302082990701 -2.44676651896764 0.5191085573604 17.9516010778663
0.965635363918082 20.7261246609513 -3.42547312655469 0.5191085573604 17.9516010778663
-12.4960500221912 16.7806627834147 -2.12053098310528 0.62293026883248 74.8791152377092
0.966858055171433 20.7523681606053 -3.26235535862352 0.62293026883248 74.8791152377092
-12.5055408105138 16.7934077482722 -1.95741321517411 0.726751980304561 35.3301381133965
0.968019669751675 20.7773007278016 -3.09923759069234 0.726751980304561 35.3301381133965
0.981288772412798 21.0621049988233 -3.31104722964775 0.5191085573604 53.3195926675321
0.982467724524088 21.0874096938882 -3.14549486816536 0.62293026883248 189.637900836555
0.983584911272712 21.1113886746575 -2.97994250668297 0.726751980304561 130.401038171185
1.16439096113902 21.4134529068965 -3.02376519060478 0.62293026883248 207.586555738531
1.16564064269565 21.4364348760586 -2.85577823557118 0.726751980304561 78.7088904389212
0.505075103447765 21.6992201802697 -3.40843097169621 0.62293026883248 21.392671996004
1.34848511209189 21.6892955593093 -3.2380094231114 0.62293026883248 21.392671996004
1.34848511209189 21.6892955593093 -3.2380094231114 0.726751980304561 8.39916476676025
-11.1593405614887 19.1145418554592 -2.59284213204033 -2.18025594091368 5.92828685178274
0.17252302313758 22.2413440804195 -1.38284913708818 0.62293026883248 5.28707538973382
0.855815302700522 22.0500822433275 -3.1114105584484 0.62293026883248 5.28707538973382
-8.75253475481344 19.8564439440155 6.31046648474042 -2.28407765238576 10.9688292523362
-8.92664004666923 20.7247846842714 -1.22703514981064 -2.18025594091368 9.4848461878481
-7.86431787008872 21.1136694638214 1.75290735687234 -2.18025594091368 9.4848461878481
-9.94140781511697 19.3148621107886 -7.28673849877626 -2.28407765238576 6.35291945500966
