VERSION .7
FIELDS x y z velocity intensity
SIZE 4 4 4 4 4
TYPE F F F F F
COUNT 1 1 1 1 1
WIDTH 977
HEIGHT 1
VIEWPOINT 0 0 0 1 0 0 0
POINTS 977
DATA ascii
6.518100 1.636810 16.338700 -10.300800 5.350000
-7.777640 1.854300 15.754000 -9.679200 7.180000
6.551530 1.565240 16.797600 -10.300800 5.970000
-8.060490 1.899530 16.091900 -9.679200 7.410000
-8.892020 1.788170 15.660900 -9.412800 5.590000
-7.244540 1.899530 16.475400 -9.679200 5.850000
6.707510 1.602510 17.197500 -10.300800 7.070000
-7.676150 1.944750 16.751300 -9.768000 6.790000
-8.979890 1.830740 16.103500 -9.412800 6.360000
7.000320 1.595960 17.547500 -10.300800 7.500000
-8.343970 2.048280 16.901200 -9.679200 4.950000
7.184810 0.104946 18.010000 -10.300800 12.860000
-8.533610 2.094830 17.285300 -9.679200 5.000000
7.344320 0.168579 18.409800 -10.300800 18.050000
-7.567690 1.592140 18.250600 -9.945600 6.860000
7.503970 0.172244 18.810000 -10.300800 19.200000
-8.409550 1.626750 18.351800 -9.856800 5.540000
7.663630 0.175908 19.210200 -10.300800 16.180000
-8.150260 1.741050 18.929800 -9.945600 8.910000
5.687010 -2.977520 20.114600 -10.567200 8.010000
-8.329930 1.451780 19.347100 -9.945600 8.050000
-8.506530 1.215400 19.757200 -9.945600 8.490000
-8.111410 1.937920 20.797000 -10.123200 12.120000
-8.267400 1.975190 21.196900 -10.123200 10.290000
4.892670 -0.915972 23.170900 -10.744800 5.980000
-7.528600 8.114880 20.955600 -10.300800 8.980000
5.483410 -0.503707 23.493700 -10.744800 8.450000
5.570500 -1.613020 23.866800 -10.744800 8.240000
6.137470 -1.487030 24.181200 -10.656000 9.020000
4.596250 -2.961420 24.828200 -10.744800 6.250000
4.697850 -1.538310 25.377000 -10.744800 7.640000
4.918010 -2.111310 25.734200 -10.833600 7.680000
7.138540 -1.563950 25.248600 -10.656000 7.790000
5.699360 -2.310600 25.998300 -10.744800 8.990000
5.230100 -2.347870 26.534400 -10.744800 5.220000
17.799500 1.699020 20.426300 -8.524800 5.450000
18.078400 1.811110 20.746500 -8.524800 6.780000
6.523610 0.064967 27.238100 -10.744800 6.120000
18.357000 1.925830 21.066200 -8.524800 5.050000
5.337210 -0.593654 27.927800 -10.744800 9.690000
18.639500 1.955460 21.390300 -8.524800 9.490000
8.598110 -0.758859 27.549800 -10.567200 13.700000
9.914720 -0.758859 27.103800 -10.389600 10.290000
17.984700 1.985090 22.496800 -8.791200 13.130000
18.253100 2.014720 22.832600 -8.791200 9.630000
-8.422420 1.258990 28.935900 -10.478400 5.230000
7.919790 1.182440 29.527400 -10.656000 6.140000
18.150000 8.633320 23.065800 -9.057600 12.890000
7.858110 1.199090 29.989200 -10.656000 5.710000
18.585300 8.754910 23.248100 -9.057600 12.020000
-7.732670 1.215740 30.466200 -10.567200 5.930000
18.877400 8.689680 23.613500 -9.057600 5.420000
8.244410 1.995680 30.737600 -10.656000 6.870000
19.136000 8.808720 23.936900 -9.057600 8.920000
8.355820 2.022650 31.153000 -10.656000 6.430000
-14.306200 1.175190 33.227600 -13.852800 4.550000
-14.476500 1.189190 33.623200 -13.852800 9.110000
-14.648200 1.088620 34.022000 -13.852800 5.350000
18.910600 1.956150 33.306000 -9.768000 4.820000
19.123100 1.978130 33.680300 -9.768000 9.550000
19.341300 1.757850 34.064600 -9.768000 8.160000
19.018500 2.044070 35.213900 -9.856800 9.290000
19.223000 2.066050 35.592600 -9.856800 8.480000
19.427500 2.088030 35.971200 -9.856800 13.810000
-26.403900 -4.894100 30.896600 3.552000 5.290000
19.351300 2.110010 36.500100 -9.856800 15.850000
18.976500 2.357880 37.166500 -9.945600 13.260000
19.172100 2.382190 37.549600 -9.945600 7.120000
19.367800 2.406500 37.932800 -9.945600 8.540000
-6.942820 0.766236 42.520100 -10.744800 13.430000
19.566700 2.297740 38.322500 -9.945600 6.510000
-7.012240 0.773898 42.945300 -10.744800 16.070000
18.939900 2.219910 39.120600 -10.034400 14.320000
19.621900 2.263860 39.745200 -10.034400 6.090000
-5.763510 2.008970 44.396000 -10.833600 7.440000
19.812400 2.285840 40.131100 -10.034400 11.440000
19.245300 2.188710 41.365100 -10.123200 14.600000
19.426800 2.209360 41.755300 -10.123200 9.240000
19.611200 2.086240 42.151600 -10.123200 8.520000
19.393500 2.124870 43.197700 -10.123200 16.560000
-12.622300 1.831940 45.650700 -12.876000 22.060000
19.569800 2.144190 43.590400 -10.123200 6.400000
19.746100 2.163510 43.983100 -10.123200 17.780000
19.922400 2.182820 44.375800 -10.123200 9.830000
9.956980 0.421447 48.541000 -10.833600 5.950000
19.568300 2.642400 45.449400 -10.212000 7.840000
10.043600 0.425112 48.963100 -10.833600 7.970000
19.738500 2.665380 45.844600 -10.212000 6.110000
10.129800 0.584689 49.383700 -10.833600 12.330000
10.216400 0.589686 49.805800 -10.833600 6.270000
19.453300 2.436490 46.914500 -10.300800 15.010000
10.593200 0.594684 50.167400 -10.833600 12.920000
19.618200 2.457140 47.312000 -10.300800 17.990000
11.807700 19.236100 46.521700 -10.833600 11.330000
19.783100 2.477790 47.709600 -10.300800 16.420000
9.359210 19.396400 47.483100 -10.833600 7.810000
19.944900 2.659490 48.099800 -10.300800 7.570000
9.948470 -2.791370 53.740000 -10.833600 9.170000
19.879400 1.311540 50.969000 -10.389600 9.510000
20.035900 1.321870 51.370300 -10.389600 15.500000
20.193800 1.160320 51.775300 -10.389600 10.020000
20.343500 2.374100 53.063200 -10.389600 13.640000
20.085000 2.392090 53.621600 -10.389600 9.070000
20.233300 2.588480 54.017500 -10.389600 8.320000
20.381400 2.787510 54.412800 -10.389600 15.460000
20.121800 1.902700 55.006700 -10.478400 6.710000
20.267600 2.099150 55.405300 -10.389600 16.790000
20.415500 2.114480 55.809700 -10.389600 7.250000
20.563400 2.129800 56.214200 -10.389600 13.670000
20.711400 2.145120 56.618600 -10.389600 6.930000
21.007300 2.175770 57.427400 -10.389600 6.120000
20.617700 1.385190 63.059100 -10.567200 6.870000
20.751600 1.394190 63.468600 -10.567200 11.720000
20.882800 1.766900 63.869900 -10.567200 11.730000
-3.560110 2.647990 68.369300 -10.922400 11.930000
21.280500 2.224480 65.086400 -10.567200 15.970000
21.414400 2.238470 65.495700 -10.567200 15.810000
21.300900 2.101290 68.251800 -10.567200 6.130000
21.429300 2.113950 68.663000 -10.567200 7.730000
21.557600 2.126610 69.074100 -10.567200 8.860000
21.685900 2.139270 69.485300 -10.567200 6.600000
-16.572900 0.000000 73.563800 -10.567200 9.070000
-16.516400 -0.178909 75.341800 -10.567200 8.920000
20.134200 2.151990 79.327400 -10.656000 9.880000
22.061400 1.009460 84.193500 -10.656000 6.340000
22.169700 1.284970 84.606900 -10.656000 5.340000
22.770000 1.291300 84.893500 -10.656000 7.160000
22.496200 1.578450 85.852900 -10.744800 7.330000
22.605400 1.586110 86.269700 -10.744800 5.010000
22.713200 1.870910 86.681300 -10.744800 5.100000
22.931600 1.888900 87.514700 -10.744800 5.290000
23.040800 1.897900 87.931500 -10.744800 5.120000
23.151400 1.624420 88.353500 -10.744800 9.590000
22.575800 1.632080 88.946900 -10.744800 11.560000
22.163500 1.924880 89.488800 -10.744800 9.470000
22.267000 1.933870 89.906900 -10.744800 8.130000
22.370600 1.942870 90.325100 -10.744800 10.290000
22.682700 1.678060 91.585100 -10.744800 11.390000
-56.003200 -17.417700 111.805000 -9.590400 11.780000
-55.544900 -17.477100 112.509000 -9.679200 9.300000
-56.310200 -18.703900 112.417000 -9.501600 5.530000
31.739000 1.719090 144.782000 -10.833600 5.640000
31.831300 1.724080 145.202000 -10.833600 5.930000
31.923600 1.729080 145.623000 -10.833600 11.490000
21.980100 2.272430 153.107000 -10.922400 12.560000
22.042200 1.799040 153.539000 -10.922400 9.030000
22.103400 1.804040 153.966000 -10.922400 6.660000
-6.590320 1.983940 170.929000 -10.922400 7.780000
-6.607130 1.458570 171.365000 -10.922400 5.010000
-6.623520 1.993940 171.790000 -10.922400 6.650000
-4.370890 0.944514 174.457000 -10.922400 5.180000
-5.392550 0.946846 174.860000 -10.922400 4.860000
-5.405830 0.949179 175.290000 -10.922400 7.930000
-48.129500 -11.650400 179.441000 -10.478400 6.650000
-47.200400 -11.677400 180.133000 -10.478400 9.590000
-47.527500 -11.758300 181.381000 -10.389600 9.970000
5.021760 -0.233156 3.334630 -5.860800 3.950000
6.097100 -0.305755 4.048690 -4.351200 2.140000
6.312160 0.619150 5.834660 -7.459200 7.500000
6.608240 0.949763 6.108330 -7.548000 6.370000
6.139410 1.245730 7.679700 -8.524800 3.800000
6.266410 1.299890 8.123490 -8.613600 3.710000
6.615310 1.256900 9.487620 -8.968800 6.440000
6.860320 1.303450 9.839010 -8.968800 5.210000
-8.746070 1.003740 8.868560 -7.459200 5.500000
6.485150 0.897768 10.643700 -9.324000 4.390000
-8.958850 1.038350 9.261110 -7.548000 5.790000
7.210600 0.928726 10.688900 -9.057600 10.110000
-9.183450 1.072960 9.640880 -7.636800 4.940000
7.291340 0.598827 11.176400 -9.146400 12.260000
7.401320 1.489660 11.538300 -9.235200 11.460000
5.987270 -1.160700 12.366700 -9.768000 7.580000
7.632610 1.536210 11.898900 -9.235200 7.950000
6.071310 -1.317440 12.790800 -9.768000 12.060000
6.303320 2.323620 13.019600 -9.768000 12.510000
6.771310 2.391970 13.262000 -9.679200 11.680000
-7.937010 1.389430 13.255500 -9.057600 5.160000
4.820020 -0.275845 14.742000 -10.212000 9.030000
6.946620 -0.227876 13.868200 -9.679200 11.560000
-7.840330 1.428020 13.808700 -9.146400 6.190000
-8.882710 1.378910 13.167600 -8.791200 6.780000
5.906660 -0.283507 14.806100 -10.123200 6.140000
6.946690 -0.234206 14.348400 -9.856800 9.910000
-7.942680 1.466620 14.243500 -9.235200 10.810000
-9.433010 1.416170 13.308900 -8.613600 8.130000
5.915040 -1.768970 15.165700 -10.123200 6.530000
7.780600 -0.189899 14.406300 -9.679200 6.080000
14.073600 1.596890 9.821650 -6.571200 6.610000
5.860220 -1.815520 15.645200 -10.034400 9.750000
14.308000 1.636810 10.233300 -6.571200 6.570000
6.906020 -1.649960 15.705500 -9.945600 10.280000
14.534900 1.676740 10.651600 -6.660000 6.750000
6.960300 1.527980 16.166000 -10.034400 7.720000
7.255500 1.621000 16.500300 -9.945600 9.260000
-7.854580 1.621000 16.223700 -9.590400 6.520000
-8.454710 1.756580 16.878900 -9.501600 3.370000
6.785310 1.668510 18.549000 -10.212000 10.640000
-8.103800 1.179370 18.050600 -9.768000 11.770000
7.358250 0.297504 18.865900 -10.123200 4.360000
-7.994700 1.205010 18.568500 -9.768000 4.550000
7.514810 0.303834 19.267300 -10.123200 4.520000
7.557540 0.310164 19.712800 -10.123200 5.650000
7.712090 0.249867 20.115900 -10.123200 6.020000
6.796020 -2.171340 20.785600 -10.300800 11.650000
5.651760 -2.213920 21.569000 -10.389600 12.250000
6.904350 -2.084140 22.122700 -10.389600 9.060000
6.727660 -2.122740 22.625200 -10.389600 8.950000
5.155180 -1.409870 24.414100 -10.478400 6.440000
-7.620600 1.197600 23.771900 -10.123200 8.470000
7.428120 -0.982588 24.293900 -10.389600 8.490000
-7.754140 1.061150 24.188500 -10.123200 7.520000
7.553080 -1.079140 24.702500 -10.389600 6.640000
-8.027630 1.079140 24.552400 -10.123200 5.480000
2.862530 -8.859470 25.958400 -10.567200 8.160000
5.247180 -1.752960 27.456700 -10.567200 6.640000
5.798730 -0.848113 28.269200 -10.567200 9.950000
5.404420 -1.585440 29.193800 -10.567200 9.780000
18.233300 0.722896 24.017300 -8.791200 7.820000
6.617420 -1.794690 29.373400 -10.567200 8.520000
6.723140 0.449422 29.842700 -10.567200 7.350000
7.051380 0.263862 30.211700 -10.567200 8.580000
18.522300 1.974160 27.457100 -9.146400 6.080000
18.762800 1.999800 27.813700 -9.146400 5.800000
19.006800 1.920330 28.175300 -9.146400 7.990000
-7.030470 0.894774 33.295200 -10.478400 9.370000
19.243900 2.051080 28.526900 -9.146400 8.640000
-7.119470 0.906101 33.716600 -10.478400 8.220000
18.602900 1.365630 30.009100 -9.324000 6.880000
8.224600 1.256430 34.340300 -10.567200 6.550000
18.829800 1.382280 30.375000 -9.324000 12.260000
8.116030 2.017570 34.773200 -10.567200 12.870000
19.056700 1.398940 30.741000 -9.324000 4.570000
7.738410 2.041870 35.299700 -10.567200 9.120000
7.830540 2.066180 35.719900 -10.567200 9.840000
18.767100 1.890220 31.897900 -9.412800 11.460000
18.985300 1.912200 32.268800 -9.412800 13.570000
19.203500 1.934170 32.639700 -9.412800 11.400000
19.421800 1.956150 33.010600 -9.412800 4.630000
18.604500 1.858340 33.976200 -9.590400 10.140000
18.808400 2.000110 34.348500 -9.590400 11.220000
19.015000 2.022090 34.725900 -9.590400 6.150000
-27.118500 1.440300 30.052200 -7.814400 6.470000
-6.988670 0.960419 39.447900 -10.478400 6.840000
-27.113100 1.455620 30.634600 -7.903200 6.330000
-27.695500 1.470940 30.691600 -7.903200 12.260000
19.155400 1.835120 36.130600 -9.590400 5.330000
-27.683900 1.486260 31.279500 -7.992000 6.190000
19.357000 1.854430 36.510900 -9.590400 11.780000
19.558600 1.873750 36.891200 -9.590400 7.850000
19.017500 1.715370 40.065200 -9.856800 6.610000
19.202100 1.732020 40.454100 -9.856800 13.730000
19.386800 1.748670 40.843100 -9.856800 7.020000
19.611200 2.086240 42.151600 -9.856800 10.840000
-6.397150 2.395740 46.468700 -10.567200 7.100000
19.792800 2.105550 42.541900 -9.856800 8.260000
19.725900 2.124870 43.046900 -9.945600 7.990000
19.746100 2.163510 43.983100 -9.945600 10.030000
19.922400 2.182820 44.375800 -9.945600 5.380000
20.098700 2.202140 44.768500 -9.945600 10.290000
9.830070 1.218600 49.872000 -10.567200 17.250000
10.302600 0.753256 50.225800 -10.567200 15.160000
10.389900 0.439771 50.651500 -10.567200 14.670000
19.785900 2.318040 47.716500 -10.034400 14.840000
19.953400 2.176260 48.120600 -10.034400 5.420000
9.867240 -0.609676 51.631900 -10.567200 6.110000
20.118400 2.194240 48.518300 -10.034400 5.490000
20.283300 2.212230 48.915900 -10.034400 7.310000
20.264600 1.945930 50.796700 -10.123200 7.340000
20.195000 0.988444 51.778400 -10.212000 14.570000
20.350400 1.169320 52.176600 -10.212000 6.050000
20.506900 1.178310 52.578000 -10.212000 11.090000
20.663500 1.187310 52.979300 -10.212000 8.670000
20.240800 2.053190 54.037700 -10.212000 10.880000
20.391900 2.068510 54.440900 -10.212000 6.950000
20.542900 2.083830 54.844200 -10.212000 7.140000
20.694000 2.099150 55.247500 -10.212000 8.810000
20.413200 2.298260 55.803300 -10.212000 6.370000
20.558500 2.500000 56.200700 -10.212000 7.640000
20.706400 2.517990 56.605000 -10.212000 5.390000
20.524400 2.535970 57.128900 -10.212000 12.410000
-23.265100 -1.456120 56.107200 -9.768000 17.140000
20.675000 2.175770 57.547900 -10.300800 17.020000
-23.430100 -1.466450 56.505100 -9.768000 11.960000
20.818200 2.381530 57.946500 -10.300800 7.240000
20.966200 2.206410 58.358400 -10.212000 14.500000
21.111800 2.221730 58.763700 -10.212000 18.820000
20.418000 1.340220 60.856200 -10.300800 9.860000
20.818000 2.531410 62.048600 -10.300800 19.660000
-9.365880 1.580040 65.239900 -10.567200 17.090000
20.955000 2.548070 62.456800 -10.300800 10.350000
-9.806520 1.590370 65.610700 -10.567200 8.440000
21.092000 2.564720 62.865100 -10.300800 9.360000
-9.870200 1.600700 66.036800 -10.567200 7.620000
20.881000 1.974710 63.864400 -10.300800 11.770000
21.014900 1.987370 64.273800 -10.300800 11.290000
21.150500 1.789550 64.688800 -10.300800 6.640000
21.284400 1.800880 65.098200 -10.300800 8.440000
21.039300 1.812200 65.630300 -10.300800 6.370000
21.166900 2.252460 66.028500 -10.300800 7.550000
21.298400 2.266450 66.438600 -10.300800 7.410000
21.429800 2.280440 66.848700 -10.300800 11.070000
21.912600 1.637050 75.282500 -10.389600 8.210000
22.033000 1.646040 75.696100 -10.389600 5.430000
21.569400 0.919511 76.289700 -10.389600 6.420000
-16.557400 -0.929506 78.413000 -10.478400 6.460000
-16.646400 -0.934503 78.834600 -10.478400 4.410000
21.317900 1.463510 79.479600 -10.478400 6.350000
21.429500 1.471170 79.895700 -10.478400 6.470000
21.541100 1.478840 80.311900 -10.478400 10.020000
21.652700 1.486500 80.728000 -10.478400 8.820000
-11.624000 -3.824770 84.436100 -10.567200 6.820000
-11.682700 -3.844090 84.862500 -10.567200 5.880000
-19.316200 1.563120 85.740800 -10.478400 5.440000
-15.332000 1.563120 86.542100 -10.478400 4.510000
23.150000 1.906890 88.348200 -10.478400 11.780000
23.259200 1.915880 88.765000 -10.478400 5.440000
23.368400 1.924880 89.181700 -10.478400 5.300000
23.480200 1.360920 89.608300 -10.478400 8.800000
-27.084500 1.647410 88.580700 -10.212000 9.690000
22.893700 1.655070 90.199700 -10.478400 9.090000
-27.208900 1.942870 88.987300 -10.212000 10.810000
22.999700 1.662730 90.617300 -10.478400 10.810000
-27.334800 1.951860 89.399300 -10.212000 8.560000
23.106900 1.379910 91.039400 -10.478400 5.950000
22.784900 1.978850 91.997800 -10.478400 5.670000
22.888400 1.987840 92.416000 -10.478400 10.060000
22.273000 2.514430 92.996700 -10.478400 14.360000
-56.882100 -14.758700 98.408400 -9.146400 14.080000
18.754000 0.652998 119.184000 -10.656000 5.920000
18.821000 0.655330 119.609000 -10.656000 10.880000
18.887600 1.033460 120.032000 -10.656000 7.290000
-54.842900 -14.465000 113.278000 -9.501600 10.930000
-55.307500 -12.602300 114.238000 -9.501600 12.080000
-55.078900 -10.522000 118.385000 -9.590400 5.460000
-55.184700 -12.581000 118.612000 -9.590400 6.520000
-53.705300 -13.839400 119.625000 -9.590400 5.540000
-54.804200 -13.884600 119.597000 -9.590400 6.830000
22.165400 1.326640 154.397000 -10.656000 5.520000
22.225900 1.814040 154.819000 -10.656000 6.410000
-59.225700 -10.221100 151.850000 -9.856800 5.130000
-4.402850 2.582590 175.733000 -10.656000 5.350000
5.382160 -0.189876 3.573950 -5.772000 5.570000
5.740970 -0.202534 3.812210 -5.949600 7.420000
5.380470 -0.223847 4.305020 -6.837600 2.940000
6.094470 -0.373647 4.046950 -6.216000 6.070000
5.760550 -0.237837 4.518800 -6.837600 5.460000
6.187960 1.490030 8.150920 -8.702400 7.550000
6.380170 1.552120 8.539970 -8.791200 6.690000
6.585880 1.373830 8.958510 -8.880000 6.900000
6.917700 1.328420 9.259470 -8.791200 4.040000
7.173910 1.377620 9.602410 -8.791200 4.880000
6.494430 0.941229 10.124500 -9.235200 6.320000
6.721650 1.080760 10.478700 -9.235200 4.490000
6.863850 1.237470 10.884100 -9.324000 7.440000
6.587850 0.640095 11.602800 -9.501600 3.440000
7.060710 1.107570 11.792000 -9.412800 9.440000
5.720140 -0.505636 13.008600 -9.856800 9.660000
7.281350 1.142190 12.160500 -9.412800 5.100000
-8.130710 1.580450 13.116000 -8.968800 6.890000
-8.728340 1.580450 12.726100 -8.702400 5.480000
6.867060 0.035982 13.909600 -9.768000 10.390000
-8.983930 1.378910 13.098700 -8.702400 9.810000
5.150480 -1.906120 14.967600 -10.212000 4.760000
7.140330 0.036981 14.254900 -9.768000 4.060000
-8.495840 1.226890 13.943800 -9.057600 11.870000
5.171040 -1.957640 15.412400 -10.212000 10.180000
7.445930 0.037981 14.583200 -9.768000 12.030000
-8.719420 1.259180 14.310800 -9.057600 7.240000
5.668480 -1.155500 15.778000 -10.212000 9.410000
-8.715690 1.291460 14.813800 -9.146400 8.950000
14.299500 1.745590 10.227200 -6.660000 8.400000
5.679500 -1.543810 16.200000 -10.212000 4.000000
14.648300 1.788170 10.476600 -6.660000 8.470000
6.731770 -1.799950 16.234600 -10.034400 6.150000
14.992400 1.887760 10.722700 -6.660000 5.450000
6.767580 -1.843850 16.683200 -10.034400 8.060000
-8.656620 1.331170 16.328000 -9.324000 7.880000
-8.449680 1.873320 16.868900 -9.501600 7.050000
-8.996910 1.011010 16.658300 -9.324000 9.300000
-8.674230 0.929171 17.317200 -9.501600 8.240000
-7.315060 1.775380 18.336500 -9.856800 5.330000
7.358250 0.297504 18.865900 -10.212000 5.890000
-7.474080 1.813970 18.735100 -9.856800 6.780000
7.514810 0.303834 19.267300 -10.212000 4.360000
7.671680 0.244870 19.669500 -10.212000 5.250000
17.418600 1.239710 13.341500 -6.837600 5.820000
7.828240 0.249867 20.071000 -10.212000 6.030000
17.757000 1.333200 13.600600 -6.837600 6.990000
18.098500 1.358840 13.862200 -6.837600 10.430000
-8.134670 0.989209 22.237700 -10.034400 7.500000
17.552000 1.385560 17.125000 -7.725600 5.460000
6.669180 -1.537210 23.588500 -10.478400 8.390000
17.860000 1.409870 17.425400 -7.725600 5.170000
6.643170 -1.795540 24.026100 -10.478400 7.800000
18.167900 1.434170 17.725800 -7.725600 5.900000
6.560740 1.589580 25.848900 -10.389600 6.220000
6.832630 1.011270 27.587900 -10.567200 4.860000
6.937550 -0.848113 28.011500 -10.567200 9.570000
7.205310 -0.860771 28.388400 -10.567200 9.750000
8.595680 -0.536365 28.907300 -10.478400 5.420000
6.952600 -0.544028 29.788500 -10.478400 8.840000
6.642790 -0.455751 30.301900 -10.567200 6.110000
18.153800 1.968710 25.613000 -8.968800 4.450000
6.913170 -0.170246 30.686200 -10.567200 5.750000
18.406000 1.897250 25.968800 -8.968800 5.590000
18.654700 1.922880 26.319700 -8.968800 6.310000
18.906800 1.847410 26.675400 -8.968800 6.510000
7.932560 0.404785 33.987100 -10.567200 7.990000
18.365900 1.780320 29.626600 -9.324000 7.690000
18.595400 1.693160 29.997000 -9.324000 5.520000
18.822200 1.713800 30.362800 -9.324000 10.560000
19.285300 1.734450 30.580900 -9.324000 10.430000
7.842740 -0.311504 35.775600 -10.567200 7.820000
18.775200 2.405370 31.356100 -9.412800 13.340000
18.504800 2.433670 32.014100 -9.501600 8.700000
18.972800 2.346270 32.247500 -9.501600 7.100000
19.075500 1.878990 34.207700 -9.590400 14.200000
19.282100 2.022090 34.578400 -9.590400 7.620000
-6.761400 0.712599 39.492700 -10.567200 7.750000
-26.827700 1.440300 30.312100 -7.814400 4.860000
-27.113100 1.455620 30.634600 -7.814400 4.910000
-27.398500 1.470940 30.957000 -7.814400 5.670000
-27.689500 1.227860 31.285800 -7.903200 8.220000
19.078100 2.274760 38.087400 -9.768000 8.710000
19.267500 2.430800 38.465600 -9.768000 6.860000
19.238600 2.320720 38.968700 -9.768000 10.880000
19.017500 1.715370 40.065200 -9.856800 5.950000
19.204300 1.593520 40.458800 -9.856800 9.580000
19.389000 1.608840 40.847800 -9.856800 9.580000
19.890900 1.624160 41.084800 -9.856800 8.760000
23.972000 -1.781980 39.344100 -9.412800 6.700000
19.611200 2.086240 42.151600 -9.856800 11.070000
19.792800 2.105550 42.541900 -9.856800 14.050000
19.974400 2.124870 42.932200 -9.856800 12.480000
-25.817000 -1.146310 40.247600 -8.968800 8.330000
-26.049600 -1.156630 40.610100 -8.968800 5.890000
19.411600 1.865250 44.145400 -9.945600 5.730000
-26.282200 -1.166960 40.972700 -8.968800 6.660000
19.582400 2.032370 44.534000 -9.945600 9.010000
19.755700 2.050360 44.928100 -9.945600 9.180000
19.749400 2.086330 45.869900 -10.034400 18.140000
8.792200 -1.208270 49.628000 -10.656000 11.080000
19.919600 2.104320 46.265300 -10.034400 6.740000
9.832750 0.275192 49.885600 -10.567200 12.560000
20.089900 2.122300 46.660800 -10.034400 5.890000
9.915560 0.594684 50.305800 -10.567200 13.190000
20.260200 2.140290 47.056200 -10.034400 7.340000
9.997970 0.919483 50.723900 -10.567200 9.000000
10.081300 0.927146 51.146600 -10.567200 8.930000
19.947900 2.498440 48.107200 -10.034400 8.440000
7.770920 -0.284520 51.991500 -10.656000 6.750000
20.115700 2.356680 48.511800 -10.034400 11.480000
19.903000 2.375990 49.064200 -10.123200 9.220000
20.195000 0.988444 51.778400 -10.212000 7.260000
20.049600 0.996107 52.296500 -10.212000 15.120000
20.508100 1.003770 52.581100 -10.212000 14.780000
20.665700 0.835544 52.985200 -10.212000 17.510000
20.238500 2.231640 54.031500 -10.212000 9.290000
20.389600 2.248290 54.434700 -10.212000 16.030000
20.540600 2.264950 54.837900 -10.212000 11.510000
20.691600 2.281600 55.241100 -10.212000 12.950000
20.563400 2.129800 56.214200 -10.212000 5.290000
20.711400 2.145120 56.618600 -10.300800 14.370000
20.859300 2.160440 57.023000 -10.300800 11.120000
20.037000 2.191090 58.228700 -10.212000 8.430000
20.515700 2.206410 58.518300 -10.300800 6.670000
20.658200 2.221730 58.924700 -10.300800 6.950000
20.802900 2.042600 59.337300 -10.300800 5.750000
-4.874110 2.252380 63.114300 -10.656000 12.790000
20.599700 2.056590 59.863800 -10.300800 17.410000
-4.907270 2.267700 63.543700 -10.656000 17.340000
20.739800 2.070580 60.271000 -10.300800 5.360000
20.879900 2.084570 60.678200 -10.300800 12.740000
21.020100 2.098560 61.085500 -10.300800 14.070000
-9.740510 2.140530 65.169000 -10.567200 18.410000
20.955000 2.548070 62.456800 -10.300800 18.230000
-9.803140 2.359630 65.588100 -10.567200 13.600000
21.092000 2.564720 62.865100 -10.300800 11.650000
-9.866800 2.374960 66.014000 -10.567200 6.400000
20.882800 1.766900 63.869900 -10.389600 13.780000
21.016700 1.778220 64.279400 -10.389600 7.250000
21.150500 1.789550 64.688800 -10.389600 11.500000
21.282600 2.012690 65.092600 -10.389600 8.530000
21.915000 1.152040 75.290700 -10.478400 7.100000
22.035400 1.158370 75.704400 -10.478400 7.590000
22.155900 1.164700 76.118100 -10.478400 8.650000
21.359100 0.000000 77.248900 -10.478400 15.670000
21.474000 0.000000 77.664200 -10.478400 12.860000
21.588800 0.000000 78.079500 -10.478400 8.400000
21.931800 0.954492 79.320200 -10.478400 7.440000
22.044700 1.471170 79.728200 -10.478400 8.360000
22.159500 1.478840 80.143400 -10.478400 7.140000
-10.522700 -5.896010 84.896500 -10.567200 7.980000
-9.490640 -2.075740 86.064300 -10.478400 5.910000
-14.748200 -3.651080 86.143100 -10.478400 5.520000
23.151400 1.624420 88.353500 -10.478400 5.790000
23.260600 1.632080 88.770300 -10.478400 6.300000
23.369800 1.639740 89.187000 -10.478400 10.660000
23.479000 1.647410 89.603800 -10.478400 10.960000
22.892400 1.942870 90.194300 -10.478400 6.620000
22.996700 2.240980 90.605600 -10.478400 4.920000
23.101400 2.469120 91.017800 -10.478400 8.800000
19.442700 0.652998 119.073000 -10.656000 7.430000
19.511700 1.029800 119.496000 -10.656000 6.520000
19.581100 1.033460 119.921000 -10.656000 10.180000
-55.137300 -12.168500 113.887000 -9.412800 14.400000
-55.324200 -12.209700 114.273000 -9.412800 13.780000
-55.494400 -12.644900 114.624000 -9.412800 8.850000
-55.681200 -12.687500 115.010000 -9.412800 10.130000
22.163800 2.291420 154.386000 -10.656000 12.760000
22.225000 2.297750 154.813000 -10.656000 11.100000
-4.403170 1.495220 175.746000 -10.744800 8.330000
-4.413960 1.498890 176.176000 -10.744800 7.980000
-4.424750 1.502550 176.607000 -10.744800 4.780000
5.289990 -0.404529 3.691780 -6.393600 1.380000
5.373930 -0.404529 3.568480 -6.127200 3.390000
5.732190 -0.431498 3.806380 -6.127200 2.760000
5.951390 -0.351020 4.256500 -6.482400 4.140000
5.897190 -0.371668 5.024300 -7.015200 2.740000
6.248940 -0.371668 4.579430 -6.571200 2.760000
6.174920 1.043500 10.312600 -9.324000 8.130000
6.399940 0.974845 10.688400 -9.324000 4.800000
6.617300 1.088160 11.051500 -9.412800 4.860000
6.568920 1.196450 11.569400 -9.590400 6.620000
7.287060 0.753549 11.169800 -9.235200 6.000000
6.595930 1.235050 12.045700 -9.590400 6.280000
6.190960 -0.593525 12.787500 -9.856800 6.670000
6.818630 -0.802165 12.452400 -9.590400 9.500000
6.757480 -0.566237 12.986800 -9.768000 8.860000
7.713410 -0.566237 12.442800 -9.412800 10.430000
6.464290 -0.443044 13.618700 -9.945600 8.500000
7.059060 -0.582891 13.314700 -9.679200 10.180000
-8.285930 1.675680 12.489500 -8.880000 12.290000
6.759650 -0.035982 13.962100 -9.945600 6.870000
-7.727300 1.484970 13.368600 -9.146400 9.890000
-8.522670 1.723550 12.846300 -8.880000 5.740000
5.071340 0.000000 15.115200 -10.123200 7.810000
-9.022950 1.315240 13.600400 -8.791200 5.680000
7.228210 -1.226890 14.641100 -9.768000 7.330000
-9.367700 1.349860 13.886500 -8.791200 7.000000
7.418420 -1.259180 15.026400 -9.768000 6.740000
-9.281080 0.753364 13.989500 -8.880000 6.330000
5.580860 -1.703010 16.218300 -10.212000 4.640000
14.290500 1.854300 10.220700 -6.660000 6.860000
5.720390 -1.745590 16.623800 -10.212000 4.780000
-8.330240 1.356040 16.009300 -9.412800 6.590000
-8.654650 1.388320 16.324300 -9.412800 7.770000
-8.927290 1.393090 17.156800 -9.412800 9.400000
7.358940 0.109610 18.867700 -10.212000 3.150000
7.515350 0.175908 19.268700 -10.212000 11.550000
7.557850 0.244870 19.713600 -10.212000 16.910000
17.052200 1.680770 13.060800 -6.837600 17.880000
6.020860 0.249867 20.685100 -10.478400 5.200000
7.712090 0.249867 20.115900 -10.212000 12.330000
17.393200 1.714380 13.322000 -6.837600 14.240000
17.734300 1.748000 13.583200 -6.837600 10.600000
17.680500 1.384480 15.063500 -7.370400 5.750000
4.662480 -1.743480 22.729900 -10.567200 6.870000
18.004600 1.483270 15.339600 -7.370400 7.500000
4.748820 -1.775760 23.150800 -10.567200 8.040000
18.335400 1.435750 15.621400 -7.370400 6.050000
4.985170 -0.205226 23.608900 -10.478400 7.270000
-8.762680 0.858049 22.466800 -9.945600 9.490000
6.661910 -1.916070 23.562800 -10.478400 8.600000
-8.786820 0.873371 22.919100 -9.945600 6.810000
6.977640 -1.120390 23.972200 -10.478400 7.610000
-7.935580 1.487030 23.652200 -10.212000 7.220000
8.080680 -0.982588 24.084700 -10.478400 8.950000
8.030390 -0.839425 24.560900 -10.478400 8.580000
4.908280 -2.677980 25.683300 -10.567200 8.960000
6.805820 -0.853415 25.374200 -10.389600 8.720000
4.633180 -2.886220 26.152200 -10.567200 5.690000
5.053300 -3.495480 26.442200 -10.567200 6.100000
4.770740 -3.550970 26.928700 -10.567200 9.830000
7.570340 1.362780 27.379400 -10.478400 9.410000
7.685050 1.383430 27.794300 -10.478400 6.920000
7.797610 1.562460 28.201400 -10.567200 4.860000
5.396910 -2.227770 29.153200 -10.656000 9.250000
18.387000 1.887800 23.836100 -8.791200 7.850000
7.005690 -2.260060 29.251000 -10.567200 5.460000
18.649700 1.914770 24.176600 -8.791200 3.920000
6.722400 -0.638628 29.839400 -10.567200 7.860000
18.912400 1.941740 24.517100 -8.791200 9.950000
6.817090 -0.647623 30.259600 -10.567200 9.660000
18.106000 1.750180 25.132600 -8.968800 12.730000
7.972680 -0.364806 30.426400 -10.567200 7.700000
18.157200 1.871610 25.617800 -8.968800 17.590000
8.081890 -0.369803 30.843200 -10.567200 7.820000
18.406000 1.897250 25.968800 -8.968800 17.750000
8.191100 -0.374801 31.260000 -10.567200 8.640000
18.654700 1.922880 26.319700 -8.968800 13.460000
18.285000 1.847410 27.105400 -9.146400 6.910000
18.313400 1.871720 27.604000 -9.146400 9.700000
18.547900 1.999800 27.957500 -9.146400 12.730000
18.785700 2.025440 28.315900 -9.146400 13.780000
18.801900 2.051080 28.820100 -9.235200 10.350000
8.125930 1.025330 33.928300 -10.567200 5.120000
18.353700 2.184460 29.607100 -9.324000 5.040000
18.580300 2.211430 29.972600 -9.324000 14.970000
18.799300 2.459140 30.325800 -9.324000 4.300000
-7.652040 1.203180 36.238800 -10.478400 12.770000
18.813900 1.757850 34.358700 -9.590400 11.310000
19.020700 1.777170 34.736200 -9.590400 10.590000
-6.454440 1.301110 39.529100 -10.567200 5.930000
-26.827700 1.440300 30.312100 -7.903200 10.070000
9.732340 1.315100 39.296000 -10.567200 5.910000
-27.113100 1.455620 30.634600 -7.903200 5.760000
10.069900 0.474748 39.674800 -10.567200 7.080000
-27.401400 1.343080 30.960300 -7.903200 8.140000
-27.686800 1.357070 31.282800 -7.903200 9.060000
18.887700 2.153970 37.707300 -9.856800 6.870000
19.080400 2.175950 38.092000 -9.856800 8.230000
19.273100 2.197930 38.476800 -9.856800 8.770000
19.465900 2.219910 38.861600 -9.856800 8.010000
19.434400 2.106120 39.365300 -9.856800 9.890000
19.015100 1.852520 40.060200 -9.945600 6.030000
19.199700 1.870500 40.449100 -9.945600 14.960000
19.384300 1.888490 40.838000 -9.945600 4.900000
19.569000 1.906470 41.227000 -9.945600 15.730000
19.572400 1.996400 43.596200 -10.034400 6.570000
19.748800 2.014390 43.989000 -10.034400 15.120000
19.925100 2.032370 44.381800 -10.034400 17.740000
20.101400 2.050360 44.774500 -10.034400 16.100000
-6.377700 1.187610 49.127000 -10.656000 19.580000
20.280300 1.915210 45.172900 -10.034400 14.170000
-6.433150 1.197940 49.554200 -10.656000 5.660000
19.483900 2.086330 45.983300 -10.034400 7.680000
10.129400 0.740596 49.381700 -10.656000 5.920000
19.917000 2.260090 46.259100 -10.034400 15.670000
10.216000 0.746926 49.803700 -10.656000 12.500000
20.089900 2.122300 46.660800 -10.034400 17.830000
9.914660 0.911821 50.301200 -10.656000 14.500000
20.260200 2.140290 47.056200 -10.034400 6.060000
9.997380 1.079370 50.720900 -10.656000 15.500000
8.863010 -11.710900 50.027700 -10.656000 13.480000
19.953400 2.176260 48.120600 -10.123200 8.760000
20.115700 2.356680 48.511800 -10.123200 8.030000
20.107200 1.762790 50.402100 -10.123200 15.370000
20.196000 0.816555 51.781000 -10.212000 9.500000
20.049600 0.996107 52.296500 -10.212000 8.510000
20.203800 1.003770 52.698800 -10.212000 9.850000
20.359100 0.835544 53.103700 -10.212000 9.620000
20.387000 2.428060 54.427900 -10.212000 6.480000
20.538000 2.446040 54.831100 -10.212000 7.800000
20.235800 2.314910 56.325600 -10.300800 16.090000
20.383800 2.145120 56.737400 -10.300800 16.050000
17.192900 0.699628 57.819900 -9.235200 6.690000
20.529400 2.160440 57.142600 -10.300800 11.470000
17.315700 0.704625 58.232900 -9.235200 6.280000
19.907300 0.898843 57.851900 -9.235200 6.490000
20.375400 2.000630 58.118000 -10.300800 9.340000
20.043900 1.476770 58.248800 -9.235200 4.760000
20.802900 2.042600 59.337300 -10.300800 6.460000
-4.508680 2.448140 63.134200 -10.656000 5.920000
20.945400 2.056590 59.743700 -10.300800 10.970000
20.743600 1.676290 60.282000 -10.300800 8.150000
20.883700 1.687610 60.689300 -10.300800 10.760000
21.025100 1.549060 61.100200 -10.300800 10.290000
20.820400 2.328990 62.055800 -10.300800 16.200000
20.957400 2.344310 62.464000 -10.300800 13.830000
-10.310400 1.949390 65.523700 -10.567200 7.520000
20.609200 2.359630 63.033000 -10.300800 6.590000
-10.377400 1.962050 65.949200 -10.567200 6.780000
-19.771900 -0.804572 66.492900 -10.212000 10.760000
21.331700 1.637050 75.449100 -10.478400 10.920000
21.451300 1.158370 75.872000 -10.478400 12.020000
21.569400 0.919511 76.289700 -10.478400 8.800000
21.919100 1.432860 77.526500 -10.478400 7.210000
22.036300 1.440520 77.941100 -10.478400 6.850000
-17.576800 -0.202896 85.688300 -10.478400 8.110000
22.151800 1.601430 87.276500 -10.567200 9.900000
22.934200 1.329280 87.524400 -10.478400 10.210000
22.468400 1.906890 88.524000 -10.567200 6.950000
22.574400 1.915880 88.941600 -10.567200 6.880000
22.680400 1.924880 89.359200 -10.567200 6.860000
22.894900 1.367250 90.204200 -10.478400 8.050000
23.000900 1.373580 90.621800 -10.478400 11.740000
23.106900 1.379910 91.039400 -10.567200 12.490000
22.683800 1.386240 91.589700 -10.567200 9.330000
22.783300 2.271960 91.991400 -10.567200 10.640000
22.172700 2.503100 92.577800 -10.567200 12.910000
19.442700 0.652998 119.073000 -10.656000 6.480000
19.511700 1.029800 119.496000 -10.656000 11.630000
19.580500 1.409250 119.918000 -10.656000 13.980000
22.100100 3.247110 153.943000 -10.656000 5.590000
22.161300 3.256100 154.369000 -10.656000 6.880000
22.223900 2.781440 154.805000 -10.656000 5.220000
-60.675100 -11.794800 152.093000 -9.856800 4.260000
-60.820500 -12.333500 152.457000 -9.856800 8.610000
-4.392470 0.949179 175.319000 -10.744800 7.010000
-4.403260 0.951511 175.749000 -10.744800 5.880000
-4.414060 0.953843 176.180000 -10.744800 6.370000
-4.424750 1.502550 176.607000 -10.744800 5.720000
6.611830 1.590540 9.966090 -9.235200 10.290000
6.927320 1.647350 10.268900 -9.235200 2.780000
6.214390 1.556000 11.721500 -9.679200 8.830000
6.000040 -0.735276 12.393100 -9.945600 7.280000
6.577470 1.606190 12.012000 -9.679200 6.450000
5.715610 -0.758254 12.998300 -10.034400 4.860000
6.188300 -0.725316 12.782000 -9.856800 4.570000
6.973150 1.656390 12.281300 -9.590400 10.390000
-8.373270 1.536210 11.389800 -8.524800 9.360000
5.785420 -0.781231 13.437200 -10.034400 5.950000
7.126000 -0.747295 12.779000 -9.679200 3.710000
-8.513550 1.582760 11.817500 -8.613600 12.170000
5.956300 -0.769274 13.834100 -10.034400 7.910000
6.857860 -0.128266 13.431500 -9.768000 5.010000
-8.291500 1.582940 12.497900 -8.791200 10.690000
5.548930 -0.599545 14.473600 -10.300800 10.230000
-8.429070 1.628160 12.920300 -8.791200 5.260000
5.788960 -0.616199 14.842400 -10.300800 8.600000
-8.157490 1.428020 13.623700 -9.146400 8.300000
-8.573560 1.428020 13.365800 -8.968800 7.960000
4.962700 -1.957640 15.480800 -10.300800 5.940000
-8.592640 1.466620 13.861100 -9.057600 6.200000
5.434240 -1.867180 15.792200 -10.212000 8.300000
-8.717350 1.311000 14.307400 -9.057600 9.270000
6.773870 -1.915060 15.733000 -10.034400 6.390000
14.175900 1.799950 10.388600 -6.748800 9.290000
6.954390 1.691210 16.152300 -10.034400 8.610000
-8.239780 1.636810 15.541800 -9.412800 4.340000
14.521700 1.843850 10.642000 -6.748800 2.670000
7.251330 1.732460 16.490800 -10.034400 7.870000
-8.317790 1.676740 15.985400 -9.412800 3.760000
6.336150 1.773710 17.321100 -10.212000 5.090000
-7.809220 0.773381 16.784800 -9.590400 5.430000
-8.515830 1.716660 16.366000 -9.412800 3.010000
6.485400 1.756580 17.729100 -10.300800 3.490000
-8.122960 0.791367 17.113100 -9.590400 6.400000
-8.842690 1.756580 16.679000 -9.412800 7.250000
6.632790 1.796500 18.132000 -10.300800 4.850000
-8.279060 1.796500 17.441900 -9.590400 8.440000
6.701520 0.168579 18.653400 -10.300800 8.790000
-7.552720 2.019460 18.214400 -9.856800 5.290000
-8.595090 1.958470 17.753200 -9.590400 8.570000
7.358780 0.172244 18.867300 -10.212000 5.810000
-7.320750 2.063360 18.769800 -9.945600 7.990000
7.403610 0.239872 19.311200 -10.300800 6.600000
-7.496200 1.485960 19.219600 -9.945600 9.510000
7.557850 0.244870 19.713600 -10.300800 6.080000
7.557850 0.244870 19.713600 -10.212000 15.880000
7.712090 0.249867 20.115900 -10.212000 16.930000
4.912870 1.540660 21.807200 -10.567200 7.970000
4.878780 1.570290 22.255200 -10.567200 5.660000
7.547030 -1.094360 21.526800 -10.389600 6.620000
5.108790 -1.043120 22.676900 -10.567200 6.930000
5.203390 -1.062440 23.096800 -10.567200 6.950000
-7.527750 1.263760 22.436600 -10.212000 4.580000
-8.471800 1.263760 22.097500 -10.034400 7.720000
18.177000 1.584720 15.791200 -7.459200 5.530000
6.558440 -1.081750 23.196800 -10.478400 9.430000
-7.840460 1.286730 22.784800 -10.123200 5.710000
7.806760 -0.949280 23.268200 -10.389600 8.080000
-8.114390 1.309710 23.145200 -10.123200 6.220000
7.623660 -0.965934 23.781400 -10.389600 9.900000
6.107250 -0.982588 24.659100 -10.567200 9.760000
7.755110 -0.982588 24.191500 -10.389600 7.550000
7.220120 -0.999242 24.805300 -10.567200 11.210000
7.343400 -0.690902 25.228800 -10.478400 5.690000
5.155280 -1.754510 26.154900 -10.656000 7.030000
7.611890 -0.702228 25.598800 -10.478400 9.530000
6.574580 -3.550970 26.546000 -10.567200 6.130000
18.006000 1.493530 21.401600 -8.524800 7.570000
18.283000 1.516510 21.730900 -8.524800 4.540000
7.626740 -3.805940 27.583400 -10.478400 5.240000
18.560000 1.539480 22.060100 -8.524800 7.270000
7.407910 -2.105110 28.271000 -10.567200 4.130000
17.846500 2.195490 23.135300 -8.791200 6.730000
5.963820 -1.769050 29.074100 -10.567200 8.840000
18.117000 2.044340 23.486000 -8.791200 9.260000
18.383400 1.980900 23.831400 -8.791200 8.930000
6.320690 -0.070964 29.933800 -10.656000 10.180000
18.646000 2.009200 24.171800 -8.791200 4.550000
6.409720 -0.071963 30.355400 -10.656000 6.410000
6.498740 -0.072963 30.777000 -10.656000 6.920000
18.306700 2.076580 27.593800 -9.235200 8.410000
18.544400 2.103550 27.952200 -9.146400 5.600000
-8.181270 0.815840 33.033300 -10.478400 6.770000
18.782200 2.130520 28.310600 -9.146400 9.710000
-7.119880 0.826167 33.718600 -10.478400 8.660000
19.019900 2.157490 28.668900 -9.235200 7.790000
-7.471800 0.836494 34.083500 -10.567200 6.760000
9.145660 1.474820 34.097800 -10.567200 9.250000
7.657970 -0.414779 34.932800 -10.567200 12.740000
7.750230 -0.419777 35.353600 -10.567200 5.680000
18.806100 2.090940 34.344300 -9.679200 6.800000
19.012700 2.113920 34.721700 -9.679200 10.400000
-26.542300 1.424970 29.989600 -7.903200 5.580000
18.672100 2.066050 35.884600 -9.768000 9.650000
-27.118500 1.440300 30.052200 -7.903200 6.310000
-27.407000 1.455620 30.371900 -7.903200 9.100000
19.069400 2.110010 36.648100 -9.768000 4.910000
-27.692300 1.598790 30.688100 -7.903200 8.090000
19.262400 2.357880 37.019100 -9.768000 9.030000
19.748700 2.382190 37.249700 -9.768000 9.620000
19.080400 2.175950 38.092000 -9.856800 6.390000
19.273100 2.197930 38.476800 -9.856800 10.430000
19.465900 2.219910 38.861600 -9.856800 13.350000
19.661600 2.106120 39.252300 -9.856800 17.700000
19.624900 2.126770 39.751300 -9.856800 15.720000
19.812400 2.285840 40.131100 -9.945600 19.620000
20.002900 2.307820 40.516900 -9.945600 17.110000
19.616300 1.798640 42.162500 -9.945600 11.950000
19.795500 1.960430 42.547600 -9.945600 6.650000
19.974400 2.124870 42.932200 -9.945600 10.960000
19.235900 1.996400 43.745800 -10.034400 5.780000
19.748800 2.014390 43.989000 -10.034400 7.240000
19.925100 2.032370 44.381800 -10.034400 7.130000
20.101400 2.050360 44.774500 -10.034400 9.860000
20.277800 2.068350 45.167300 -10.034400 10.700000
19.486300 1.931870 45.989000 -10.123200 11.710000
10.129800 0.584689 49.383700 -10.656000 8.330000
19.922100 1.948520 46.271100 -10.123200 6.390000
9.832240 0.589686 49.883000 -10.656000 7.200000
20.089900 2.122300 46.660800 -10.123200 6.840000
9.915560 0.594684 50.305800 -10.656000 7.310000
20.257400 2.298720 47.049900 -10.123200 15.860000
9.998880 0.599681 50.728500 -10.656000 8.620000
19.785900 2.318040 47.716500 -10.123200 7.470000
19.950800 2.337360 48.114100 -10.123200 6.590000
11.523800 -3.776820 51.151900 -10.656000 16.210000
20.118400 2.194240 48.518300 -10.123200 7.150000
8.222350 -3.317140 52.253800 -10.656000 8.970000
20.283300 2.212230 48.915900 -10.123200 10.350000
7.668270 -12.804900 51.304700 -10.656000 14.710000
8.824470 -12.908200 51.543000 -10.744800 14.440000
20.102700 2.098410 50.391000 -10.212000 9.800000
20.264600 1.945930 50.796700 -10.212000 8.670000
20.192400 1.332190 51.771700 -10.212000 7.020000
20.350400 1.169320 52.176600 -10.212000 15.670000
20.506900 1.178310 52.578000 -10.212000 6.860000
20.663500 1.187310 52.979300 -10.212000 12.410000
20.413200 2.298260 55.803300 -10.300800 6.610000
20.561100 2.314910 56.207700 -10.300800 6.140000
20.709000 2.331560 56.612100 -10.300800 6.950000
20.856900 2.348220 57.016400 -10.300800 5.460000
21.004900 2.364870 57.420800 -10.300800 6.630000
20.373300 2.191090 58.111900 -10.300800 9.600000
20.515700 2.206410 58.518300 -10.300800 8.530000
20.655800 2.414830 58.917900 -10.300800 8.210000
20.800700 2.237060 59.331000 -10.300800 9.440000
20.597500 2.252380 59.857500 -10.389600 6.530000
20.732700 2.661870 60.250300 -10.389600 10.800000
20.872700 2.679860 60.657300 -10.389600 15.360000
21.015400 2.498100 61.072000 -10.389600 15.280000
-9.361570 2.548070 65.209900 -10.656000 10.520000
-9.423840 2.359630 65.643600 -10.656000 10.670000
-9.485040 2.374960 66.069900 -10.656000 18.050000
21.155900 2.350390 69.191000 -10.389600 9.510000
21.283900 2.139270 69.609500 -10.389600 12.970000
21.409800 2.151930 70.021400 -10.389600 16.400000
21.535800 2.164590 70.433300 -10.389600 8.200000
21.451300 1.158370 75.872000 -10.478400 7.730000
21.128700 0.674315 76.415500 -10.478400 8.220000
-16.816700 -2.644190 79.641100 -10.478400 12.620000
-17.402500 1.004470 84.838600 -10.567200 5.620000
-16.831500 1.009460 85.393000 -10.567200 6.380000
21.619100 2.106720 85.177600 -10.567200 6.080000
22.385600 1.843930 85.431100 -10.567200 9.030000
22.494800 1.852920 85.847800 -10.567200 7.610000
22.825000 1.322950 87.107600 -10.567200 5.320000
22.935100 1.049440 87.527900 -10.567200 6.390000
21.960800 0.494412 88.670400 -10.567200 7.210000
22.063900 0.780593 89.086800 -10.567200 7.270000
22.167500 0.784258 89.505000 -10.567200 5.230000
21.577400 0.787923 90.092300 -10.567200 9.420000
22.369100 2.230650 90.318800 -10.567200 5.730000
22.472600 2.240980 90.737000 -10.567200 11.110000
22.574900 2.469120 91.149800 -10.567200 11.460000
22.885500 2.503100 92.404200 -10.567200 12.480000
-53.804100 -17.477100 113.352000 -9.590400 6.280000
-53.987100 -17.536600 113.737000 -9.590400 8.740000
-54.170100 -17.596000 114.123000 -9.590400 11.400000
-55.795600 -19.547300 113.017000 -9.412800 9.790000
-55.984100 -19.613400 113.399000 -9.412800 5.930000
-56.172600 -19.679400 113.781000 -9.412800 8.530000
22.103400 1.804040 153.966000 -10.744800 10.600000
22.163800 2.291420 154.386000 -10.744800 8.620000
22.222600 3.265100 154.796000 -10.744800 6.520000
-60.286200 -14.124500 151.118000 -9.856800 7.060000
-59.275700 -14.161700 151.978000 -9.856800 8.100000
-59.431700 -14.199000 152.378000 -9.945600 7.260000
-59.587700 -14.236300 152.778000 -9.945600 5.130000
-61.804200 -14.273500 152.358000 -9.768000 5.980000
-5.299290 1.993940 171.836000 -10.744800 5.500000
-6.640120 1.998940 172.220000 -10.744800 5.540000
-5.325850 2.003930 172.697000 -10.833600 4.590000
-4.392380 1.491560 175.315000 -10.744800 6.580000
-4.403170 1.495220 175.746000 -10.744800 5.670000
-4.413820 2.043910 176.171000 -10.744800 7.120000
-4.424620 2.048910 176.602000 -10.833600 6.890000
-2.008350 1.254840 10.509000 2.575200 10.070000
-2.088680 1.305030 10.929300 2.575200 13.150000
6.531780 1.570700 10.536700 -9.590400 2.940000
-2.269280 0.859217 12.258200 2.575200 6.010000
6.721900 0.459669 11.032300 -9.501600 8.700000
7.034360 0.433703 11.347400 -9.501600 9.110000
6.451410 -0.660744 12.168600 -9.768000 5.630000
7.012880 -0.681392 12.351300 -9.679200 5.950000
-2.928840 1.109310 13.870500 2.575200 9.320000
5.788610 -0.611511 13.444600 -10.123200 6.370000
7.121300 -0.916933 12.770500 -9.679200 10.970000
-3.017600 1.142920 14.290800 2.575200 12.740000
7.330750 -0.943902 13.146100 -9.768000 6.540000
5.029120 -2.052900 14.989400 -10.389600 12.680000
5.165040 -2.108390 15.394500 -10.389600 8.350000
5.300960 -2.163870 15.799600 -10.389600 9.910000
-8.740230 0.493677 14.344900 -9.146400 9.900000
-9.253080 1.505210 13.947300 -8.968800 5.560000
5.561620 -2.219350 16.162400 -10.389600 4.150000
-8.963480 0.559617 14.711300 -9.146400 7.640000
6.860910 1.691210 16.192200 -10.212000 3.800000
6.773720 1.676740 16.698400 -10.212000 3.870000
-8.322420 1.565240 15.994300 -9.501600 5.790000
6.604320 1.716660 17.226400 -10.300800 6.700000
-8.646530 1.602510 16.309000 -9.501600 5.960000
6.757910 1.756580 17.627000 -10.300800 6.210000
-8.599350 1.362130 16.842300 -9.590400 6.380000
6.939360 -0.464719 18.100300 -10.300800 5.010000
-8.139540 1.915890 17.494800 -9.768000 4.460000
-8.801950 1.153730 17.239100 -9.590400 4.270000
6.555900 -0.475046 18.699800 -10.389600 6.630000
-8.320420 1.958470 17.883600 -9.768000 4.350000
-8.997550 1.179370 17.622200 -9.590400 3.960000
7.249590 -0.172244 18.909500 -10.389600 5.310000
7.403610 0.239872 19.311200 -10.389600 11.550000
7.557540 0.310164 19.712800 -10.389600 17.130000
7.711780 0.316494 20.115100 -10.389600 18.130000
6.522560 -1.900650 20.899400 -10.567200 5.900000
7.127260 -0.051973 21.243000 -10.478400 7.860000
-7.543320 2.075960 20.996500 -10.212000 6.400000
-8.140200 2.115880 21.232500 -10.123200 3.430000
4.789290 -2.012460 22.681300 -10.744800 5.340000
-8.300060 1.958680 21.649500 -10.123200 8.250000
4.877980 -2.049720 23.101300 -10.656000 7.020000
7.034190 -1.882460 23.005500 -10.567200 9.530000
7.311870 -0.949280 23.428500 -10.567200 4.070000
7.299280 -1.197600 23.872500 -10.567200 9.270000
-7.441790 0.811444 23.844700 -10.300800 7.380000
7.426200 -1.139700 24.287600 -10.567200 7.900000
-7.429750 0.825434 24.299200 -10.212000 9.110000
7.361480 -1.159020 24.756700 -10.567200 8.860000
-7.554890 0.919338 24.708500 -10.212000 9.260000
4.184600 -3.495480 26.593500 -10.744800 8.680000
18.343900 1.699020 19.938800 -8.347200 9.410000
5.691000 -1.321490 26.951600 -10.744800 6.300000
5.621590 -1.342140 27.405700 -10.744800 8.440000
18.120000 1.362780 21.877100 -8.613600 7.060000
4.717750 -1.223020 28.893000 -10.744800 9.500000
6.137310 -1.241010 29.065300 -10.744800 8.230000
18.141700 1.332870 23.518100 -8.968800 7.320000
7.414890 -1.165780 29.214200 -10.656000 6.850000
7.122730 -0.898746 29.739600 -10.744800 7.260000
6.817490 -0.551690 30.261500 -10.744800 7.110000
7.972680 -0.364806 30.426400 -10.744800 7.100000
6.498320 -0.364806 30.775000 -10.744800 7.100000
-7.844350 -0.172578 30.906200 -10.567200 9.220000
18.223300 9.470050 24.392300 -9.235200 7.130000
18.469600 9.598030 24.721900 -9.146400 9.200000
8.128890 0.404785 33.940700 -10.656000 7.890000
6.551200 0.404785 34.280200 -10.656000 6.900000
8.494270 -0.191235 34.297100 -10.656000 6.220000
-14.087000 0.985385 34.726900 -13.852800 8.240000
-14.247700 1.113940 35.123000 -13.852800 6.140000
-14.681600 1.245150 35.406700 -13.852800 6.450000
18.607200 1.738530 33.981100 -9.768000 5.760000
18.813900 1.757850 34.358700 -9.768000 8.110000
19.020700 1.777170 34.736200 -9.768000 9.660000
19.227400 1.796480 35.113800 -9.768000 6.630000
18.672100 2.066050 35.884600 -9.856800 7.890000
19.149700 2.088030 36.119900 -9.856800 13.980000
-27.113100 1.455620 30.634600 -7.992000 6.420000
-27.401400 1.343080 30.960300 -7.992000 7.980000
19.552800 2.131990 36.880300 -9.856800 15.270000
19.754400 2.153970 37.260500 -9.856800 12.100000
19.371100 2.274760 37.939200 -9.945600 10.080000
19.569100 2.197930 38.327100 -9.945600 8.400000
