VERSION .7
FIELDS x y z velocity SNR
SIZE 4 4 4 4 4
TYPE F F F F F
COUNT 1 1 1 1 1
WIDTH 259
HEIGHT 1
VIEWPOINT 0 0 0 1 0 0 0
POINTS 259
DATA ascii
4.79383573871149 6.18233120137852 -0.608648387802895 -3.71315297500145 15.7402336004811
4.80122932793348 6.19186628347743 -0.426053871462026 -3.55843826770973 11.2808545279453
4.97516703732909 6.41618363319577 -0.822892620309514 -3.86786768229318 15.4087568737208
4.98558916825995 6.42962444943366 -0.632994323315011 -3.71315297500145 45.5349632700359
5.11969061500147 6.7375992305036 -0.460138181178988 -3.71315297500145 48.8581309902145
5.1803188687608 6.68075602107259 -0.591606232944414 -3.55843826770973 33.9454641086097
5.30418022005325 6.98039066352311 -0.613517574905319 -3.71315297500145 32.5138775984303
5.37494263634266 6.93175097718567 -0.545348955471395 -3.55843826770973 14.9588299858229
5.78316612771046 6.59501095472867 0.545348955471395 -3.55843826770973 14.9588299858229
5.47898142085609 7.21043199308497 -0.917841768806765 -3.86786768229318 19.6906478264059
5.48314272405162 7.21590833830121 -0.84723855582163 -3.71315297500145 17.239774948215
5.9797412398097 6.40221043013974 2.47111245447975 -2.47543531666763 5.25535789819057
4.61331815631426 7.5840763107952 3.14062568106294 -3.55843826770973 5.08327182260174
-8.85152410905572 4.29278200003284 -2.02558183460803 4.02258238958491 8.75938521610692
-6.401479801814 7.30012392643328 -2.57093079007943 4.02258238958491 8.75938521610692
5.98050174178657 8.19476390912336 -2.08888126693954 -4.64144121875182 29.4101275922033
-9.19515465939906 4.45943477338586 -1.68717333098963 3.86786768229318 20.0412891306774
-9.15671352353551 4.44079172230644 -1.92819809255957 4.02258238958491 50.1355217991469
-2.46043728965268 9.93218614646132 -1.60683174379964 4.02258238958491 50.1355217991469
-2.46043728965268 9.93218614646132 -1.60683174379964 4.17729709687663 14.2854185163661
-3.32940251966388 9.92558315158678 -2.06940451852984 3.86786768229318 46.9734439969246
-2.89813963294804 9.96587363345363 -2.48328542223581 3.86786768229318 46.9734439969246
-2.89813963294804 9.96587363345363 -2.48328542223581 4.02258238958491 110.899441379832
-2.53499599539973 10.2331614842329 -1.65552361482388 4.17729709687663 37.4767578875308
-3.50531800654954 10.1728343250357 -2.21548013160254 3.71315297500145 13.9867415955569
-3.51091944326105 10.1890903359146 -2.13026935731013 3.86786768229318 83.5340579851668
-3.42185805401265 10.2012107119623 -2.21548013160254 4.02258238958491 121.214656332845
-2.98897205733606 10.2782203723685 -2.47111245447975 4.17729709687663 24.2676652085163
-3.5994727598958 10.4460822029505 -2.36642493177766 3.71315297500145 5.64567948726071
-3.61123142735423 10.480207202655 -2.19113419609042 3.86786768229318 35.9367707273686
-3.61123142735423 10.480207202655 -2.19113419609042 4.02258238958491 35.0159820502281
-2.60279267205422 11.2744003977827 -0.990879575343113 4.17729709687663 8.09009234408731
4.67385710896406 14.3206640908122 -0.233720980916311 3.71315297500145 5.12412304509872
-5.48436071976291 14.3590358988577 4.46991376002446 3.55843826770973 5.47820010660199
-5.52120907679586 14.4555114788726 5.19055345118309 3.403723560418 7.50805762084174
3.82398647335375 15.4365021350579 -3.67136707522706 3.403723560418 7.50805762084174
5.17162532788406 15.4176002804094 -1.39258751129302 3.403723560418 7.50805762084174
5.29545365673685 14.5843046262108 5.06395458652009 3.403723560418 7.50805762084174
-5.45728971384981 14.6514183543852 4.68415799253108 3.55843826770973 15.606262205345
-1.89692530403308 16.1929645060686 0.759593187978013 3.55843826770973 15.606262205345
4.80181958792371 15.1296196343321 3.79796593989007 3.55843826770973 15.606262205345
5.43047022529261 15.3492407294973 -1.13938978196702 3.55843826770973 15.606262205345
4.85104885729624 15.28473169276 3.03837275191205 3.71315297500145 15.6488154156061
5.34041896267464 15.0947105598113 3.16497161657505 3.71315297500145 15.6488154156061
4.87141422394495 15.3488990871127 2.65857615792305 3.86786768229318 9.38062812025862
5.33189868207128 15.0706279605818 3.29157048123806 3.86786768229318 9.38062812025862
5.94238213285868 14.4614717578533 4.68415799253108 3.86786768229318 9.38062812025862
3.50693388078407 15.7617483034715 4.00003720464063 3.24900885312627 9.17091723877835
4.55703013451843 15.6703237994969 3.22583645535534 3.403723560418 13.8548588717585
5.3150270332751 15.0229401935685 4.77423795392591 3.403723560418 13.8548588717585
-5.48973846325969 14.7385348953074 5.41940524499698 3.55843826770973 20.3881192834098
4.9367826457283 15.5548625431671 3.22583645535534 3.55843826770973 20.3881192834098
5.40624390370545 15.2807649573074 3.7419702882122 3.55843826770973 20.3881192834098
6.1934196714648 15.4387983860293 0.129033458214213 3.55843826770973 20.3881192834098
4.94433825839809 15.5786688406977 3.09680299714113 3.71315297500145 35.3124639448979
5.45942845570248 15.4310912564722 2.96776953892692 3.71315297500145 35.3124639448979
6.04630117728117 15.4437324246577 1.29033458214214 3.71315297500145 35.3124639448979
4.51603517710975 16.0100084044468 -0.129033458214213 3.86786768229318 18.6666844728654
4.8846579053778 15.3906274067566 4.00003720464063 3.86786768229318 18.6666844728654
5.36022832056525 15.5559965023402 2.45163570607006 3.86786768229318 18.6666844728654
5.90043818060119 15.4484010048679 1.80646841499899 3.86786768229318 18.6666844728654
4.30056237118769 16.2413959115586 2.23495688001223 3.24900885312627 10.8311563645947
5.51567511480387 16.0071209028062 0.788808310592552 3.55843826770973 20.9873202901166
4.37430393847581 15.50755033388 5.25872207061701 3.71315297500145 30.0366003010193
5.0587763094813 15.939241359694 2.76082908707393 3.71315297500145 30.0366003010193
5.59139719692386 15.8041013078561 2.49789298354308 3.71315297500145 30.0366003010193
6.14750435284383 15.7022300942393 1.70908467295053 3.71315297500145 30.0366003010193
5.46136470397214 15.8495058703089 2.49789298354308 3.86786768229318 16.3560848320868
6.00077668106825 15.7111051200535 2.1034888282468 3.86786768229318 16.3560848320868
-5.7721333511873 15.4966924902151 4.95439787671557 3.24900885312627 9.65459371776762
-4.96448780319079 15.6421562214576 5.35610581266548 3.24900885312627 9.65459371776762
2.82867709757592 16.3331708949209 -4.82049523139893 3.24900885312627 9.65459371776762
3.28402328876459 16.6138512063154 3.34756613291592 3.24900885312627 9.65459371776762
5.61019061736401 16.2814157162569 1.20512380784973 3.403723560418 29.7081649057479
4.64983915072501 15.9894674725777 4.55268994076565 3.71315297500145 20.3968487717434
5.01447303661186 15.7996501787266 -4.82049523139893 3.86786768229318 6.19742407381882
-5.09347039959316 16.0485558346217 5.04447783811039 3.24900885312627 9.3466213168203
3.34373280310576 16.9159212282484 3.40843097169621 3.24900885312627 9.3466213168203
4.92514221220979 15.9671151938547 5.45348955471394 3.403723560418 23.7947939597939
5.04068263027288 16.8247782838587 0.681686194339243 3.55843826770973 18.7351098843807
3.95330413799876 17.1243504043033 -0.272674477735696 3.71315297500145 11.1764251313036
4.49899353493198 16.9907860641475 0.136337238867848 3.71315297500145 11.1764251313036
5.03217097799924 16.7963681114996 1.22703514981064 3.71315297500145 11.1764251313036
6.36433030505702 16.2560566223131 2.04505858301773 3.71315297500145 11.1764251313036
-5.81426231153228 16.4340302371041 4.02438314015274 3.24900885312627 5.66860917480843
-5.19681751067048 16.3741829124985 4.99578596708616 3.24900885312627 5.66860917480843
3.41840968467302 17.2937110579231 3.05298031321932 3.24900885312627 5.66860917480843
5.300899271129 16.7021247307562 3.60806764289556 3.24900885312627 5.66860917480843
5.29208197437061 16.6743431067874 3.74683947531462 3.403723560418 18.7467957831844
4.55120619904296 16.6464220609467 4.71824230224804 3.55843826770973 9.6749253660632
13.817816455683 11.8109663750792 -0.988444981791901 -2.01129119479245 5.65641538642247
3.47838178440413 17.5971094975358 3.10654137134598 2.93957943854282 6.96907868497451
5.50108338169592 17.3328667639079 0.84723855582163 3.403723560418 11.9774677305768
-10.1297876966435 15.0460211749214 -1.55327068567299 4.64144121875182 5.81617293958468
-8.81120286681682 14.7850553088231 -5.93066989075141 4.64144121875182 5.81617293958468
-3.02692725806413 17.4778946083396 4.09498635313788 4.64144121875182 5.81617293958468
7.72676867043807 16.3809436132811 -1.83568353761353 4.64144121875182 5.81617293958468
2.5096790979735 17.7990961926484 4.45287160516598 2.78486473125109 5.69981562208349
3.54306507905267 17.9243418397977 3.01646140995115 2.78486473125109 5.69981562208349
2.63825693302702 17.7060702519412 4.74015364420895 2.93957943854282 10.0522165976202
3.55181346488488 17.9685998634875 2.72917937090818 2.93957943854282 10.0522165976202
5.07312038254562 17.9849573300504 2.33720980916312 3.403723560418 5.00982623663969
5.67978512839741 17.895921957065 1.46075613072695 3.403723560418 5.00982623663969
4.7404906137883 22.1333521486063 3.55450658476891 3.09429414583454 14.357737737908
4.81120223921355 22.4635047496863 3.42303853300348 2.93957943854282 14.4327729142127
4.81667316843843 22.489048519937 3.24287861021382 3.09429414583454 55.0529716953485
4.82184265860438 22.513184871128 3.06271868742417 3.24900885312627 10.5459164648104
4.87036706896058 22.7397453581572 3.65189032681737 2.93957943854282 16.116792721294
4.88700269453146 22.8174170991162 3.10410677779476 3.09429414583454 31.9408955416258
-10.5415817000448 21.3858832924279 0.740116439568321 3.55843826770973 5.73597997533258
-10.6802867224138 21.667276493644 0.749854813773168 3.55843826770973 6.79673467427864
-6.1982154973652 23.4080250788375 -3.60806764289556 4.64144121875182 7.59157790608565
4.92330079958256 22.9868929628772 6.83633869180212 4.64144121875182 7.59157790608565
-11.220381234728 23.7874899799707 1.84055272471596 3.403723560418 6.479148599522
-11.4178244632399 23.6765767975645 2.04505858301773 3.55843826770973 5.49665388481591
-11.3597906080027 24.0830413521131 1.65552361482388 3.403723560418 9.68719225744744
-11.5663322554209 23.9845300471464 1.65552361482388 3.55843826770973 9.75950835700583
-4.38066594882842 32.9313347371335 1.80646841499899 4.79615592604354 7.62604771070601
0.253926904916394 32.7357796125429 -5.93553907785383 4.79615592604354 7.62604771070601
14.6739271472352 29.7692416889419 2.32260224785585 4.79615592604354 7.62604771070601
17.1882329608817 28.2566400161742 3.61293682999799 4.79615592604354 7.62604771070601
14.2653823744667 30.2429688612361 3.12601811975567 4.64144121875182 5.46318839928485
17.8604298428953 27.6232017357361 6.77303925947062 4.64144121875182 5.46318839928485
-5.41079651226869 32.7740100684979 4.94952868961314 4.79615592604354 33.7344187861067
14.2302750171963 30.1685403822189 3.90752264969459 4.79615592604354 33.7344187861067
16.3621502352679 29.2130831157008 2.60501509979639 4.79615592604354 33.7344187861067
14.4087497409153 30.5469112782989 2.89229713883936 4.64144121875182 10.7914380735498
16.2706220130879 29.6636719665079 2.10348882824681 4.64144121875182 10.7914380735498
16.2529235981833 29.6314052238085 2.62936103530851 4.79615592604354 68.8530267819601
15.8550064119374 29.5208907281353 -6.89963812413362 4.79615592604354 24.2385269869303
15.2483610978043 32.3269084389349 1.66526198902872 4.64144121875182 5.64496799567338
16.3351264469222 31.7370256559471 2.49789298354308 4.64144121875182 5.64496799567338
14.4020405775434 36.7863350711649 1.84055272471595 4.17729709687663 5.97531609082872
14.1362904780608 38.9330131053751 0.964099046279788 4.02258238958491 6.25264089548337
15.4181582759658 38.4339911928215 1.28546539503972 4.02258238958491 6.25264089548337
14.2433835877431 39.2279601743552 0.971402826933423 4.02258238958491 8.01281294456785
14.1104797231958 40.9502282539391 0.335973910067197 3.86786768229318 6.94179287526385
15.4529400665124 40.4585570672567 0.671947820134394 3.86786768229318 6.94179287526385
9.74719432358846 42.2214849223466 -5.07612755427615 3.86786768229318 6.84904638072049
14.2131571519732 41.2482099120717 -0 3.86786768229318 6.84904638072049
15.5550795067398 40.7259763643917 1.69204251809205 3.86786768229318 6.84904638072049
16.8954652299431 40.1542079537133 2.36885952532887 3.86786768229318 6.84904638072049
-15.1455874217401 43.9542293477586 5.07856214782736 3.55843826770973 33.3639631484151
-13.3047140024454 44.4084421972775 6.16682546521893 3.55843826770973 33.3639631484151
-5.41358243837903 46.2126516468353 4.71580770869683 3.55843826770973 33.3639631484151
-3.94199092643279 46.0323721275218 7.25508878261051 3.55843826770973 33.3639631484151
14.0860045842016 44.3823195820188 4.3530532695663 3.55843826770973 33.3639631484151
-15.1178987399859 43.8738736220764 5.80407102608841 3.71315297500145 31.7163123390099
-13.3047140024454 44.4084421972775 6.16682546521893 3.71315297500145 31.7163123390099
-5.76465176567475 46.0902999905108 5.44131658695788 3.71315297500145 31.7163123390099
-3.93177085837129 45.9130278710393 7.98059766087156 3.71315297500145 31.7163123390099
14.095832448562 44.4132853121695 3.99029883043578 3.71315297500145 31.7163123390099
15.3305551039433 44.4910267461754 1.46075613072695 3.403723560418 6.76459368987817
13.873425572477 44.9770940014583 1.09556709804521 3.55843826770973 107.382271876788
15.3263998893432 44.4789678375022 1.82594516340869 3.55843826770973 107.382271876788
13.8667427570248 44.9554285795177 1.82594516340869 3.71315297500145 108.098740571906
15.3263998893432 44.4789678375022 1.82594516340869 3.71315297500145 108.098740571906
13.8504398856931 44.9025753189766 2.9215122614539 3.86786768229318 7.62916131608478
15.3305551039433 44.4910267461754 1.46075613072695 3.86786768229318 7.62916131608478
13.9659150762935 45.2769412948013 1.10287087869885 3.55843826770973 62.8003778337494
15.4285758886055 44.7754942897522 1.83811813116474 3.55843826770973 62.8003778337494
13.9591877087383 45.2551314367145 1.83811813116474 3.71315297500145 65.9429975265522
15.4285758886055 44.7754942897522 1.83811813116474 3.71315297500145 65.9429975265522
13.9490905740164 45.2223969274786 2.57336538363064 3.86786768229318 6.31488804145382
15.4327588046362 44.7876335911499 1.4704945049318 3.86786768229318 6.31488804145382
13.9114780747726 46.4336978493999 4.15098200481574 3.55843826770973 10.299704858331
17.4758698616442 44.6376470701605 8.30196400963149 3.55843826770973 10.299704858331
13.6689750903563 47.0036974411574 1.13938978196702 3.403723560418 9.9773841576764
16.7110501355163 46.0242052142583 -0 3.403723560418 9.9773841576764
13.6660948355152 46.9937930682097 1.51918637595603 3.55843826770973 30.6061343773675
15.1754024322646 46.4973223632686 2.27877956393404 3.55843826770973 30.6061343773675
16.7110501355163 46.0242052142583 -0 3.55843826770973 30.6061343773675
-10.2099898999582 47.6704460150588 4.55755912786808 3.71315297500145 8.42149265121565
13.6623907585002 46.9810558063333 1.89898296994503 3.71315297500145 8.42149265121565
15.1804341761114 46.5127395897136 1.89898296994503 3.71315297500145 8.42149265121565
16.7090391645465 46.0186667627641 -0.75959318797801 3.71315297500145 8.42149265121565
13.7586668645129 47.312121810033 0.764462375080434 3.403723560418 5.74413628703018
15.2777446515993 46.8108981768271 1.91115593770109 3.403723560418 5.74413628703018
16.8176663091505 46.3178387450482 -0.382231187540217 3.403723560418 5.74413628703018
13.7586668645129 47.312121810033 0.764462375080434 3.55843826770973 15.7312468155859
14.8998395081658 46.946558537535 1.52892475016087 3.55843826770973 15.7312468155859
16.8176663091505 46.3178387450482 0.382231187540217 3.55843826770973 15.7312468155859
-10.3235822760541 46.3988518052598 -12.9958603763674 3.71315297500145 5.44104241250506
13.7586668645129 47.312121810033 0.764462375080434 3.71315297500145 5.44104241250506
14.9052224365557 46.9635191204071 0.764462375080434 3.71315297500145 5.44104241250506
16.4235755004692 46.421286470122 -1.91115593770109 3.71315297500145 5.44104241250506
13.8997032942419 50.8393418005401 1.63604686641418 3.403723560418 5.20931992099846
16.7674623784086 49.9869994976753 -0.818023433207088 3.403723560418 5.20931992099846
4.0982704636363 52.676538878995 7.44985626670743 2.47543531666763 8.24363328973526
5.35709346602744 52.8559235195174 4.96657084447162 2.47543531666763 8.24363328973526
7.01477735943098 52.7330739271887 4.13880903705969 2.47543531666763 8.24363328973526
7.01031763488974 52.6995482752859 4.55268994076566 2.63015002395936 9.62722258810895
4.12237793695181 52.9864008724008 7.49367895062924 2.47543531666763 9.25616110228796
4.95716334523029 53.0260772938747 6.66104795611488 2.47543531666763 9.25616110228796
6.63675745642157 53.0630738099625 4.57947046982898 2.47543531666763 9.25616110228796
4.11769561013773 52.9262172479537 7.90999444788643 2.63015002395936 11.2149992407039
5.38009601127007 53.0828788227633 5.82841696160053 2.63015002395936 11.2149992407039
6.63213019142583 53.0260772938747 4.99578596708616 2.63015002395936 11.2149992407039
-11.172943699654 56.5238452472796 7.20639691158628 3.09429414583454 5.0011674919247
13.3138061403055 55.644139329102 9.90879575343113 3.09429414583454 5.0011674919247
16.6145851298634 55.4561220358191 4.50399806974143 3.09429414583454 5.0011674919247
-11.1497064084223 56.4062879509343 8.10719652553456 3.24900885312627 7.22491767351455
13.3138061403055 55.644139329102 9.90879575343113 3.24900885312627 7.22491767351455
13.4366909383442 56.1577279116181 8.60385360998173 3.09429414583454 18.1992816113972
16.2622668285149 55.9212863189847 4.07550960472819 3.09429414583454 18.1992816113972
13.4366909383442 56.1577279116181 8.60385360998173 3.24900885312627 29.1041580657632
16.2622668285149 55.9212863189847 4.07550960472819 3.24900885312627 29.1041580657632
16.2529235981833 55.8891576210593 4.52834400525354 3.403723560418 5.45666690118705
15.8955400825314 56.3520256893613 4.09742094668909 3.09429414583454 12.4178647830119
15.8955400825314 56.3520256893613 4.09742094668909 3.24900885312627 19.9816160886127
13.5411283241746 58.6554988430982 2.80465177099574 3.09429414583454 11.1335202604696
13.4756520876076 58.371878362865 6.54418746565673 3.24900885312627 12.82090854515
16.3481598819661 57.9566293978751 2.33720980916312 3.24900885312627 12.82090854515
13.576729343418 58.8097101830288 5.16864210922218 3.09429414583454 27.7321651602189
16.433306548018 58.2584868426556 2.34938277691918 3.09429414583454 27.7321651602189
13.5672634069482 58.7687070101501 5.63851866460602 3.24900885312627 30.5035779994681
16.4377618614503 58.2742815835507 1.87950622153534 3.24900885312627 30.5035779994681
13.5628644873046 58.7496524070262 8.50160068083084 3.09429414583454 12.5138231099389
16.0276318396547 58.6224206445456 3.77848919148038 3.24900885312627 11.8579290021825
5.97026856125403 2.76300235802498 -0.409011716603546 -3.32229476710656 6.52965463678095
6.25985350330915 2.89702042932909 -0.321366348759928 -3.32229476710656 5.14976620995087
5.95595536882887 5.0909337823617 0.426053871462026 1.34968224913704 19.6447929071723
6.02686832887692 4.90399061105566 -1.09556709804521 2.0764342294416 12.2707404200487
5.87811215631588 5.51741986377241 -1.26598864663002 1.34968224913704 16.7108518088879
5.69734959858822 5.71756923299156 1.20268921429852 1.45350396060912 10.7333257326344
5.1803188687608 6.68075602107259 -0.591606232944414 1.0382171147208 8.87326757440083
-7.05814740328512 4.31429292364759 -1.84055272471595 1.24586053766496 11.2430047344174
-7.08217311527357 4.32897864120134 -1.70908467295053 1.34968224913704 11.1727967272436
6.13703279416212 5.76045263218574 -0.98601038824069 1.34968224913704 11.1727967272436
5.73376023301608 7.69973685927387 -1.58492040183874 0.934395403248721 20.6405742992376
5.89397652089642 7.91488768649976 -1.86976784733049 0.934395403248721 29.2289951738576
-9.03918621484902 4.96463565223065 -0.964099046279786 1.66114738355328 17.8383897125417
-8.67271403023077 5.65373651463144 0.321366348759929 1.66114738355328 17.8383897125417
-6.52348227917637 7.91434234953171 -1.44614856941968 1.66114738355328 17.8383897125417
4.68839377364804 9.10893919082491 -1.52649015660966 1.66114738355328 17.8383897125417
-9.03232613544313 4.96086785787548 -1.04444063346977 1.76496909502536 8.80336864574315
-8.67584725851453 5.65577906406808 0.160683174379964 1.76496909502536 8.80336864574315
-6.50825347585547 7.8958666401027 -1.60683174379964 1.76496909502536 8.80336864574315
-1.98422362068764 10.0381736350482 -1.60683174379964 1.76496909502536 8.80336864574315
4.69876259074211 9.12908445356318 -1.3658069822297 1.76496909502536 8.80336864574315
-9.63192247786931 4.01442327403592 -2.23495688001223 1.5573256720812 16.551774831846
-2.3819508081857 10.3177895910214 -1.3244188918591 1.5573256720812 16.551774831846
-2.3819508081857 10.3177895910214 -1.3244188918591 1.66114738355328 105.890520165984
-2.37954797867063 10.3073813620712 -1.40719507260029 1.76496909502536 49.9676336612498
-3.00455829132818 10.3318169750377 -2.21548013160254 1.5573256720812 12.1111361886404
-2.45649907847014 10.6407069932306 -1.19295084009368 1.5573256720812 12.1111361886404
-2.45432950593954 10.6313091531088 -1.27816161438608 1.66114738355328 210.226742476676
-2.45200818489705 10.6212539907573 -1.36337238867848 1.76496909502536 95.4251229437778
-2.52876065577973 10.9537192299374 -1.13938978196702 1.66114738355328 46.9734597341481
-2.61150331666474 10.9145989418448 -1.31468051765425 1.76496909502536 45.2693116553747
-3.62871849926943 10.8179011055221 -2.16191907347588 1.66114738355328 9.74190747158631
-3.62871849926943 10.8179011055221 -2.16191907347588 1.76496909502536 6.44892503451077
4.71696469464219 15.2922119604958 -0.372492813335373 -0.20764342294416 37.5072785594017
4.71810036293191 15.295893751929 0.12416427111179 -0.10382171147208 52.7548307317658
4.26670557072905 15.6058369218876 -3.87100374642641 -0.20764342294416 29.3761557591639
4.37643441233331 16.0071794516959 1.16130112392792 -0.10382171147208 64.842964444687
4.84921046049117 15.7209474743609 4.07550960472819 -0.20764342294416 41.4772091165869
-16.5755631876664 16.6343891069618 -1.64335064706782 -1.76496909502536 7.06516336592954
16.2044985108433 25.5756505901863 -6.98971808552844 0.62293026883248 234.578182160937
