VERSION .7
FIELDS x y z velocity SNR
SIZE 4 4 4 4 4
TYPE F F F F F
COUNT 1 1 1 1 1
WIDTH 201
HEIGHT 1
VIEWPOINT 0 0 0 1 0 0 0
POINTS 201
DATA ascii
-8.1860311801732 5.66703151904183 -1.3244188918591 4.48672651146009 5.45748013000289
-8.25713537341339 8.10594531491225 0.990879575343113 2.01129119479245 6.06761055214864
-8.37718439053081 8.04258314496386 -0.0900799613948282 2.16600590208418 5.44329473679151
-8.55733889355298 7.85062500808027 0.0900799613948282 2.47543531666763 5.08420363286135
-8.73775625529836 7.64984261139071 -0 2.78486473125109 5.49029522833155
-8.10695263599756 8.31490715007101 -0.0900799613948282 2.78486473125109 5.49029522833155
7.38566795239425 8.96035309880429 0.180159922789656 2.78486473125109 5.49029522833155
-8.73670477295417 7.64892204617847 0.180159922789656 2.93957943854282 6.81471872004088
-8.19727648692939 8.22636824807213 -0 2.93957943854282 6.81471872004088
-8.32530797534223 8.53886360496768 0.185029109892079 2.78486473125109 5.30060393310537
-8.41857123581969 8.44844836195372 0.0925145549460397 2.93957943854282 5.5727708118887
6.38760471558421 11.1697867501227 -0.199636671199349 1.08300295104209 5.29288362852321
-7.75975899481704 10.6327856256465 -0.715770504056204 0.464144121875182 6.03072293300754
-8.12559139960663 11.1340663403749 -0.856976930026477 0.154714707291727 5.10530217329431
-8.35150239948148 10.9907180671071 0.428488465013239 0.309429414583454 5.80397768774658
-7.2665326091572 11.7044903858667 -0.964099046279786 0.309429414583454 5.80397768774658
10.3708206021295 9.07957867434814 0.856976930026477 0.309429414583454 5.80397768774658
-8.52895508750576 11.2242487985892 -0.87645367843617 0.154714707291727 5.50060497644238
-8.54516629199743 11.2455830172212 -0.109556709804521 0.309429414583454 11.0865656883444
-8.65471970599739 11.1614887522105 0.109556709804521 0.464144121875182 5.12827883240003
-8.31026393141587 11.3871133026562 -0.87645367843617 0.464144121875182 5.12827883240003
-8.39707337281505 11.7403683136741 -0.335973910067199 -0.154714707291727 5.50357908832725
-7.83726848129404 12.1212339355891 0.335973910067199 0.154714707291727 5.26212042620299
-8.84624829894552 11.408492041576 -0.223982606711465 0.309429414583454 9.63789786719285
-8.84624829894552 11.408492041576 -0.223982606711465 0.464144121875182 6.89525835281011
-8.31682700540279 12.1064824019124 -1.37311076288333 -0.309429414583454 9.66812798916067
-8.07480779412641 11.7541844257324 3.77605459792916 -0.154714707291727 6.00168456857071
-8.80973379028174 11.830392138623 -0.228851793813888 0.154714707291727 6.11434821405772
-9.26403544138287 11.4712734916151 -0.457703587627778 0.309429414583454 5.13962261058181
-8.1085820874663 12.2896251768339 0.915407175255555 0.309429414583454 5.13962261058181
-3.1543788670053 14.7277959100855 -0.350581471374468 0.309429414583454 8.57817156793638
-2.10247612854079 14.911139390236 0.467441961832624 0.309429414583454 8.57817156793638
-1.39517829284399 14.9240254643343 1.51918637595602 0.309429414583454 8.57817156793638
0.58366932431787 15.0382408020812 0.701162942748935 0.309429414583454 8.57817156793638
1.51020238912844 14.9004572134072 1.63604686641418 0.309429414583454 8.57817156793638
2.20318370899124 14.7861737956558 1.86976784733049 0.309429414583454 8.57817156793638
4.57837453916675 14.0281061934019 3.03837275191205 0.309429414583454 8.57817156793638
11.8680224478146 9.17412181425794 1.40232588549787 0.309429414583454 8.57817156793638
-3.15523324237021 14.7317849889297 -0 0.464144121875182 6.06933836075603
-2.10247612854079 14.911139390236 0.467441961832624 0.464144121875182 6.06933836075603
-1.51144315058099 14.9126992235304 1.51918637595602 0.464144121875182 6.06933836075603
0.58317641623971 15.0255410248892 0.934883923665248 0.464144121875182 6.06933836075603
1.50259769633096 14.8254252836039 2.22034931870496 0.464144121875182 6.06933836075603
2.19069515396341 14.7023596568963 2.45407029962127 0.464144121875182 6.06933836075603
7.71070389712408 12.9384359107512 -0.350581471374468 0.464144121875182 6.06933836075603
7.39429243669916 13.480853103848 0.357885252028103 0 6.81090320662921
7.39540515470459 13.4828817479821 -0.238590168018734 0.154714707291727 6.56969126067164
-1.42632068142393 15.2571512035829 1.31224592410304 0.309429414583454 14.9764364962731
6.96947053551326 13.5407745947156 2.14731151216861 0.309429414583454 14.9764364962731
7.87323868613096 13.2111666469967 -0.119295084009367 0.309429414583454 14.9764364962731
7.87323868613096 13.2111666469967 -0.119295084009367 0.464144121875182 12.4302986213317
7.5472400087559 13.759698411785 -0 0 9.79720793755847
7.5472400087559 13.759698411785 -0 0.154714707291727 7.71748769711375
8.03391702666425 13.4807822928537 -0.121729677560579 0.309429414583454 6.80690175128885
7.11170462807476 13.8171169333833 2.19113419609042 0.464144121875182 6.07930198951632
8.03198322617092 13.4775374070326 -0.365189032681738 0.464144121875182 6.07930198951632
7.69818480893102 14.0348923800207 -0 0 6.28534167265529
-8.31888949882955 16.5142197244176 1.00548713665038 -1.39243236562554 5.47888856977827
-7.75077937261071 16.8030943738626 0.718205097607416 -1.39243236562554 5.47888856977827
-8.26008826826549 17.1285357265647 2.2276530993586 -1.54714707291727 5.43451088791797
-7.6831693487867 17.4304273859251 1.93063268611078 -1.54714707291727 5.43451088791797
6.55610467466094 17.6014537252478 3.71275516559766 -1.54714707291727 5.43451088791797
-7.83755106494052 17.7806655716236 -1.05661360122582 -1.54714707291727 7.23423171257654
4.93768272247475 18.6475286391969 2.56606160297701 -1.54714707291727 7.23423171257654
6.1990919753761 17.9904749050814 4.07550960472818 -1.54714707291727 7.23423171257654
-7.99629816057007 17.3353602488552 -3.77362000437795 1.39243236562554 5.29871173788455
-12.8113815484605 14.6098520760903 -1.05661360122582 1.54714707291727 9.21413470964564
-7.99790814581746 17.7348276976275 -0.452834400525355 1.54714707291727 9.21413470964564
-6.97841045507551 18.2707249507332 2.91420848080026 -1.701861780209 7.75689585180756
5.00745978760961 18.3152081958617 -5.52165817414786 -1.701861780209 7.75689585180756
5.98873113006011 18.3494285007763 4.29462302433723 -1.701861780209 7.75689585180756
-6.94226575894067 18.1760916806269 3.52772605570558 -1.54714707291727 13.3819241064925
5.20484951493941 19.0371778381772 1.22703514981064 -1.54714707291727 13.3819241064925
5.9431797869235 18.2098595176567 4.90814059924254 -1.54714707291727 13.3819241064925
0 19.6570411569017 -2.14731151216861 1.39243236562554 24.7677246572539
0 19.6731911107849 -1.99393211844228 1.54714707291727 46.8583219852225
0 19.6731911107849 -1.99393211844228 1.701861780209 14.8638007287796
5.1979755142997 18.4275871215217 6.0767455038241 -1.701861780209 6.55176709354165
6.06146851335537 18.5722953126475 4.67441961832624 -1.701861780209 6.55176709354165
5.39863785913854 18.5643721528438 5.45348955471394 -1.54714707291727 11.7208529400215
-8.72532079501959 18.093265363448 0.155813987277541 -1.39243236562554 7.08327572790727
6.31250890765092 18.319623832377 -5.2976755674364 -1.23771765833382 7.37683522432148
0 19.9690576832018 -2.18139582188558 1.54714707291727 90.0401464847861
0 19.9690576832018 -2.18139582188558 1.701861780209 30.5096182185276
2.94537639600398 19.7672337114718 -2.02558183460803 1.701861780209 30.5096182185276
-8.85765406005612 18.3676782975929 0.632994323315012 -1.54714707291727 8.7270838352483
-8.85952089189761 18.3715494542748 0.474745742486259 -1.39243236562554 7.88518986705008
7.08488976834839 19.0211056098666 2.05723155077378 -1.39243236562554 7.88518986705008
6.53981557001658 18.9792938003805 -3.63971735906131 -1.23771765833382 7.03927034102596
-0.154997054711374 19.9819291512076 -4.11446310154757 1.39243236562554 34.1479671365565
0.304610643093754 19.6331437708387 -5.53870032900635 1.39243236562554 34.1479671365565
-0.309994109422748 19.9801256338135 -4.11446310154757 1.54714707291727 86.8716880517831
0.304610643093754 19.6331437708387 -5.53870032900635 1.54714707291727 86.8716880517831
2.99139790219154 20.0760967382135 -2.05723155077378 1.54714707291727 86.8716880517831
-0.156135071280287 20.1286401096529 -3.32322019740381 1.701861780209 17.3386738942056
0.463413718397509 19.9093486125574 -4.43096026320508 1.701861780209 17.3386738942056
2.99139790219154 20.0760967382135 -2.05723155077378 1.701861780209 17.3386738942056
6.40716163950767 19.1009693910518 4.82049523139893 -1.39243236562554 5.21013881099396
5.91946707875069 19.7579828891527 -1.92819809255957 -1.23771765833382 8.23326548638055
6.90916864293125 19.5287863373437 -0.160683174379964 -1.23771765833382 8.23326548638055
7.54847332260826 19.2806475878282 -0.642732697519858 -1.23771765833382 8.23326548638055
-0.158537149299983 20.4383114959553 -3.37434666197925 1.39243236562554 9.14139954725112
0.470543160219009 20.2156462835198 -4.499128882639 1.39243236562554 9.14139954725112
0.472144874351572 20.284459708278 -4.17776253387907 1.54714707291727 25.5232689626954
0.474316294089115 20.3777490323154 -3.69571301073918 1.701861780209 6.00148607948853
6.85012182532545 19.8798380931896 -0.326235535862351 -1.23771765833382 6.73743606293822
-8.66531320870886 20.1180678881829 1.70421548584811 -2.01129119479245 7.32753234260334
-8.59875510346557 20.4360280032829 2.24712984776829 -2.01129119479245 11.1378237845132
-11.6196024005273 21.1841977346184 -0.562391110329876 -0.928288243750363 10.4692831476622
-11.9632328087964 21.359229034736 -0.189898296994503 -0.928288243750363 5.14160149640678
-5.65882145252845 28.6279387655563 4.34818408246388 -2.16600590208418 13.4624211903233
6.87800379230355 28.7461449634905 3.9318685852067 -2.32072060937591 18.7165112553017
6.6554507875777 28.8291179749127 3.7005821978416 -2.16600590208418 93.5604930213239
8.08625209732049 28.6669520854864 1.3877183241906 -2.16600590208418 93.5604930213239
6.6554507875777 28.8291179749127 3.7005821978416 -2.01129119479245 29.1460916403857
8.08625209732049 28.6669520854864 1.3877183241906 -2.01129119479245 29.1460916403857
8.16816736296531 28.9573537409194 1.63604686641418 -2.32072060937591 30.5351602350332
8.16816736296531 28.9573537409194 1.63604686641418 -2.16600590208418 133.934279024785
8.17137054045018 28.9687094758599 1.40232588549787 -2.01129119479245 45.6969728393077
-12.6209329694808 27.3612133151131 -0 -1.85657648750073 19.3995647942518
-12.2767646644867 27.851690533441 0.708466723402572 -2.01129119479245 13.783893668802
-12.5102196491067 27.7405773974046 0.944622297870094 -1.85657648750073 13.5051941257907
-19.4586158093376 25.6078667174735 8.51620824213811 0.618858829166909 6.44823731980235
-22.8865692440234 23.9854224615431 -9.64099046279786 1.701861780209 5.40664851919497
21.1382865733312 26.7130811433247 5.62391110329875 1.701861780209 5.40664851919497
23.4180317124902 24.5424020460634 6.42732697519857 1.701861780209 5.40664851919497
-30.1241589310327 15.9095179419248 7.2964768729811 1.54714707291727 17.7059136039936
-25.8648676616251 23.1845195885252 -2.70239884184485 1.54714707291727 17.7059136039936
-25.1323092291571 24.1284752940279 -0 1.54714707291727 17.7059136039936
-24.0158706484328 25.1689450324609 -1.8916791892914 1.54714707291727 17.7059136039936
-23.1397349442072 25.8428460552576 3.24287861021382 1.54714707291727 17.7059136039936
5.58830787435072 32.2676588301372 11.8905549041174 1.54714707291727 17.7059136039936
20.2673815899939 28.3368399984025 0.270239884184485 1.54714707291727 17.7059136039936
-30.1743496971959 15.9360252677101 7.02623698879662 1.701861780209 21.521030991071
-25.1315531715924 24.1277494348916 -0.270239884184485 1.701861780209 21.521030991071
-23.1558796341375 25.860876717125 2.97263872602934 1.701861780209 21.521030991071
20.2625031387494 28.3300191916919 0.810719652553458 1.701861780209 21.521030991071
-26.4494243403626 23.1562803371827 -0 1.54714707291727 29.1016401540012
-25.3587264294198 24.3458489453254 -0 1.54714707291727 29.1016401540012
-26.4494243403626 23.1562803371827 -0 1.701861780209 36.3063996798975
-25.3587264294198 24.3458489453254 -0 1.701861780209 36.3063996798975
-24.4934094820678 25.1216992101006 2.18139582188558 1.701861780209 36.3063996798975
-26.6847771300808 23.3623300079325 -0.275109071286908 1.54714707291727 8.4126127152131
-25.584373949459 24.5624836589437 -0.275109071286908 1.54714707291727 8.4126127152131
-26.6823686309141 23.3602213842748 0.550218142573815 1.701861780209 10.6311337811474
-25.584373949459 24.5624836589437 0.275109071286908 1.701861780209 10.6311337811474
-24.669526071567 25.3023334329738 3.02619978415599 1.701861780209 10.6311337811474
14.9351299923931 38.147975856161 3.50824930729589 -0.928288243750363 8.13863761932252
8.35326255521775 40.5689194165561 0.964099046279788 -2.63015002395936 9.45085666723225
15.0386460919612 38.4123812995055 3.85639618511914 -0.928288243750363 11.3998872288788
16.3185308657451 37.8863757010562 3.85639618511914 -0.928288243750363 11.3998872288788
15.001635719063 38.3178477525951 4.82049523139893 -0.773573536458636 6.67011551554429
8.41249060592839 40.8565696610679 1.6190047115557 -2.63015002395936 9.51662755676997
6.71604427857601 57.3310221509227 6.305597297638 -2.78486473125109 6.19384210155265
9.44444351342864 57.2064179642724 3.15279864881899 -2.78486473125109 6.19384210155265
7.56206012197733 69.2250408039545 7.05788670496236 -2.78486473125109 5.03670020190171
11.3792298218773 68.9257102735857 4.34331489536146 -2.78486473125109 5.03670020190171
-39.9951962505405 59.4058422251207 6.13274115550197 -2.93957943854282 5.40975310668387
-36.9460840621889 60.737610418042 10.5929165413216 -2.93957943854282 5.40975310668387
-34.3619447449449 62.6467418532249 7.80530692518433 -2.93957943854282 5.40975310668387
-22.10614552193 67.7330686372523 9.47787269486668 -2.93957943854282 5.40975310668387
7.7371509326755 70.827867060222 9.47787269486668 -2.93957943854282 5.40975310668387
7.78614877746338 71.2764059173634 8.39934775167995 -2.93957943854282 22.2042473357718
11.1826100802501 71.2115469147724 3.91969561745064 -2.93957943854282 22.2042473357718
7.78614877746338 71.2764059173634 8.39934775167995 -2.78486473125109 16.8021752512795
11.1775479779278 71.1793111366823 4.47965213422931 -2.78486473125109 16.8021752512795
7.69638252872783 6.26245432957839 -1.55813987277541 0.934395403248721 5.48590182128103
8.18275337611346 6.32536520541537 -0.562391110329875 -0.20764342294416 13.957088676044
-2.00363950620143 10.1363984661779 -0.72307428470984 -0.10382171147208 5.32804358714799
4.81120543397761 9.15003707690614 -0.642732697519858 -0.10382171147208 5.32804358714799
5.93834493417784 8.13699867462772 -2.41024761569947 -0.10382171147208 5.32804358714799
6.49138007489487 7.87539569129223 -1.76751491817961 -0.10382171147208 5.32804358714799
8.58806807616651 11.075532020861 -1.75290735687234 -1.24586053766496 5.35209750966599
7.83475510887164 11.8746042898362 -2.46380867382612 -1.24586053766496 9.81056886671027
9.6558162940392 16.8847969943478 0.603779200700473 -2.0764342294416 13.3745290461194
-12.4057057681602 14.7448990422734 -2.71700640315212 0.5191085573604 6.16224661557894
-12.6243179959597 14.6983454305534 -1.81133760210142 0.62293026883248 25.3122411041746
-12.4645616232208 14.8148526311407 -1.96228240227653 0.726751980304561 12.399653014868
-0.152337693472109 19.6390892955122 -2.30069090589494 0.5191085573604 31.002349891985
-0.152472356594698 19.6564498123288 -2.14731151216861 0.62293026883248 158.214371969779
-0.152597625779811 19.6725992803714 -1.99393211844228 0.726751980304561 62.1310437662145
0 19.9124436190621 -2.6488377837182 0.5191085573604 87.3678326059556
0 19.9325508863557 -2.49302379644066 0.62293026883248 406.969483521353
0 19.9325508863557 -2.49302379644066 0.726751980304561 195.219884496458
0.156332770114784 20.1541270720442 -3.16497161657506 0.5191085573604 51.1430246453322
0.156332770114784 20.1541270720442 -3.16497161657506 0.62293026883248 300.711857838443
0.156332770114784 20.1541270720442 -3.16497161657506 0.726751980304561 110.203180789033
-0.633305373160476 20.401921835675 -3.53502983635921 0.5191085573604 7.22563204192399
0 20.3534796703663 -3.85639618511914 0.5191085573604 7.22563204192399
0.638367477406936 20.5649974379629 2.41024761569947 0.5191085573604 7.22563204192399
0.478775608055202 20.5693316998089 -2.41024761569947 0.62293026883248 41.8179384912223
0.478322778925731 20.5498770901531 -2.57093079007943 0.726751980304561 20.8047615176737
-0.629372167875911 20.275213694263 -5.54600410965998 0.62293026883248 5.79526552210416
0.482817681959043 20.7429887480887 -3.42547312655469 0.62293026883248 5.79526552210416
-11.3611145730607 19.8667939979427 -3.96351830137245 -1.86879080649744 19.9953586716803
20.4991044360468 24.3643716057078 10.6805619091652 -0.830573691776641 5.54304421739239
-22.3488964559933 25.4862498670299 0.26293610353085 -0.830573691776641 26.0420060590564
21.7360472471103 24.7873684659209 7.88808310592552 -0.726751980304561 18.6070985755834
-21.4433470846446 24.4535788539189 -10.6148278832825 -0.726751980304561 38.65690291361
-21.8579593903594 24.9263947194449 -9.64099046279786 -0.726751980304561 14.0102279770844
9.93002939048312 54.7679037626155 12.8497847632947 -2.80318620974616 5.29479146871529
