VERSION .7
FIELDS x y z velocity intensity
SIZE 4 4 4 4 4
TYPE F F F F F
COUNT 1 1 1 1 1
WIDTH 884
HEIGHT 1
VIEWPOINT 0 0 0 1 0 0 0
POINTS 884
DATA ascii
-5.591130 0.712023 8.151950 -11.810400 2.720000
-5.882270 1.276130 7.873530 -11.455200 3.370000
-6.495190 0.894425 7.997580 -11.100000 4.410000
-6.691630 0.926285 7.830250 -10.922400 2.200000
-5.899610 0.742981 8.461170 -11.810400 5.020000
-6.765820 0.931693 8.330810 -11.100000 3.190000
-5.693740 1.453150 9.028640 -12.165600 2.950000
-6.145420 0.773938 8.813710 -11.810400 3.820000
-5.568410 1.305030 9.633580 -12.432000 3.190000
-5.859510 1.355220 9.959240 -12.432000 3.930000
-6.248940 1.185330 9.741800 -12.165600 4.420000
-6.480380 1.229240 10.102600 -12.165600 4.620000
-6.710060 1.266350 9.946880 -11.899200 5.150000
-5.635130 1.609030 11.036700 -12.876000 2.270000
-5.817070 1.388420 10.972100 -12.698400 2.780000
-6.711820 1.273140 10.463400 -12.165600 4.660000
-5.829450 1.664520 11.417300 -12.876000 3.190000
-6.026150 1.679020 11.802500 -12.876000 3.700000
-5.514010 1.574420 12.539900 -13.231200 5.280000
-6.102550 1.580450 14.173800 -13.320000 2.920000
9.632830 1.628160 12.049600 -11.899200 5.060000
-5.766680 1.526210 14.785300 -13.497600 6.010000
9.900410 1.673390 12.384300 -11.899200 4.920000
-5.599390 1.567460 15.307000 -13.675200 3.400000
10.072900 1.668250 12.801100 -11.988000 6.950000
-5.746740 1.608710 15.709800 -13.675200 3.840000
10.210900 1.712150 13.237000 -11.988000 9.400000
-9.287870 1.078740 14.479300 -12.165600 5.100000
-5.010770 1.745590 16.851200 -13.941600 9.180000
-9.408860 0.996629 14.919800 -12.254400 6.070000
-5.134530 1.732460 17.267500 -13.941600 6.050000
-9.638350 1.020940 15.283700 -12.254400 4.700000
-5.017870 1.773710 17.747900 -14.030400 5.160000
-5.033770 1.639780 18.205500 -14.030400 3.100000
-5.255710 1.677050 18.589100 -14.030400 4.880000
-4.614280 0.643559 19.266100 -14.208000 4.560000
-5.536640 0.643559 19.021500 -14.030400 2.790000
-9.396970 1.362900 17.399100 -12.698400 6.130000
-5.655050 0.845324 19.428400 -14.030400 6.240000
0.913958 1.485960 20.609500 0.976800 7.330000
1.095120 1.516920 21.031000 0.976800 10.500000
-5.180880 1.516920 20.412300 -14.208000 9.530000
1.364610 1.730580 21.432000 0.976800 10.060000
-5.286610 1.547880 20.828900 -14.208000 13.770000
10.074000 1.281920 19.001500 -13.231200 8.970000
1.390800 1.968350 21.843300 0.976800 8.660000
-5.691480 0.526681 21.219600 -14.119200 15.040000
-9.138620 1.307560 19.942800 -13.231200 9.720000
1.589680 2.006950 22.260000 0.976800 7.990000
-5.676550 0.727502 21.663600 -14.119200 12.580000
-9.317810 1.333200 20.333900 -13.231200 10.310000
-9.333360 1.499820 20.789400 -13.231200 8.450000
10.654500 1.733620 21.581300 -13.497600 4.930000
-10.049500 0.578317 21.930600 -13.231200 6.100000
-10.228900 0.588644 22.322200 -13.231200 5.390000
-3.786610 1.919370 26.376300 -14.474400 11.260000
10.409300 1.362710 24.566700 -13.764000 6.220000
-3.848520 1.866570 26.807600 -14.474400 9.920000
11.081000 1.640860 25.200100 -13.675200 4.800000
-5.098380 0.000000 27.540600 -14.385600 5.840000
10.361700 1.580020 25.973400 -13.852800 8.920000
-5.176800 -0.065966 27.964200 -14.474400 7.730000
10.164400 1.604330 26.512400 -13.941600 9.050000
-5.036280 -0.066966 28.427500 -14.385600 9.290000
-4.554610 -0.067965 28.945000 -14.474400 6.000000
-9.075330 0.436762 28.309800 -13.852800 6.450000
-4.452990 1.538550 29.792800 -14.474400 7.540000
11.175300 0.443092 28.012900 -13.852800 6.030000
-8.798740 2.073970 28.776500 -13.497600 8.590000
-4.516600 1.560530 30.218400 -14.474400 6.520000
11.115700 0.449422 28.499600 -13.852800 6.780000
-8.924440 2.103600 29.187600 -13.497600 5.140000
-4.580220 1.582510 30.644000 -14.474400 9.210000
-17.080800 -3.494980 26.181900 -12.165600 8.260000
-16.279400 -3.542860 27.188000 -12.343200 9.000000
-16.639900 -4.399010 26.842500 -0.710400 10.130000
-17.350000 -5.640600 26.151800 -0.444000 8.720000
-16.510500 -3.392010 27.573900 -12.343200 8.070000
-16.864800 -4.458460 27.205200 -0.710400 9.030000
-11.064200 1.265710 30.796700 -13.675200 8.040000
-16.297900 -3.437240 28.196100 -12.432000 7.290000
-16.945500 -3.437240 27.811800 -12.254400 5.130000
-17.788800 -3.537940 27.267200 -12.076800 8.590000
-11.209800 1.282360 31.202000 -13.675200 10.160000
-18.182500 -4.374000 27.406700 -0.444000 7.920000
-18.811300 -4.374000 26.979000 -0.266400 9.170000
-18.411000 -4.533820 27.751100 -0.444000 6.670000
-19.047700 -4.533820 27.318000 -0.266400 7.500000
-19.165600 -3.258670 27.943800 -0.266400 5.850000
-17.361500 -4.015480 29.508900 -0.976800 5.540000
-19.408200 -3.299920 28.297500 -0.266400 12.490000
11.686600 0.846821 33.334400 -14.030400 6.860000
12.081800 1.492810 33.629100 -14.030400 13.520000
11.975100 -0.083957 34.157200 -14.119200 7.830000
19.764600 -1.287070 30.295700 -12.609600 10.740000
12.117500 0.198231 34.563400 -14.119200 6.350000
19.997600 -1.415590 30.652800 -12.698400 6.580000
-5.256670 2.204910 36.616300 -14.563200 8.080000
12.057800 0.085956 35.040700 -14.119200 5.680000
13.391000 -0.099949 40.956300 -14.119200 7.490000
-15.728300 -1.155280 41.025000 -13.586400 9.330000
13.921900 1.177930 42.580000 -14.119200 9.460000
13.807000 1.189260 43.069900 -14.208000 7.920000
20.206900 1.624160 40.930200 -13.408800 10.490000
14.488800 -0.421447 47.386100 -14.296800 7.350000
14.614700 0.277524 49.149500 -14.296800 8.960000
14.450100 0.599681 49.644300 -14.296800 7.670000
-26.433500 1.088370 44.928300 -12.432000 6.390000
14.237900 0.784905 51.493700 -14.296800 8.420000
14.653100 0.624668 51.827300 -14.296800 10.620000
14.770400 0.629665 52.241900 -14.296800 9.580000
14.887600 0.634663 52.656500 -14.296800 10.100000
14.585100 -14.693700 51.586700 -14.296800 9.550000
15.240200 -0.129934 53.903800 -14.296800 18.840000
13.765500 -2.392090 55.580500 -14.385600 12.390000
14.204800 -0.133932 55.965900 -14.385600 7.820000
12.291800 1.367200 64.318500 -14.474400 9.760000
14.486300 1.376200 64.301800 -14.474400 10.570000
14.205600 1.590370 64.800700 -14.474400 12.050000
14.558700 0.659656 76.180500 -14.563200 9.160000
14.639600 0.663321 76.603800 -14.563200 7.350000
14.720400 0.666986 77.027000 -14.563200 7.160000
-15.332400 0.429113 77.787800 -14.385600 7.280000
-15.415800 0.431445 78.210500 -14.385600 7.490000
-15.499100 0.433777 78.633300 -14.385600 7.000000
-15.582600 0.186905 79.057000 -14.385600 7.000000
-14.582200 0.209893 89.306100 -14.474400 9.310000
-14.651600 0.210892 89.731300 -14.474400 8.540000
-14.721100 0.211892 90.156600 -14.474400 7.990000
-14.790500 0.212891 90.581900 -14.474400 6.910000
-14.859800 0.499077 91.006100 -14.474400 5.480000
-14.929400 0.214890 91.432400 -14.474400 5.550000
-14.467600 0.000000 91.943100 -14.474400 9.900000
-14.534600 0.000000 92.368800 -14.474400 13.340000
-13.348500 -0.508405 92.981600 -14.474400 12.020000
-16.461700 -0.510737 92.918800 -14.474400 13.350000
-12.869600 -0.510737 93.484000 -14.474400 12.110000
-15.997200 -0.219888 93.438200 -14.474400 15.900000
-14.077000 0.000000 94.182700 -14.474400 14.210000
-14.140700 0.000000 94.608900 -14.474400 7.620000
-13.716000 -0.223886 95.541800 -14.474400 5.640000
-13.777300 0.224885 95.968300 -14.474400 6.620000
-13.838500 0.225885 96.394900 -14.474400 6.530000
-13.899600 0.529394 96.820200 -14.563200 12.460000
-13.960800 0.531727 97.246800 -14.563200 17.120000
12.856300 3.407940 141.574000 -14.740800 10.070000
12.075000 2.977270 142.085000 -14.740800 7.970000
12.935900 2.543900 142.450000 -14.740800 9.790000
-5.945090 0.733309 5.580930 -9.768000 4.370000
-5.889680 1.162520 6.183050 -10.478400 4.560000
-6.201100 0.771904 5.934680 -9.945600 3.840000
-5.774770 1.192910 6.863790 -11.011200 3.770000
-6.049760 1.249710 7.190640 -11.100000 5.680000
-5.453230 0.965828 7.693900 -11.721600 3.450000
-6.193440 1.306520 7.626030 -11.277600 3.810000
-5.762930 1.009730 7.999440 -11.721600 4.640000
-5.499790 1.196910 9.185120 -12.343200 7.060000
-5.987100 1.196910 8.875180 -12.076800 6.080000
-5.719790 1.244790 9.552520 -12.432000 5.460000
-6.324350 0.701184 9.221010 -11.899200 6.670000
-6.494830 0.692238 9.627820 -11.988000 7.840000
-6.068880 0.936311 10.883200 -12.609600 7.320000
-6.189720 1.008460 11.303900 -12.698400 7.120000
-6.396040 1.042080 11.680700 -12.698400 8.530000
9.652620 1.075690 9.787790 -10.656000 6.560000
9.616540 0.681392 10.452600 -11.011200 6.510000
-5.421580 1.361220 13.074900 -13.320000 4.020000
-5.116880 1.357360 13.660700 -13.586400 4.210000
-5.270310 1.304370 14.070300 -13.586400 4.460000
9.346530 1.305790 12.311500 -11.899200 6.720000
-5.425980 1.162320 14.485900 -13.586400 12.280000
-5.461790 1.194600 14.930900 -13.586400 18.280000
-9.611950 1.291460 14.248600 -11.988000 9.400000
-10.076200 1.323750 14.451200 -11.810400 11.400000
-5.247310 1.378230 16.813300 -13.852800 7.360000
-10.203300 1.453690 14.876500 -11.810400 3.930000
-5.529430 1.362130 18.084100 -13.852800 4.970000
-4.862580 1.485180 19.158200 -14.030400 6.120000
-4.967110 1.579920 19.570100 -14.030400 6.180000
-4.145370 1.485960 20.209000 -14.208000 6.650000
-5.351690 0.179573 20.423800 -14.030400 8.860000
-5.299470 0.383118 20.879600 -14.119200 6.250000
10.428200 1.171850 19.308500 -13.053600 8.660000
-5.401610 0.917266 21.282000 -14.119200 10.550000
-5.382000 0.935252 21.730700 -14.119200 10.200000
11.882800 -0.052973 19.502700 -12.698400 7.390000
11.953500 -0.053972 19.963400 -12.698400 6.310000
12.174100 -0.274854 20.331800 -12.698400 6.950000
19.151900 1.332690 16.001200 -9.679200 7.230000
-10.176800 -0.503707 21.873600 -13.142400 7.050000
-8.302540 0.512702 23.109800 -13.586400 8.540000
-7.947930 0.521696 23.689000 -13.764000 7.080000
-9.745310 0.811444 22.999600 -13.320000 9.700000
-8.070870 1.591150 24.055400 -13.764000 4.280000
-9.731700 0.904015 23.469400 -13.408800 5.900000
-4.502940 1.458480 25.417000 -14.385600 5.730000
-8.207670 1.618120 24.463100 -13.764000 5.110000
-4.577980 1.482790 25.840700 -14.385600 8.140000
-9.722300 1.563950 24.370600 -13.497600 7.340000
-4.856150 1.424600 26.232100 -14.296800 5.080000
-3.852160 1.447580 26.833000 -14.385600 6.150000
-4.070810 1.470550 27.235800 -14.474400 6.800000
-5.255170 -0.156253 28.387600 -14.296800 8.220000
-5.500060 -0.158585 28.779900 -14.385600 5.270000
-5.581010 -0.068965 29.203500 -14.385600 7.110000
-7.806230 1.352190 29.104000 -14.030400 6.500000
-7.746970 1.371510 29.565000 -14.030400 6.050000
10.647600 1.390830 29.107300 -13.941600 5.340000
10.624700 1.410140 29.573400 -13.941600 5.150000
10.771700 -1.330940 29.982600 -13.941600 6.450000
-17.435900 -1.249050 27.181800 -12.165600 8.440000
10.682700 -1.348920 30.471000 -13.941600 7.060000
-17.668400 -1.265710 27.544200 -12.076800 6.920000
10.825200 -1.366910 30.877300 -13.941600 6.610000
-18.331900 -1.999800 28.099600 -12.076800 5.840000
-10.115400 2.445640 32.411300 -13.941600 11.370000
-10.243400 2.476600 32.821600 -13.941600 10.250000
-10.379900 2.076710 33.258900 -13.941600 10.380000
-17.194400 -0.951406 31.836600 -12.698400 6.860000
-17.585100 -0.962732 32.114500 -12.698400 10.180000
12.521500 1.317720 34.852900 -14.030400 8.390000
12.195400 0.782545 35.440500 -14.030400 9.980000
12.336900 0.557030 35.851900 -14.030400 6.550000
11.915400 0.800534 36.443300 -14.119200 11.470000
11.551200 0.809529 37.011900 -14.119200 9.060000
-15.707100 -1.001730 38.720800 -13.408800 10.230000
-16.335100 -1.022380 39.394400 -13.320000 11.270000
-16.803900 -1.265840 39.658200 -13.320000 9.530000
13.658800 0.101948 41.775400 -14.030400 8.230000
13.791900 0.514726 42.182300 -14.030400 7.640000
-16.149700 -2.458580 43.115400 -13.586400 8.050000
-16.877000 -2.912610 43.271200 -13.497600 8.700000
13.375100 1.960430 44.980700 -14.208000 5.610000
-16.780500 -2.939580 43.769600 -13.497600 8.010000
13.985400 0.000000 45.739600 -14.208000 8.520000
13.755300 0.000000 46.259000 -14.208000 8.060000
14.361100 0.873509 46.968300 -14.208000 8.040000
14.488400 0.574694 47.384700 -14.208000 7.120000
14.614400 0.579692 47.796700 -14.208000 7.090000
14.739800 0.740596 48.206800 -14.208000 4.850000
30.116600 0.275192 40.966400 -12.076800 7.290000
30.371900 0.277524 41.313600 -12.076800 9.330000
14.451000 0.119939 49.647500 -14.208000 11.430000
14.570900 0.443435 50.059500 -14.208000 10.200000
14.689600 0.934808 50.467100 -14.208000 10.530000
-26.163300 1.106360 46.079600 -12.520800 15.390000
14.811300 0.614673 50.885400 -14.208000 15.750000
-26.376000 1.115350 46.454300 -12.520800 16.260000
14.535900 0.619670 51.412600 -14.208000 21.540000
15.449500 14.559100 49.502700 -14.208000 9.020000
14.887600 0.634663 52.656500 -14.296800 12.820000
15.004800 0.639660 53.071100 -14.296800 12.490000
15.122000 0.644657 53.485700 -14.296800 16.250000
14.510300 0.822885 54.098800 -14.296800 15.660000
14.621900 0.829214 54.514900 -14.296800 10.610000
16.878400 1.383830 55.201300 -14.208000 13.580000
13.944500 1.759520 58.222700 -14.385600 6.830000
14.046000 1.585680 58.646600 -14.385600 10.440000
16.406900 1.585680 58.030400 -14.385600 10.090000
16.186000 1.597000 58.539400 -14.296800 9.980000
15.845900 1.608330 59.078500 -14.296800 8.570000
15.962000 0.714620 59.511100 -14.296800 13.560000
15.726900 0.719617 60.019200 -14.296800 19.150000
15.582400 0.538719 61.393400 -14.296800 15.420000
17.109700 0.546049 61.879900 -14.296800 8.820000
16.743900 0.549713 62.426200 -14.296800 8.120000
14.394600 0.354484 63.894500 -14.385600 6.990000
14.489300 0.356817 64.314800 -14.385600 10.850000
14.584000 0.359149 64.735200 -14.385600 10.760000
14.678700 0.361481 65.155500 -14.385600 11.760000
24.513400 1.776260 69.921000 -14.030400 9.130000
14.801800 -0.182907 77.452800 -14.474400 11.560000
14.882700 0.183906 77.876000 -14.474400 12.220000
14.963600 0.184906 78.299300 -14.474400 8.440000
15.044300 0.433777 78.721600 -14.474400 5.750000
-15.124800 0.685309 79.143100 -14.296800 7.060000
-15.205700 0.688974 79.566300 -14.296800 5.390000
-15.286100 0.944498 79.987100 -14.296800 6.470000
-15.367000 0.949495 80.410300 -14.296800 6.350000
-14.266700 0.000000 90.666100 -14.385600 8.510000
-14.333600 0.213891 91.091500 -14.385600 8.450000
-14.400600 0.214890 91.517200 -14.385600 5.370000
-14.467600 0.215890 91.942800 -14.385600 5.870000
-15.068300 0.000000 92.283200 -14.385600 10.000000
-14.601600 0.000000 92.794400 -14.385600 13.480000
-13.457200 0.534059 97.752700 -14.474400 12.750000
-13.515700 0.842894 98.177500 -14.474400 9.290000
-13.574900 0.230882 98.607600 -14.474400 13.280000
-12.870000 0.231882 99.136600 -14.474400 15.400000
12.973200 3.438920 142.861000 -14.563200 6.150000
13.012100 3.449250 143.290000 -14.563200 5.850000
13.052800 2.566890 143.737000 -14.563200 5.000000
-5.995700 1.093780 4.797280 -8.968800 2.370000
-6.220050 1.154550 5.196790 -9.235200 3.020000
-5.772590 0.859309 5.741720 -10.123200 3.950000
-6.440810 1.215310 5.595440 -9.412800 5.210000
-5.958830 0.904536 6.159870 -10.300800 3.760000
-6.748240 0.782622 5.977570 -9.412800 6.770000
-5.874750 1.162470 7.348640 -11.277600 2.910000
-6.089650 1.117240 8.283510 -11.632800 3.880000
-6.068560 0.964880 8.848070 -11.810400 7.460000
-5.939110 1.244790 9.417730 -12.165600 9.360000
-6.311310 1.003470 9.201990 -11.899200 10.130000
9.236000 0.098948 7.074140 -9.146400 12.130000
-6.173670 1.185330 9.789670 -12.165600 9.060000
-6.571140 0.620389 9.580820 -11.899200 8.990000
-5.115250 1.355220 10.361200 -12.787200 6.150000
-6.127920 1.455610 10.792700 -12.520800 6.640000
-5.328840 1.311580 11.226600 -12.964800 5.990000
-5.987480 0.859217 10.934500 -12.609600 5.850000
-5.357180 1.317040 11.690700 -13.053600 6.030000
-6.193950 0.888845 11.311600 -12.609600 3.960000
-5.447420 1.237590 12.133700 -13.142400 3.700000
-6.061220 0.877254 11.871200 -12.876000 5.600000
-5.421580 1.361220 13.074900 -13.320000 4.910000
-5.403670 1.402470 13.545200 -13.408800 5.490000
9.679770 1.176540 11.505200 -11.366400 6.150000
-5.454970 1.443720 13.986100 -13.408800 4.490000
9.958690 1.162320 11.836700 -11.455200 9.380000
-5.416290 1.484970 14.460100 -13.497600 5.560000
10.020400 1.243770 12.338300 -11.632800 11.120000
-5.453630 1.477130 14.908500 -13.586400 5.190000
10.094700 1.277380 12.828800 -11.721600 9.700000
-5.836370 1.517050 15.223300 -13.497600 5.100000
9.710400 0.649507 13.700300 -12.165600 5.170000
-9.832680 1.238300 14.101900 -11.810400 7.260000
-9.854490 1.269260 14.608100 -11.899200 11.340000
-4.755740 1.512690 18.737300 -14.030400 5.300000
-4.750630 1.546310 19.181500 -14.119200 4.020000
-5.117790 1.579920 19.531200 -14.030400 5.930000
10.483800 0.607603 17.819000 -12.964800 7.630000
10.029200 0.620261 18.569700 -13.053600 6.470000
-5.405950 -0.254864 21.299100 -14.030400 10.170000
-5.210590 1.264020 21.755800 -14.030400 13.320000
-5.481540 1.288330 22.132600 -14.030400 11.350000
-5.105780 1.312630 22.663500 -14.208000 5.160000
-5.376110 1.483270 23.034000 -14.208000 11.310000
-8.762610 1.556420 21.965000 -13.408800 6.560000
12.174100 -0.274854 20.331800 -12.787200 11.320000
9.865490 1.435750 21.974700 -13.497600 10.490000
12.395500 -0.279851 20.701500 -12.787200 10.700000
-8.449220 1.435750 22.557200 -13.586400 10.420000
-8.600100 1.461390 22.960000 -13.586400 10.500000
-9.875920 0.965934 22.937800 -13.320000 7.780000
-10.047400 0.904015 23.336000 -13.320000 8.570000
-4.010900 1.618120 25.489700 -14.385600 5.300000
-8.207670 1.618120 24.463100 -13.675200 5.710000
-10.080300 0.919338 23.790200 -13.320000 5.430000
-3.879330 1.482790 25.954700 -14.385600 8.950000
-3.944680 1.280190 26.391900 -14.385600 7.810000
-3.910420 1.811110 27.238800 -14.385600 9.040000
-3.971520 1.839400 27.664400 -14.385600 5.250000
-4.481260 1.539480 28.478800 -14.385600 6.800000
-5.956130 1.539480 28.207200 -14.385600 5.400000
-5.658350 1.562460 28.707200 -14.385600 9.460000
-5.010180 1.585440 29.264000 -14.385600 7.590000
-4.860220 -0.443092 29.765600 -14.385600 8.610000
10.579100 0.443092 28.243400 -13.852800 5.230000
-4.755050 -0.449422 30.218800 -14.385600 6.960000
-8.322640 0.449422 29.436700 -13.941600 7.510000
-4.822020 -0.455751 30.644400 -14.385600 5.220000
-18.373000 -1.215740 25.503300 -11.632800 7.210000
-8.556140 0.656618 30.262600 -13.941600 10.140000
12.373300 -0.949380 29.839900 -13.675200 9.670000
-16.362400 -1.847410 28.307600 -12.432000 13.330000
-17.443800 -1.746280 27.660800 -12.165600 5.610000
-16.798200 -1.871720 28.551400 -12.343200 13.610000
-17.456800 -1.769260 28.160200 -12.165600 6.340000
-17.019300 -1.792240 28.927100 -12.343200 10.070000
-17.237400 -1.815210 29.298000 -12.343200 5.560000
-10.560200 2.025440 32.298200 -13.764000 7.330000
-19.255900 -1.651860 28.544700 -11.899200 7.290000
-10.695800 1.944640 32.713000 -13.764000 7.610000
-10.831300 1.861170 33.127500 -13.764000 8.080000
-17.207500 -0.409782 30.857900 -12.609600 7.250000
-17.658100 -0.304175 31.100000 -12.609600 8.830000
-18.112900 -0.307839 31.336100 -12.432000 7.630000
11.775600 0.643638 34.220500 -14.030400 6.830000
11.913500 0.962732 34.621400 -14.030400 5.750000
12.256000 0.974058 34.958500 -14.030400 10.100000
12.401900 0.434769 35.374800 -14.030400 11.510000
12.337400 0.439766 35.853300 -14.030400 8.970000
19.183100 -2.607280 32.604900 -12.787200 5.590000
12.478000 0.326163 36.261900 -14.030400 5.990000
11.821800 2.067960 36.877300 -14.030400 7.540000
18.811700 -2.113920 34.831100 -13.053600 6.350000
13.792600 0.240210 42.184500 -14.030400 10.220000
13.926200 0.381135 42.593100 -14.030400 9.910000
14.060400 0.244874 43.003600 -14.030400 9.180000
14.194300 0.247206 43.413200 -14.030400 6.740000
-16.458600 -3.454660 42.929800 -13.497600 6.410000
13.600200 1.510960 44.479900 -14.208000 7.830000
14.246300 0.270528 47.910400 -14.208000 6.550000
14.329100 0.753256 49.228600 -14.208000 7.590000
30.627500 0.000000 41.661400 -12.165600 7.470000
14.688700 1.097360 50.464100 -14.208000 17.110000
14.811300 0.614673 50.885400 -14.208000 22.020000
14.932200 0.454430 51.300700 -14.208000 17.470000
14.769000 0.965457 52.237100 -14.208000 5.870000
14.887600 0.634663 52.656500 -14.208000 8.530000
14.698700 -0.127935 53.160400 -14.208000 8.130000
14.813600 0.000000 53.575900 -14.208000 16.590000
14.928400 0.000000 53.991200 -14.208000 21.420000
15.356400 14.695800 52.758100 -14.208000 11.680000
15.753300 15.149300 52.978600 -14.208000 9.070000
12.107100 0.317170 57.337200 -14.385600 7.570000
16.825400 0.319502 56.583900 -14.385600 15.130000
13.515600 0.000000 57.907800 -14.296800 8.720000
16.178100 0.000000 57.221100 -14.296800 7.630000
13.163400 -0.324167 58.429800 -14.296800 8.470000
12.917900 0.139929 58.926500 -14.385600 10.880000
15.735300 1.456120 58.665800 -14.296800 7.890000
15.849700 0.898843 59.092500 -14.296800 12.520000
16.421300 0.000000 59.390300 -14.296800 18.900000
16.536100 0.000000 59.805600 -14.296800 20.770000
16.295400 1.118700 60.754000 -14.296800 14.660000
16.408500 0.734609 61.175700 -14.208000 15.210000
16.164900 0.000000 61.690500 -14.296800 11.530000
16.744500 0.000000 62.428400 -14.296800 8.290000
15.249300 0.000000 77.366200 -14.474400 9.390000
15.332600 0.183906 77.788700 -14.474400 10.020000
15.415900 0.184906 78.211500 -14.474400 10.850000
15.499300 0.185905 78.634200 -14.385600 6.920000
-15.124400 0.934503 79.140600 -14.296800 9.560000
-15.205300 0.939500 79.563900 -14.296800 8.330000
-15.286100 0.944498 79.987100 -14.296800 6.870000
-15.831600 0.949495 80.320100 -14.296800 7.020000
-13.567400 0.212891 90.773100 -14.385600 6.340000
-14.333600 0.213891 91.091500 -14.385600 5.940000
-14.400600 0.214890 91.517200 -14.385600 5.950000
-14.467600 0.000000 91.943100 -14.385600 7.290000
-14.013300 0.000000 93.756500 -14.385600 5.740000
-13.532400 0.000000 94.262500 -14.385600 7.660000
-12.703500 0.228883 97.854700 -14.474400 6.550000
-12.759000 0.229883 98.282000 -14.385600 7.420000
-12.814500 0.000000 98.709600 -14.385600 11.490000
-12.870000 0.000000 99.136900 -14.385600 10.780000
-12.925500 0.000000 99.564200 -14.385600 6.070000
12.935100 2.986260 142.442000 -14.563200 12.950000
12.974100 2.995260 142.871000 -14.563200 15.760000
13.012100 3.449250 143.290000 -14.563200 14.070000
-5.716880 1.248370 6.902280 -11.011200 2.620000
-5.945130 1.245730 7.831060 -11.455200 2.860000
-5.598950 1.395020 8.582220 -12.076800 4.780000
-6.140450 1.299890 8.219110 -11.544000 4.700000
-5.760710 1.486150 8.980670 -12.165600 6.600000
-6.247770 0.839451 9.261580 -11.899200 12.240000
-6.635550 0.871738 9.516650 -11.810400 7.230000
-5.630300 1.043500 10.619800 -12.787200 13.470000
-5.831380 1.080760 10.999100 -12.698400 6.270000
-6.123150 1.038350 11.337400 -12.698400 6.430000
-5.709480 1.072960 12.028500 -13.053600 6.580000
-6.236770 1.072960 11.763700 -12.698400 7.070000
-5.433510 1.160700 12.619900 -13.231200 5.650000
-5.427260 1.196970 13.088600 -13.320000 5.790000
-5.685950 1.378910 14.831000 -13.497600 4.860000
-5.927570 1.416170 15.197800 -13.497600 5.690000
-5.320910 1.608710 15.859100 -13.675200 7.560000
9.932460 1.103640 13.510700 -12.076800 8.430000
9.938810 1.291460 14.022500 -12.254400 5.240000
-10.182800 1.238300 13.851200 -11.544000 4.980000
-5.369980 1.636810 16.751200 -13.764000 5.020000
10.187300 1.323750 14.373100 -12.254400 9.850000
-10.300100 1.269260 14.297400 -11.632800 10.280000
-10.803700 1.300220 14.461000 -11.455200 5.280000
10.529700 1.511040 19.229700 -13.053600 5.070000
-5.498080 1.609790 21.662100 -14.030400 11.670000
10.326200 1.264020 19.845300 -13.231200 6.510000
10.744500 1.264020 19.622000 -13.053600 12.620000
-8.886870 1.640750 20.973600 -13.320000 7.240000
-9.054550 1.671710 21.369300 -13.320000 12.490000
-9.054200 1.702660 21.835500 -13.320000 12.900000
-9.054570 1.435750 22.321100 -13.320000 11.170000
-10.342400 1.461390 22.229600 -13.142400 9.410000
-8.563680 1.795540 23.410500 -13.586400 4.810000
-4.091580 1.296780 25.058200 -14.385600 13.180000
-8.210690 1.458480 24.472200 -13.764000 7.610000
-4.504250 1.318760 25.424400 -14.385600 9.880000
-8.339250 1.888410 24.855300 -13.764000 7.900000
-4.578760 1.401620 25.845000 -14.385600 5.400000
-4.856150 1.424600 26.232100 -14.385600 4.350000
-3.696990 1.447580 26.854800 -14.385600 6.610000
-3.906220 2.215150 27.209500 -14.385600 8.340000
10.909800 1.580020 25.747900 -13.675200 8.170000
-3.651000 2.130910 28.123500 -14.474400 7.760000
-4.944270 -0.339819 28.879000 -14.385600 6.320000
-4.790980 -0.344817 29.341500 -14.385600 6.260000
-4.860410 -0.349814 29.766800 -14.385600 5.700000
-7.914430 1.631390 29.507400 -14.030400 7.530000
-4.930170 0.070964 30.194000 -14.385600 7.990000
-8.026880 1.582510 29.926600 -14.030400 6.040000
-8.139610 1.507320 30.346900 -14.030400 6.760000
10.514900 -0.374801 30.556800 -13.941600 8.040000
-17.418000 -1.922880 27.153900 -12.076800 13.060000
11.722400 -0.379798 30.576100 -13.852800 10.900000
-16.580000 -1.847410 28.180600 -12.343200 9.890000
-17.861800 -1.948520 27.379100 -11.988000 5.960000
10.976400 -0.384795 31.308700 -13.941600 5.600000
-16.353200 -1.974160 28.801800 -12.520800 8.510000
-18.310100 -1.974160 27.599100 -11.899200 8.150000
-16.552100 -2.414690 29.152100 -12.520800 7.160000
-10.364900 2.445640 32.332400 -13.764000 8.050000
-16.764300 -2.445640 29.525800 -12.520800 6.090000
-10.502600 2.157490 32.762200 -13.764000 6.010000
-10.379900 2.076710 33.258900 -13.852800 6.850000
-10.506100 2.211430 33.663200 -13.852800 6.990000
10.778800 1.063310 34.537100 -14.119200 7.300000
11.377500 1.075960 34.797900 -14.030400 6.220000
-18.811700 -0.764555 31.417100 -12.343200 9.320000
12.054400 0.888129 35.030800 -14.030400 7.280000
12.194600 0.898456 35.438100 -14.030400 13.050000
12.337800 0.322499 35.854400 -14.030400 6.180000
12.197800 0.444763 36.355800 -14.119200 5.370000
10.712200 -1.245150 36.802600 -14.208000 6.550000
11.048600 -1.139260 37.156400 -14.208000 6.020000
-17.077900 -1.273130 35.274600 -12.876000 6.630000
11.171300 -1.151910 37.569200 -14.208000 8.050000
12.070500 -2.848090 37.652900 -14.030400 10.480000
19.831800 -1.042020 34.309800 -12.876000 5.650000
12.201700 -2.879050 38.062200 -14.030400 12.810000
19.779500 -1.053340 34.836300 -12.876000 10.920000
12.332900 -2.910010 38.471500 -14.119200 7.590000
-17.080300 -1.064670 36.711800 -13.053600 10.380000
13.658400 0.373805 41.774000 -14.119200 9.930000
13.792300 0.377470 42.183600 -14.119200 7.210000
-14.949400 -2.307820 42.641000 -13.586400 8.840000
-15.098300 -1.906470 43.065700 -13.586400 7.030000
13.735900 0.249538 44.012000 -14.119200 6.780000
-5.668350 1.496970 45.732000 -14.474400 5.960000
-16.786700 -2.649580 43.785700 -13.497600 5.840000
14.634600 -0.113942 46.891800 -14.119200 6.370000
14.488400 0.574694 47.384700 -14.208000 19.260000
14.613400 0.753256 49.144900 -14.208000 10.050000
14.536400 0.454430 51.414200 -14.208000 7.870000
14.469100 0.125936 52.329800 -14.296800 6.970000
14.583900 0.126935 52.745100 -14.208000 16.820000
14.698700 0.127935 53.160400 -14.208000 11.390000
14.813600 0.128934 53.575700 -14.208000 22.670000
15.240200 0.129934 53.903800 -14.208000 12.810000
14.623300 -0.305510 54.520000 -14.296800 11.550000
15.157900 -0.307842 54.821000 -14.296800 20.640000
15.591800 -0.310174 55.147100 -14.208000 10.930000
-17.606000 6.606960 56.412500 -13.764000 11.420000
12.374200 -0.324167 58.602000 -14.385600 21.270000
15.516500 0.138929 57.850200 -14.208000 19.830000
14.502600 0.139929 58.556700 -14.296800 12.290000
16.979700 0.328831 58.335100 -14.208000 11.750000
15.509000 0.520395 59.187400 -14.296800 10.870000
13.825100 0.924163 61.366600 -14.385600 7.330000
16.878800 0.930493 61.045000 -14.296800 7.240000
16.993600 0.936822 61.460200 -14.296800 8.240000
-24.592100 0.148924 59.307400 -13.408800 10.340000
-24.757200 0.149924 59.705500 -13.408800 8.870000
14.275200 0.424448 77.112400 -14.474400 7.950000
14.353700 0.426781 77.536100 -14.474400 8.300000
14.432100 0.429113 77.959800 -14.474400 8.450000
14.962600 0.924508 78.294200 -14.474400 6.060000
-15.043500 0.929506 78.717400 -14.296800 7.540000
-15.124400 0.934503 79.140600 -14.296800 8.140000
-15.205300 0.939500 79.563900 -14.296800 6.860000
-15.286100 0.944498 79.987100 -14.296800 7.860000
-14.199500 0.494412 90.239100 -14.385600 5.670000
-14.266500 0.496745 90.664800 -14.385600 7.860000
-14.333600 0.213891 91.091500 -14.385600 5.490000
-14.400600 0.214890 91.517200 -14.385600 8.110000
-14.467600 -0.215890 91.942800 -14.385600 13.870000
-14.534400 -0.506073 92.367400 -14.385600 14.600000
-14.601400 -0.508405 92.793100 -14.385600 10.530000
-14.013300 0.219888 93.756300 -14.385600 13.540000
-13.532300 0.220887 94.262200 -14.385600 17.720000
-14.140500 0.517734 94.607500 -14.385600 17.230000
-13.654600 0.520066 95.114200 -14.385600 11.760000
-13.838500 0.225885 96.394900 -14.385600 4.920000
-13.339800 0.226884 96.900100 -14.385600 6.600000
-13.398400 0.531727 97.325800 -14.385600 5.380000
-13.457200 0.534059 97.752700 -14.385600 12.580000
-13.516000 0.536391 98.179600 -14.385600 14.460000
-13.574900 0.230882 98.607600 -14.385600 11.370000
12.935100 2.986260 142.442000 -14.563200 7.380000
12.974100 2.995260 142.871000 -14.563200 8.980000
13.013000 3.004250 143.300000 -14.563200 6.590000
-6.001590 1.236400 8.330720 -11.721600 4.450000
-5.912680 1.287920 8.912250 -11.988000 5.530000
-6.251660 1.287920 8.677840 -11.721600 5.490000
-6.015560 1.175900 9.377980 -11.988000 5.390000
-6.372400 1.175900 9.139250 -11.810400 4.690000
-5.558390 1.455610 11.096800 -12.876000 5.070000
-5.685140 1.476020 11.515500 -12.964800 4.570000
-5.892330 1.124430 11.935200 -12.964800 6.770000
-5.234480 1.623620 13.121100 -13.408800 2.500000
9.196400 1.357360 11.323600 -11.632800 4.590000
-5.375610 1.397280 14.021500 -13.497600 4.040000
-5.306230 1.437200 14.505600 -13.586400 3.850000
9.736900 0.234206 12.622500 -11.810400 8.020000
-5.453630 1.477130 14.908500 -13.586400 7.070000
9.319420 1.617860 13.365800 -12.254400 3.770000
-5.713690 1.668250 15.254000 -13.586400 8.880000
9.555440 1.815520 13.704300 -12.432000 4.190000
9.905240 1.660440 13.473700 -12.165600 6.490000
-5.108030 1.556970 15.934100 -13.675200 6.310000
9.733360 0.972321 14.191400 -12.432000 4.900000
10.064800 0.772681 13.970800 -12.254400 5.960000
-5.109850 1.703010 16.372800 -13.852800 5.650000
10.316400 0.791998 14.320100 -12.254400 5.170000
9.877180 0.867226 15.140000 -12.609600 3.960000
10.568000 0.811315 14.669300 -12.254400 6.800000
-10.778700 1.788170 14.427500 -11.544000 7.660000
-5.033110 1.788170 17.291600 -14.030400 4.200000
10.112300 0.887874 15.500500 -12.609600 7.830000
-5.157470 1.659590 17.718900 -14.030400 4.980000
-9.689880 1.033980 16.763900 -12.520800 4.850000
9.678500 -0.927217 18.255500 -13.231200 10.920000
-5.180880 1.516920 20.412300 -14.119200 16.880000
10.258900 1.451780 18.397100 -13.053600 13.460000
10.228000 -0.965851 18.937800 -13.231200 8.560000
10.612600 1.481410 18.691300 -13.053600 7.070000
9.719880 -0.917266 19.688100 -13.320000 11.140000
10.416100 1.578830 19.286100 -13.142400 10.380000
-8.724650 1.402370 20.590700 -13.320000 6.280000
-8.892430 1.429340 20.986700 -13.320000 6.680000
10.520900 1.429340 20.219500 -13.142400 4.890000
-8.727800 1.528120 21.515500 -13.408800 8.800000
-9.796230 1.456310 21.055700 -13.142400 10.020000
-8.885640 1.702660 21.904600 -13.408800 12.410000
-9.979530 1.410110 21.449600 -13.142400 9.160000
12.054300 1.435750 20.854500 -13.053600 8.510000
-8.782280 1.176950 22.907300 -13.586400 8.640000
11.321100 1.309710 21.757200 -13.231200 10.890000
-8.259020 1.197600 23.557700 -13.764000 7.630000
-8.262750 1.218250 24.012000 -13.764000 8.540000
-4.077750 1.645090 25.914500 -14.385600 5.600000
-4.146130 1.507100 26.349000 -14.385600 6.800000
10.029400 1.362710 24.724200 -13.852800 4.390000
-4.213000 1.531410 26.774000 -14.385600 8.540000
-4.068620 1.725990 27.221200 -14.385600 10.220000
-4.132190 1.752960 27.646500 -14.474400 6.030000
-4.794350 1.274920 28.003400 -14.474400 7.030000
-5.243900 1.896000 28.326700 -14.385600 6.450000
-5.322170 1.924300 28.749500 -14.296800 4.840000
-5.412110 0.068965 29.235300 -14.296800 5.460000
-4.860730 0.069964 29.768700 -14.385600 4.950000
-8.026950 1.608420 29.030800 -14.030400 7.880000
-8.141620 1.631390 29.445500 -14.030400 8.990000
-16.584900 -1.670420 28.188800 -12.520800 7.070000
-16.582500 -1.692400 28.688400 -12.520800 12.230000
-17.010100 -2.103550 28.911500 -12.432000 12.560000
-19.925100 -1.012670 28.112000 -11.721600 7.980000
-10.698900 1.758340 32.722500 -13.852800 5.210000
-10.832600 1.780320 33.131500 -13.852800 6.890000
-4.393000 1.907120 35.442600 -14.474400 6.920000
-3.268800 1.930100 35.996000 -14.563200 12.260000
11.509300 0.951406 34.303800 -14.119200 5.710000
11.647000 0.877802 34.714200 -14.119200 6.490000
11.784000 0.888129 35.122600 -14.030400 13.340000
11.921900 0.782545 35.533500 -14.119200 6.540000
12.058900 0.791539 35.941900 -14.119200 4.920000
11.915400 0.800534 36.443300 -14.119200 9.990000
20.429900 -0.689612 32.956200 -12.698400 6.400000
11.823300 1.978130 36.881700 -14.119200 6.150000
-16.898000 -0.449761 34.903000 -13.053600 5.800000
20.913100 -0.697275 33.162200 -12.698400 9.260000
-18.658100 -0.908471 39.308000 -13.053600 10.850000
13.417000 0.237878 41.853200 -14.208000 11.040000
13.548500 0.240210 42.263500 -14.119200 11.330000
-6.106330 1.870500 44.356200 -14.474400 9.320000
13.680000 0.242542 42.673800 -14.119200 8.020000
-6.165050 1.888490 44.782700 -14.474400 8.190000
13.811600 0.244874 43.084200 -14.119200 8.630000
-15.279900 -2.168060 42.531000 -13.675200 7.590000
-2.636160 2.047600 45.553300 -14.563200 6.930000
13.604700 0.953445 43.591800 -14.208000 6.500000
-2.663700 -0.106945 46.029200 -14.563200 6.970000
-5.368200 -0.107945 46.226400 -14.474400 8.180000
-15.065700 -1.831940 44.903600 -13.764000 10.400000
-15.202600 -1.848600 45.311800 -13.764000 4.640000
-14.997400 0.410453 45.869500 -13.764000 8.160000
14.615100 0.270528 47.799200 -14.208000 6.040000
14.368800 -0.428776 48.322400 -14.208000 6.320000
14.209700 -0.432441 48.818400 -14.208000 16.570000
-27.090500 0.950133 46.044900 -12.432000 19.600000
15.226600 0.950133 51.207300 -14.208000 10.290000
-27.309000 0.957795 46.416300 -12.432000 7.250000
-2.386010 0.791235 53.803800 -14.652000 9.690000
15.746800 0.957795 51.500400 -14.296800 12.910000
-2.405100 0.797565 54.234200 -14.652000 8.610000
14.583000 0.634663 52.741700 -14.296800 11.380000
14.696400 0.980782 53.152100 -14.296800 6.190000
14.811300 0.988444 53.567400 -14.296800 9.000000
14.924100 1.342520 53.975700 -14.296800 8.360000
15.357500 0.000000 54.318600 -14.296800 7.180000
15.896100 0.000000 54.612400 -14.296800 8.190000
12.595200 -0.310174 55.907700 -14.385600 5.720000
12.364100 -0.312506 56.400400 -14.385600 8.930000
12.448700 -2.068510 56.786200 -14.385600 13.280000
13.640800 -2.083830 56.954600 -14.385600 9.280000
12.633100 -2.099150 57.627500 -14.296800 16.910000
12.582400 16.073300 55.850900 -14.385600 7.480000
15.727400 10.230400 56.880700 -14.296800 6.480000
15.624800 1.259270 58.253800 -14.208000 21.300000
16.188100 1.268260 58.546900 -14.296800 15.700000
15.850400 0.709623 59.094900 -14.296800 12.440000
15.962800 0.333495 59.514200 -14.296800 7.490000
16.186100 0.338159 60.346600 -14.385600 8.770000
-24.427100 0.147925 58.909400 -13.408800 9.920000
16.629200 1.340220 61.998700 -14.296800 7.090000
15.897500 1.349210 62.634900 -14.296800 6.520000
14.275200 0.424448 77.112400 -14.474400 9.450000
14.353700 0.426781 77.536100 -14.474400 7.140000
14.431800 0.674315 77.958200 -14.474400 7.640000
14.963100 0.677980 78.296700 -14.474400 10.920000
-15.497600 1.177360 78.626000 -14.296800 8.070000
-15.581000 1.183690 79.048700 -14.296800 11.690000
-15.664300 1.190020 79.471400 -14.296800 7.500000
-15.746800 1.448190 79.890100 -14.296800 10.460000
-14.790500 0.000000 90.582100 -14.385600 8.770000
-14.860000 0.000000 91.007400 -14.385600 7.860000
-13.694900 0.000000 91.625700 -14.385600 9.170000
-14.467600 0.000000 91.943100 -14.385600 8.400000
-13.822200 -0.216889 92.477800 -14.385600 8.930000
-13.348700 -0.217889 92.982700 -14.385600 10.630000
-13.409900 -0.218888 93.409200 -14.474400 8.690000
-14.735000 0.806246 93.642400 -14.385600 7.780000
-16.069400 0.809911 93.859800 -14.385600 8.190000
-16.142100 0.813576 94.284500 -14.385600 7.390000
-13.715600 0.820905 95.538600 -14.474400 5.370000
-13.221900 0.824570 96.043200 -14.474400 5.230000
-13.339000 1.134400 96.893900 -14.474400 7.080000
-12.647300 1.139390 97.421100 -14.474400 7.860000
-12.703100 0.839229 97.851400 -14.474400 6.880000
-12.758600 0.842894 98.278700 -14.474400 5.090000
-12.814100 0.846559 98.706000 -14.474400 6.210000
12.934200 3.428590 142.432000 -14.652000 7.800000
12.973200 3.438920 142.861000 -14.652000 7.520000
13.012100 3.449250 143.290000 -14.652000 8.060000
-5.655720 0.906797 9.123450 -12.165600 3.800000
-5.734990 0.943068 9.577920 -12.343200 7.130000
-6.313030 0.968960 9.204500 -11.988000 5.250000
-6.889150 1.947720 8.617550 -22.999200 4.740000
9.153800 0.062968 7.180590 -9.679200 9.580000
-7.154120 2.022630 8.948990 -22.999200 4.620000
9.492830 0.065300 7.446540 -9.679200 10.890000
-5.527120 1.479510 10.622200 -12.876000 4.910000
9.831860 0.067632 7.712490 -9.679200 7.700000
-5.726670 1.493990 11.005700 -12.876000 7.620000
-5.836220 1.545510 11.430500 -12.876000 2.430000
9.024590 0.877254 9.809220 -11.277600 6.460000
9.315700 0.905553 10.125600 -11.277600 5.250000
-5.887330 1.277510 12.403200 -13.053600 3.100000
-6.071310 1.317440 12.790800 -13.053600 4.710000
-5.573440 1.706580 13.441100 -13.408800 3.600000
9.126550 1.007360 11.416300 -11.810400 2.170000
-5.740930 1.675680 13.845100 -13.408800 5.020000
9.485280 1.036990 11.679300 -11.810400 3.990000
9.754160 1.114470 12.010400 -11.810400 4.350000
-5.245610 1.673390 14.962400 -13.675200 6.900000
-5.503830 1.768970 15.319700 -13.675200 6.330000
9.455010 0.873141 13.340000 -12.343200 4.780000
-5.745000 1.660440 15.705100 -13.675200 6.470000
9.598020 0.896118 13.765400 -12.432000 5.680000
-5.114330 1.543810 16.387200 -13.941600 4.540000
9.842450 0.972321 14.116000 -12.432000 7.250000
-5.242190 1.582400 16.796900 -13.941600 3.560000
10.088500 0.996629 14.468900 -12.432000 4.720000
-5.037530 1.621000 17.306800 -13.941600 5.640000
-9.285120 0.923129 15.506900 -12.432000 3.970000
-5.157470 1.659590 17.718900 -13.941600 5.730000
-9.506190 0.945108 15.876100 -12.432000 6.150000
-5.383600 1.639780 18.105100 -13.941600 6.320000
-5.505960 1.677050 18.516600 -13.941600 6.510000
-4.747290 1.714310 19.168000 -14.208000 6.480000
-5.628310 1.714310 18.928100 -13.941600 4.110000
-3.902590 1.704780 19.799500 -14.119200 2.850000
-8.944130 1.392520 18.116800 -12.964800 5.690000
1.311160 1.422150 20.592600 0.888000 3.920000
-5.609000 1.661360 19.838700 -14.030400 6.270000
1.338760 1.386630 21.025900 0.888000 8.510000
-6.001010 1.582040 20.181400 -14.030400 6.940000
1.531990 1.281920 21.452200 0.888000 17.620000
-5.453330 1.148870 20.811700 -14.119200 7.810000
1.557260 2.238970 21.806000 0.888000 18.170000
9.547010 1.714380 19.719400 -13.497600 14.460000
0.991105 1.264020 22.349200 0.976800 9.940000
-5.504480 1.194820 21.687300 -14.208000 9.000000
-5.610340 1.217800 22.104300 -14.208000 8.630000
-8.882740 1.781610 20.963900 -13.408800 9.220000
-5.411910 1.240780 22.596400 -14.208000 8.740000
-9.054550 1.671710 21.369300 -13.408800 11.680000
-5.504470 -1.775760 22.982900 -25.752000 9.410000
-8.885640 1.702660 21.904600 -13.497600 13.540000
-8.918120 1.733620 22.354800 -13.497600 13.510000
0.471549 2.067500 24.469600 0.888000 7.240000
0.767641 2.103770 24.891700 0.888000 10.570000
9.723040 1.872620 22.947000 -13.764000 8.180000
0.780876 2.140040 25.320800 0.888000 4.240000
-8.387430 1.904910 23.924000 -13.764000 9.760000
-4.157350 1.697910 25.461000 -14.474400 8.760000
-8.529590 1.937200 24.329500 -13.764000 3.970000
-4.658000 0.867406 26.292300 -14.474400 5.360000
-4.939370 0.797479 26.681600 -14.385600 5.270000
-4.067810 1.811110 27.215700 -14.474400 6.090000
10.904500 0.405112 25.326900 -13.764000 6.930000
10.727000 0.411442 25.869600 -13.852800 8.280000
-4.619610 -0.873429 29.358000 -14.474400 7.010000
-4.860410 -0.349814 29.766800 -14.474400 5.310000
10.185100 1.538550 28.349700 -14.030400 6.130000
10.108600 1.560530 28.833400 -14.119200 6.900000
-5.894100 1.871610 30.841800 -14.563200 7.750000
-8.359330 2.356920 30.232900 -13.675200 10.410000
-8.473840 2.389210 30.647000 -13.675200 10.830000
-16.985500 -5.519980 26.934100 -0.710400 6.910000
-16.530200 -3.134930 28.095900 -12.432000 6.450000
-18.053500 -2.453780 27.212300 -12.076800 6.190000
-16.107100 -2.665100 28.884700 -12.609600 6.990000
-16.747700 -3.176180 28.465600 -12.432000 5.150000
-18.277500 -2.792930 27.549900 -11.988000 9.700000
-16.965200 -3.217420 28.835300 -12.432000 8.360000
-16.497800 -3.631050 29.056500 -0.888000 6.710000
-16.081900 -3.677600 29.776600 -1.065600 6.930000
-18.484700 -3.782240 28.333800 -0.532800 6.450000
-10.945600 2.051080 32.623700 -13.852800 6.480000
-19.817000 -3.724150 27.959600 -0.976800 9.730000
-11.082400 2.076710 33.031500 -13.852800 11.710000
-11.219300 2.102350 33.439300 -13.852800 6.170000
-19.405900 -4.034460 29.250800 -0.444000 5.370000
-16.989700 -0.940080 31.457600 -12.787200 11.360000
12.197900 0.202896 35.447800 -14.119200 6.910000
19.982100 -1.448900 31.685800 -12.787200 9.360000
12.338200 0.087955 35.855600 -14.119200 9.400000
20.211700 -1.465550 32.050000 -12.787200 12.840000
12.198600 0.000000 36.358300 -14.119200 7.680000
12.411300 -11.413800 35.401400 -14.119200 9.760000
12.511700 -11.890600 35.687900 -14.119200 7.220000
-3.116030 1.690650 40.349200 -14.652000 8.890000
-2.913410 1.708630 40.795900 -14.652000 8.420000
13.417000 0.237878 41.853200 -14.208000 8.580000
13.548500 0.240210 42.263500 -14.208000 7.180000
-17.002600 -1.084340 41.914200 -13.497600 5.140000
-5.878230 1.200580 45.279700 -14.563200 7.440000
13.943300 0.105946 43.495000 -14.208000 7.040000
-5.415580 1.379770 46.634400 -14.563200 6.500000
14.246500 0.115941 47.911000 -14.296800 6.630000
14.368800 -0.428776 48.322400 -14.296800 8.380000
14.688700 1.097360 50.464100 -14.296800 8.110000
14.536800 0.123937 51.416000 -14.296800 7.660000
-26.734800 0.950133 46.252400 -12.609600 9.380000
14.650900 1.124350 51.819400 -14.296800 22.200000
14.698700 0.127935 53.160400 -14.385600 18.770000
14.813600 0.128934 53.575700 -14.385600 16.000000
14.928400 0.000000 53.991200 -14.385600 10.400000
13.417700 -0.136930 57.488100 -14.385600 9.750000
15.846900 -0.321835 57.312900 -14.385600 10.940000
15.733000 1.784830 58.657400 -14.385600 20.480000
15.844600 1.797490 59.073400 -14.385600 8.900000
15.368500 1.111040 60.550700 -14.385600 10.070000
15.124100 -0.145926 61.066200 -14.474400 10.140000
17.233200 -0.146925 60.952800 -14.385600 10.440000
16.274100 0.000000 62.107300 -14.385600 9.670000
24.909100 1.310260 69.333500 -14.119200 8.660000
25.054800 1.317930 69.739000 -14.119200 8.550000
25.200500 1.325590 70.144400 -14.119200 8.310000
14.800900 0.914514 77.447800 -14.563200 6.990000
14.881100 1.164700 77.867900 -14.563200 6.350000
-15.044300 0.433777 78.721600 -14.385600 7.950000
-15.124800 0.685309 79.143100 -14.385600 6.970000
-15.205700 0.688974 79.566300 -14.385600 9.420000
-15.286600 0.692639 79.989600 -14.385600 10.930000
-15.368000 0.189903 80.415500 -14.385600 8.560000
-14.266500 0.496745 90.664800 -14.474400 5.270000
-14.333600 0.213891 91.091500 -14.474400 12.010000
-14.400600 0.000000 91.517400 -14.474400 14.490000
-13.758600 0.000000 92.051900 -14.474400 12.820000
-14.534600 0.216889 92.368500 -14.474400 10.440000
-14.601500 0.217889 92.794200 -14.474400 17.440000
-13.949600 -0.218888 93.330100 -14.563200 18.990000
-14.204200 0.520066 95.033600 -14.563200 16.160000
-13.715900 0.522398 95.540700 -14.563200 7.950000
-13.777100 0.524730 95.967200 -14.563200 9.980000
-13.398600 0.227884 97.327000 -14.563200 13.870000
-12.703500 0.228883 97.854700 -14.563200 12.950000
-12.759000 0.229883 98.282000 -14.563200 6.550000
-12.814500 0.230882 98.709300 -14.563200 10.060000
12.974100 2.995260 142.871000 -14.740800 4.540000
13.013800 2.559230 143.308000 -14.740800 7.340000
13.052800 2.566890 143.737000 -14.740800 7.040000
