VERSION .7
FIELDS x y z velocity intensity
SIZE 4 4 4 4 4
TYPE F F F F F
COUNT 1 1 1 1 1
WIDTH 977
HEIGHT 1
VIEWPOINT 0 0 0 1 0 0 0
POINTS 977
DATA ascii
-1.586470 0.990641 13.661400 2.752800 7.220000
-1.636050 1.021600 14.088300 2.752800 8.700000
4.499170 -2.245300 13.760700 -10.478400 5.890000
6.962040 0.033983 12.890700 -9.856800 9.130000
-2.742960 1.052560 14.353000 2.664000 7.720000
4.631500 -2.311340 14.165400 -10.478400 7.030000
7.166810 0.034982 13.269800 -9.856800 9.060000
-9.021660 0.489664 12.075700 -8.702400 7.410000
5.389250 -2.140060 14.387900 -10.389600 5.740000
6.726590 1.532710 13.893800 -10.123200 4.850000
-8.869270 0.407745 12.720200 -8.791200 6.150000
6.386140 1.575290 14.523200 -10.212000 4.400000
-9.115640 0.419072 13.073600 -8.791200 4.190000
6.443590 1.617860 14.965900 -10.212000 4.820000
6.613150 1.660440 15.359700 -10.212000 4.160000
-8.731560 0.896118 14.330700 -9.235200 6.140000
-7.817590 1.238300 15.311200 -9.590400 5.690000
-8.382520 0.919096 15.032200 -9.412800 6.290000
-8.955450 0.919096 14.698100 -9.235200 6.610000
-8.133750 1.269260 15.631700 -9.590400 7.200000
-8.694800 1.419080 15.313600 -9.412800 6.940000
7.130060 1.565240 16.560300 -10.300800 4.800000
-8.332130 1.300220 16.013000 -9.590400 7.660000
7.261340 0.278515 17.511800 -10.300800 16.400000
7.426370 0.284845 17.909800 -10.300800 18.180000
-8.055090 1.452900 17.578300 -9.945600 5.650000
7.732280 0.291175 18.248700 -10.300800 15.140000
-8.095360 1.485180 18.031800 -9.945600 5.730000
-8.859790 1.240560 17.687700 -9.768000 6.450000
-8.947770 1.267520 18.124200 -9.679200 7.380000
-8.443770 1.661360 18.807900 -9.945600 5.300000
-7.911160 1.695970 19.502400 -10.034400 5.720000
6.930860 -3.236050 20.141500 -10.478400 8.180000
-8.577790 6.656330 19.106400 -10.034400 5.860000
7.287650 -0.658237 21.178300 -10.478400 9.100000
-8.595570 6.786850 19.547900 -10.034400 9.260000
7.423540 -1.023800 21.573200 -10.478400 10.760000
-8.743480 7.051850 19.884300 -10.034400 4.960000
4.672130 -0.899318 22.777000 -10.744800 9.140000
7.546750 1.869030 21.931300 -10.478400 9.610000
-7.392910 1.115000 22.034700 -10.300800 9.140000
6.749770 -0.915972 22.699500 -10.656000 7.920000
7.361630 -0.858049 22.964000 -10.567200 9.270000
4.586420 -2.502370 23.999200 -10.833600 8.940000
7.312710 -0.873371 23.431200 -10.567200 7.530000
4.666890 -2.546270 24.420200 -10.833600 6.700000
4.747350 -2.590180 24.841200 -10.833600 8.900000
4.843550 1.618120 25.344600 -10.833600 5.320000
17.862900 1.672050 19.795300 -8.436000 9.870000
18.151000 1.699020 20.114600 -8.436000 10.200000
18.439100 1.725990 20.433900 -8.436000 11.590000
-7.351730 0.898746 29.683900 -10.656000 7.930000
-14.535000 0.917427 31.719100 -13.852800 5.510000
-14.463900 1.147210 32.217300 -13.852800 7.120000
-14.640300 1.161200 32.610200 -13.852800 6.570000
19.033500 2.265360 30.703700 -9.590400 7.960000
18.736000 1.912200 32.414100 -9.679200 9.370000
18.951400 1.934170 32.786700 -9.679200 6.650000
19.169700 1.837690 33.164400 -9.679200 8.360000
18.858300 2.562020 36.242500 -9.945600 5.110000
19.056800 2.588990 36.624000 -9.945600 12.370000
19.255300 2.615960 37.005500 -9.945600 7.170000
19.457500 2.512570 37.394000 -9.945600 10.850000
19.080400 2.175950 38.092000 -10.034400 7.890000
19.273100 2.197930 38.476800 -10.034400 4.920000
19.465900 2.219910 38.861600 -10.034400 12.050000
19.658600 2.241880 39.246300 -10.034400 16.350000
-5.768400 0.796885 44.433700 -10.833600 15.980000
19.510900 1.870500 40.299900 -10.034400 11.170000
-7.633840 0.804548 44.588600 -10.833600 14.810000
19.698500 1.888490 40.687400 -10.034400 20.470000
-11.820900 2.047600 44.071700 -12.964800 21.030000
-13.129700 1.924460 44.155400 -12.964800 17.030000
19.367200 2.086240 42.264300 -10.123200 7.410000
-13.252400 1.942450 44.568000 -12.964800 7.940000
19.546600 2.105550 42.655600 -10.123200 6.020000
-13.375100 1.960430 44.980700 -12.964800 9.270000
19.725900 2.124870 43.046900 -10.123200 5.900000
19.907900 1.996400 43.444100 -10.123200 11.260000
19.723300 3.169440 43.932300 -10.212000 6.570000
9.782030 1.016410 47.688200 -10.833600 14.250000
19.899400 3.197730 44.324600 -10.212000 16.920000
9.869190 0.873509 48.113100 -10.833600 12.170000
20.075500 3.226030 44.716800 -10.212000 15.480000
9.955760 0.881171 48.535100 -10.833600 8.090000
12.667000 1.043390 48.341500 -10.833600 7.120000
7.162640 1.052390 49.892800 -10.833600 5.820000
6.929200 -1.965180 50.333500 -10.833600 8.910000
7.574280 -1.981830 50.675900 -10.922400 8.890000
9.409130 -1.359150 50.826500 -10.833600 6.780000
9.092260 -1.370480 51.321700 -10.922400 10.290000
19.951200 1.415780 50.011100 -10.389600 10.110000
20.112000 1.301210 50.414200 -10.389600 7.640000
20.271600 1.311540 50.814300 -10.389600 7.260000
20.432600 1.151330 51.217900 -10.389600 7.270000
20.040100 1.991900 52.271700 -10.389600 6.000000
20.194300 2.007220 52.673800 -10.389600 8.260000
20.348400 2.022540 53.075900 -10.389600 9.310000
20.500200 2.214990 53.471800 -10.389600 10.050000
20.535300 2.627110 54.823700 -10.389600 8.220000
18.207900 1.223290 55.688600 -9.501600 7.240000
20.686300 2.646430 55.226800 -10.389600 11.640000
18.342800 1.049740 56.101400 -9.501600 15.760000
-4.708820 1.986640 60.974000 -10.922400 14.780000
-5.213950 2.381530 61.351500 -10.922400 19.350000
20.373300 2.191090 58.111900 -10.478400 19.260000
20.830300 1.164680 62.085200 -10.567200 7.460000
20.966100 1.376200 62.489900 -10.567200 6.560000
21.101700 1.590370 62.894000 -10.567200 8.360000
21.238700 1.600700 63.302400 -10.567200 11.760000
21.010700 2.405600 64.260900 -10.567200 9.240000
-21.518900 0.000000 64.137600 -10.300800 6.730000
21.144500 2.420920 64.670200 -10.567200 7.580000
-21.656000 0.000000 64.546100 -10.300800 10.840000
-11.548400 3.283070 67.453000 -11.011200 13.930000
-11.621000 3.303720 67.877200 -11.011200 12.860000
-20.666900 -0.804572 66.220200 -10.389600 7.840000
21.048800 1.475140 67.443900 -10.656000 8.270000
21.175700 1.703970 67.850400 -10.567200 8.090000
21.304000 1.714300 68.261700 -10.567200 6.390000
21.435100 1.279610 68.681700 -10.567200 10.910000
-7.376430 1.601070 76.327900 -10.922400 9.480000
-7.417360 1.848550 76.751400 -10.922400 7.050000
22.026200 2.560250 75.672700 -10.656000 12.790000
22.141700 3.064340 76.069500 -10.656000 12.040000
21.925700 2.163320 79.298100 -10.656000 8.230000
22.044700 1.471170 79.728200 -10.656000 7.870000
22.622400 1.478840 80.014000 -10.656000 8.210000
-14.388400 -3.033810 84.041400 -10.744800 8.130000
-14.461100 -3.049140 84.465900 -10.744800 7.370000
22.278900 1.291300 85.023700 -10.744800 10.630000
22.388100 1.297630 85.440500 -10.744800 7.950000
22.496200 1.578450 85.852900 -10.744800 6.780000
22.049000 0.485084 86.871400 -10.744800 10.290000
22.155000 0.487416 87.289100 -10.744800 11.170000
22.260500 0.769599 87.704800 -10.744800 11.320000
22.895800 1.079430 90.207900 -10.744800 6.680000
31.463900 0.795258 143.526000 -10.833600 4.910000
31.556200 0.797590 143.947000 -10.833600 5.680000
31.648400 0.799922 144.368000 -10.833600 6.810000
30.623800 0.802254 145.029000 -10.833600 5.240000
21.857600 2.259770 152.254000 -10.922400 6.190000
21.919800 1.789050 152.686000 -10.922400 5.210000
-5.259230 2.506630 170.537000 -11.011200 5.590000
-5.352760 -0.402794 173.570000 -11.011200 5.600000
-5.366040 0.403794 174.000000 -11.011200 7.340000
-5.379330 0.404793 174.431000 -11.011200 8.740000
-48.018100 -11.623500 179.026000 -10.478400 6.880000
-48.109900 -12.799400 179.368000 -10.478400 4.650000
5.023350 -0.177218 3.335690 -4.528800 5.570000
5.382160 -0.189876 3.573950 -4.795200 7.420000
5.381650 -0.209856 3.573610 -5.772000 2.940000
5.735970 -0.351668 3.808890 -5.061600 6.070000
5.740420 -0.223847 3.811850 -5.860800 5.460000
6.094490 1.365860 7.131490 -8.347200 7.550000
6.255830 1.427950 7.552980 -8.436000 6.690000
6.470420 1.268150 7.967070 -8.524800 6.900000
6.826580 1.230020 8.242070 -8.436000 4.040000
7.099640 1.279220 8.571750 -8.436000 4.880000
6.707110 0.907614 9.462980 -8.968800 6.320000
6.874850 1.043500 9.859850 -9.057600 4.490000
7.035480 1.196220 10.257900 -9.057600 7.440000
6.576440 0.598799 10.608700 -9.235200 3.440000
7.275100 1.072960 11.151500 -9.146400 9.440000
5.724370 -0.474991 12.059800 -9.679200 9.660000
7.509780 1.107570 11.511200 -9.146400 5.100000
-8.057190 1.492640 12.144700 -8.791200 6.890000
-8.632640 1.492640 11.742600 -8.524800 5.480000
6.862480 0.033983 12.943900 -9.679200 10.390000
-8.899560 1.304370 12.105700 -8.524800 9.810000
5.062590 -1.803090 14.091500 -10.123200 4.760000
7.166810 0.034982 13.269800 -9.590400 4.060000
-8.452060 1.162320 12.955500 -8.880000 11.870000
5.207240 -1.854610 14.494100 -10.123200 10.180000
7.450350 0.035982 13.606100 -9.590400 12.030000
-8.686840 1.194600 13.315400 -8.880000 7.240000
5.579190 -1.096240 14.895000 -10.123200 9.410000
-8.709770 1.226890 13.811200 -8.968800 8.950000
14.288400 1.703010 9.487990 -6.216000 8.400000
5.720490 -1.466620 15.272200 -10.123200 4.000000
14.645600 1.745590 9.725190 -6.216000 8.470000
6.729240 -1.712150 15.303500 -9.945600 6.150000
14.998100 1.843850 9.959290 -6.393600 5.450000
6.780610 -1.756050 15.748600 -9.945600 8.060000
-8.791410 1.300220 15.765500 -9.235200 7.880000
-8.636580 1.830740 16.290200 -9.412800 7.050000
-9.135490 0.988028 16.089700 -9.235200 9.300000
-8.741460 0.908522 16.799600 -9.412800 8.240000
-7.367160 1.698190 17.387000 -9.768000 5.330000
7.288120 0.284845 17.966500 -10.123200 5.890000
-7.534600 1.736780 17.782200 -9.768000 6.780000
7.450080 0.291175 18.365700 -10.123200 4.360000
7.612340 0.234875 18.765700 -10.123200 5.250000
17.146400 1.191090 12.263300 -6.482400 5.820000
7.774310 0.239872 19.165000 -10.123200 6.030000
17.493200 1.281920 12.511300 -6.482400 6.990000
17.843000 1.307560 12.761500 -6.482400 10.430000
-8.168240 0.953237 21.305700 -9.945600 7.500000
17.691600 1.361250 16.353300 -7.548000 5.460000
6.610400 -1.483270 22.710500 -10.389600 8.390000
18.007500 1.385560 16.645300 -7.548000 5.170000
6.548080 -1.733620 23.160200 -10.389600 7.800000
18.323500 1.409870 16.937300 -7.548000 5.900000
6.541710 1.538310 24.965400 -10.389600 6.220000
6.780110 0.980627 26.713200 -10.567200 4.860000
6.887430 -0.822796 27.136000 -10.567200 9.570000
7.205550 -0.835454 27.498800 -10.567200 9.750000
8.728070 -0.521040 27.966200 -10.389600 5.420000
6.756750 -0.528703 28.949300 -10.478400 8.840000
6.628450 -0.443092 29.422300 -10.567200 6.110000
18.085800 1.914770 24.601300 -8.880000 4.450000
6.953600 -0.165582 29.792700 -10.567200 5.750000
18.344000 1.845970 24.952600 -8.880000 5.590000
18.598700 1.871610 25.299100 -8.880000 6.310000
18.856900 1.798790 25.650300 -8.880000 6.510000
7.928180 0.394790 33.102600 -10.567200 7.990000
18.588000 1.758340 28.977800 -9.235200 7.690000
18.823200 1.672510 29.344500 -9.235200 5.520000
19.055600 1.693160 29.706800 -9.235200 10.560000
19.519200 1.713800 29.919500 -9.235200 10.430000
7.860010 -0.304175 34.889000 -10.567200 7.820000
18.792600 2.377080 30.843300 -9.412800 13.340000
18.775200 2.405370 31.356100 -9.412800 8.700000
19.243800 2.319300 31.584000 -9.412800 7.100000
19.385100 1.858340 33.537000 -9.501600 14.200000
19.597500 2.000110 33.904400 -9.501600 7.620000
-6.616000 0.697275 38.643400 -10.567200 7.750000
-27.701000 1.215210 30.697800 -7.814400 8.220000
18.979700 2.228810 37.172800 -9.679200 8.710000
19.172100 2.382190 37.549600 -9.679200 6.860000
19.371100 2.274760 37.939200 -9.679200 10.880000
18.950500 1.682060 39.142300 -9.856800 5.950000
19.140300 1.562870 39.534400 -9.856800 9.580000
19.327900 1.578200 39.922000 -9.856800 9.580000
19.825700 1.593520 40.158000 -9.856800 8.760000
24.047700 -1.765330 38.792200 -9.324000 6.700000
19.566300 2.047600 41.221500 -9.856800 11.070000
19.750900 2.066920 41.610300 -9.856800 14.050000
19.935500 2.086240 41.999200 -9.856800 12.480000
-25.655700 -1.125650 39.325800 -8.880000 8.330000
-25.891100 -1.135980 39.686600 -8.880000 5.890000
19.398500 1.831940 43.208900 -9.945600 5.730000
-26.126500 -1.146310 40.047400 -8.880000 6.660000
19.572400 1.996400 43.596200 -9.945600 9.010000
19.748800 2.014390 43.989000 -9.945600 9.180000
19.755700 2.050360 44.928100 -10.034400 18.140000
9.017610 -1.187610 48.711600 -10.656000 11.080000
19.929000 2.068350 45.322200 -10.034400 6.740000
10.043800 0.270528 48.964200 -10.567200 12.560000
20.102300 2.086330 45.716300 -10.034400 5.890000
10.129800 0.584689 49.383700 -10.567200 13.190000
20.275600 2.104320 46.110400 -10.034400 7.340000
10.215500 0.904158 49.801200 -10.567200 9.000000
10.302000 0.911821 50.223300 -10.567200 8.930000
19.618200 2.457140 47.312000 -10.034400 8.440000
7.643530 -0.279856 51.139200 -10.656000 6.750000
19.785900 2.318040 47.716500 -10.034400 11.480000
19.950800 2.337360 48.114100 -10.034400 9.220000
20.274200 0.973120 50.820800 -10.212000 7.260000
20.038500 0.980782 51.377000 -10.212000 15.120000
20.593500 0.988444 51.621200 -10.212000 14.780000
20.754200 0.822885 52.023900 -10.212000 17.510000
20.346100 2.198330 53.069800 -10.212000 9.290000
20.500200 2.214990 53.471800 -10.212000 16.030000
20.654400 2.231640 53.873900 -10.212000 11.510000
20.808500 2.248290 54.275900 -10.212000 12.950000
20.694000 2.099150 55.247500 -10.212000 5.290000
20.845000 2.114480 55.650700 -10.300800 14.370000
20.996100 2.129800 56.054000 -10.300800 11.120000
19.756800 2.160440 57.414300 -10.212000 8.430000
20.230800 2.175770 57.705500 -10.300800 6.670000
20.373300 2.191090 58.111900 -10.300800 6.950000
20.517900 2.014620 58.524400 -10.300800 5.750000
-4.807800 2.221730 62.255600 -10.656000 12.790000
20.319400 2.028610 59.049300 -10.300800 17.410000
-4.840950 2.237060 62.685000 -10.656000 17.340000
20.459500 2.042600 59.456500 -10.300800 5.360000
20.599700 2.056590 59.863800 -10.300800 12.740000
20.739800 2.070580 60.271000 -10.300800 14.070000
-9.613180 2.112550 64.317100 -10.567200 18.410000
20.681100 2.514760 61.640400 -10.300800 18.230000
-9.675830 2.328990 64.736300 -10.567200 13.600000
20.818000 2.531410 62.048600 -10.300800 11.650000
-9.739480 2.344310 65.162200 -10.567200 6.400000
20.615100 1.744240 63.051100 -10.389600 13.780000
20.749000 1.755570 63.460500 -10.389600 7.250000
20.882800 1.766900 63.869900 -10.389600 11.500000
21.014900 1.987370 64.273800 -10.389600 8.530000
22.104300 1.139380 74.336800 -10.478400 7.100000
22.227100 1.145710 74.749800 -10.478400 7.590000
22.349900 1.152040 75.162800 -10.478400 8.650000
21.129500 0.000000 76.418300 -10.478400 15.670000
21.244300 0.000000 76.833600 -10.478400 12.860000
21.359100 0.000000 77.248900 -10.478400 8.400000
21.702200 0.944498 78.489600 -10.478400 7.440000
21.815000 1.455850 78.897700 -10.478400 8.360000
21.929800 1.463510 79.312900 -10.478400 7.140000
-10.416900 -5.836750 84.043300 -10.567200 7.980000
-9.396210 -2.055090 85.208000 -10.478400 5.910000
-14.602900 -3.615110 85.294400 -10.478400 5.520000
22.933000 1.609100 87.520000 -10.478400 5.790000
23.042200 1.616760 87.936700 -10.478400 6.300000
23.151400 1.624420 88.353500 -10.478400 10.660000
23.260600 1.632080 88.770300 -10.478400 10.960000
22.680400 1.924880 89.359200 -10.478400 6.620000
22.784800 2.220320 89.770500 -10.478400 4.920000
22.889400 2.446470 90.182800 -10.478400 8.800000
19.303800 0.648333 118.223000 -10.656000 7.430000
19.372800 1.022470 118.646000 -10.656000 6.520000
19.442300 1.026130 119.071000 -10.656000 10.180000
-55.633700 -12.086000 112.689000 -9.412800 14.400000
-55.823600 -12.127200 113.074000 -9.412800 13.780000
-55.996500 -12.559700 113.424000 -9.412800 8.850000
-56.186400 -12.602300 113.808000 -9.412800 10.130000
22.041300 2.278760 153.533000 -10.656000 12.760000
22.102600 2.285090 153.960000 -10.656000 11.100000
-4.381580 1.487890 174.884000 -10.744800 8.330000
-4.392380 1.491560 175.315000 -10.744800 7.980000
-4.403170 1.495220 175.746000 -10.744800 4.780000
5.015670 -0.377561 3.330580 -5.239200 1.380000
5.015670 -0.377561 3.330580 -4.972800 3.390000
5.373930 -0.404529 3.568480 -4.972800 2.760000
5.736850 -0.330372 3.809480 -5.416800 4.140000
6.000200 -0.351020 4.187410 -6.216000 2.740000
6.095410 -0.351020 4.047570 -5.683200 2.760000
6.333100 1.006230 9.707540 -9.146400 8.130000
6.572270 0.941229 10.074100 -9.146400 4.800000
6.568960 1.015610 10.069100 -9.146400 4.860000
6.557540 1.119260 10.578200 -9.412800 6.620000
7.381840 0.729241 10.587000 -9.057600 6.000000
6.528850 1.157860 11.096900 -9.412800 6.280000
6.160470 -0.557554 11.839400 -9.679200 6.670000
6.851310 -0.753549 11.442300 -9.324000 9.500000
6.710550 -0.532929 12.033900 -9.590400 8.860000
7.617210 -0.532929 11.481500 -9.235200 10.430000
6.463430 -0.417727 12.659000 -9.856800 8.500000
7.015700 -0.549583 12.356300 -9.501600 10.180000
-8.419350 1.627800 11.878800 -8.702400 12.290000
6.762520 -0.033983 12.996400 -9.856800 6.870000
-7.909720 1.443720 12.759500 -9.057600 9.890000
-8.760960 1.675680 12.161000 -8.613600 5.740000
4.989620 0.000000 14.232200 -10.123200 7.810000
-8.941160 1.246020 12.615000 -8.613600 5.680000
7.140200 -1.162320 13.722300 -9.679200 7.330000
-9.289180 1.280630 12.894200 -8.613600 7.000000
7.338540 -1.194600 14.103500 -9.679200 6.740000
-9.458970 0.734047 13.345500 -8.702400 6.330000
5.597690 -1.617860 15.302400 -10.212000 4.640000
14.279300 1.809070 9.481980 -6.393600 6.860000
5.745000 -1.660440 15.705100 -10.212000 4.780000
-8.254920 1.291460 15.075400 -9.324000 6.590000
-8.580130 1.323750 15.386600 -9.324000 7.770000
-8.876060 1.331170 16.209800 -9.324000 9.400000
7.427070 0.104946 17.911400 -10.123200 3.150000
7.450610 0.168579 18.367000 -10.212000 11.550000
7.503740 0.234875 18.809400 -10.212000 16.910000
17.121400 1.647150 12.245400 -6.571200 17.880000
6.047330 0.239872 19.777900 -10.389600 5.200000
7.663400 0.239872 19.209600 -10.212000 12.330000
17.470800 1.680770 12.495300 -6.571200 14.240000
17.820200 1.714380 12.745200 -6.571200 10.600000
17.800600 1.358840 14.242600 -7.104000 5.750000
4.616240 -1.678900 21.861800 -10.567200 6.870000
18.133000 1.456310 14.508600 -7.104000 7.500000
4.705010 -1.711190 22.282200 -10.567200 8.040000
18.472300 1.410110 14.780100 -7.104000 6.050000
4.982450 -0.197897 22.728000 -10.478400 7.270000
-8.741150 0.827404 21.548400 -9.945600 9.490000
6.603200 -1.848840 22.685800 -10.478400 8.600000
-8.776010 0.842726 21.998600 -9.945600 6.810000
6.870710 -1.081750 23.106300 -10.478400 7.610000
-7.969250 1.435750 22.731200 -10.123200 7.220000
8.119880 -0.949280 23.160800 -10.389600 8.950000
7.945470 -0.811444 23.681700 -10.389600 8.580000
4.890870 -2.590180 24.813400 -10.567200 8.960000
6.913100 -0.825434 24.451200 -10.389600 8.720000
4.678650 -2.793110 25.273300 -10.567200 5.690000
4.892880 -3.384520 25.602700 -10.567200 6.100000
4.822580 -3.440000 26.050800 -10.567200 9.830000
7.494290 1.321490 26.506900 -10.478400 9.410000
7.611390 1.342140 26.921000 -10.478400 6.920000
7.726370 1.516510 27.327700 -10.567200 4.860000
5.404020 -2.163200 28.277400 -10.656000 9.250000
18.436000 1.833870 22.700400 -8.613600 7.850000
7.024330 -2.195490 28.361900 -10.567200 5.460000
18.529100 1.860830 23.177800 -8.702400 3.920000
6.756350 -0.620639 28.947600 -10.567200 7.860000
18.797600 1.887800 23.513700 -8.702400 9.950000
6.854270 -0.629634 29.367100 -10.567200 9.660000
18.281600 1.725870 24.470200 -8.880000 12.730000
7.925180 -0.354811 29.547500 -10.567200 7.700000
18.344000 1.845970 24.952600 -8.880000 17.590000
8.036800 -0.359809 29.963600 -10.567200 7.820000
18.598700 1.871610 25.299100 -8.880000 17.750000
8.148420 -0.364806 30.379800 -10.567200 8.640000
18.853500 1.897250 25.645700 -8.880000 13.460000
18.454600 1.823100 26.467400 -9.057600 6.910000
18.493400 1.847410 26.963700 -9.057600 9.700000
18.522300 1.974160 27.457100 -9.146400 12.730000
18.762800 1.999800 27.813700 -9.146400 13.780000
19.003400 2.025440 28.170300 -9.146400 10.350000
7.925290 1.000010 33.090600 -10.567200 5.120000
18.575700 2.157490 28.958700 -9.235200 5.040000
18.807900 2.184460 29.320700 -9.235200 14.970000
19.032400 2.429510 29.670600 -9.235200 4.300000
-7.474080 1.175190 35.396000 -10.478400 12.770000
18.658900 1.719210 33.460700 -9.590400 11.310000
18.868500 1.738530 33.836700 -9.590400 10.590000
-6.613550 1.273130 38.629200 -10.567200 5.930000
-26.823600 1.409650 29.155800 -7.814400 10.070000
9.747430 1.287120 38.404200 -10.567200 5.910000
-27.115200 1.424970 29.472700 -7.814400 5.760000
10.157000 0.464753 38.762400 -10.567200 7.080000
-27.409600 1.315100 29.792700 -7.814400 8.140000
-27.701200 1.329090 30.109700 -7.814400 9.060000
19.069400 2.110010 36.648100 -9.768000 6.870000
19.268000 2.131990 37.029900 -9.768000 8.230000
19.466600 2.153970 37.411600 -9.768000 8.770000
19.665300 2.175950 37.793400 -9.768000 8.010000
19.276100 2.064820 38.482700 -9.768000 9.890000
18.948100 1.816550 39.137400 -9.856800 6.030000
19.135700 1.834530 39.524900 -9.856800 14.960000
19.323300 1.852520 39.912400 -9.856800 4.900000
19.510900 1.870500 40.299900 -9.856800 15.730000
19.549200 1.960430 42.661300 -9.945600 6.570000
19.728500 1.978420 43.052700 -9.945600 15.120000
19.907900 1.996400 43.444100 -9.945600 17.740000
20.087200 2.014390 43.835500 -9.945600 16.100000
-6.266780 1.166960 48.272600 -10.656000 19.580000
20.269100 1.881910 44.232400 -9.945600 14.170000
-6.322240 1.177290 48.699800 -10.656000 5.660000
19.408900 2.050360 45.079100 -9.945600 7.680000
9.956260 0.727936 48.537500 -10.656000 5.920000
19.926400 2.221460 45.316200 -9.945600 15.670000
10.042800 0.734266 48.959600 -10.656000 12.500000
20.102300 2.086330 45.716300 -9.945600 17.830000
9.748020 0.896496 49.455800 -10.656000 14.500000
20.275600 2.104320 46.110400 -9.945600 6.060000
9.830750 1.061380 49.875500 -10.656000 15.500000
8.716510 -11.517300 49.200800 -10.656000 13.480000
19.987800 2.140290 47.172500 -10.034400 8.760000
20.153100 2.318040 47.562600 -10.034400 8.030000
19.788000 1.734810 49.602000 -10.123200 15.370000
19.882900 0.803895 50.978100 -10.212000 9.500000
20.038500 0.980782 51.377000 -10.212000 8.510000
20.195000 0.988444 51.778400 -10.212000 9.850000
20.352600 0.822885 52.182400 -10.212000 9.620000
20.497700 2.392090 53.465200 -10.212000 6.480000
20.651800 2.410070 53.867200 -10.212000 7.800000
20.265200 2.281600 55.399000 -10.300800 16.090000
20.415500 2.114480 55.809700 -10.300800 16.050000
17.070100 0.694631 57.406900 -9.235200 6.690000
20.563400 2.129800 56.214200 -10.300800 11.470000
17.192900 0.699628 57.819900 -9.235200 6.280000
20.098900 0.892513 57.329200 -9.235200 6.490000
20.531500 1.972650 57.148600 -10.300800 9.340000
20.237800 1.466450 57.725500 -9.235200 4.760000
20.968400 2.014620 58.364600 -10.300800 6.460000
-4.807240 2.414830 62.248500 -10.656000 5.920000
21.114000 2.028610 58.769900 -10.300800 10.970000
20.806700 1.653630 59.348100 -10.300800 8.150000
20.949200 1.664960 59.754600 -10.300800 10.760000
21.092900 1.528410 60.164600 -10.300800 10.290000
21.017900 2.298340 61.079100 -10.300800 16.200000
21.158000 2.313670 61.486200 -10.300800 13.830000
-10.176500 1.924080 64.672800 -10.567200 7.520000
20.820400 2.328990 62.055800 -10.300800 6.590000
-10.243500 1.936730 65.098300 -10.567200 6.780000
-20.031800 -0.794577 65.514400 -10.212000 10.760000
21.097300 1.619060 74.620000 -10.478400 10.920000
21.216900 1.145710 75.042800 -10.478400 12.020000
21.335000 0.909516 75.460500 -10.478400 8.800000
21.684700 1.417540 76.697400 -10.478400 7.210000
21.801900 1.425200 77.111900 -10.478400 6.850000
-17.403600 -0.200897 84.844100 -10.478400 8.110000
21.939800 1.586110 86.441400 -10.567200 9.900000
22.715700 1.316620 86.690800 -10.478400 10.210000
22.256500 1.888900 87.688900 -10.567200 6.950000
22.362400 1.897900 88.106500 -10.567200 6.880000
22.468400 1.906890 88.524000 -10.567200 6.860000
22.682900 1.354590 89.369000 -10.478400 8.050000
22.788900 1.360920 89.786600 -10.478400 11.740000
22.894900 1.367250 90.204200 -10.567200 12.490000
22.476600 1.373580 90.753300 -10.567200 9.330000
22.576200 2.251300 91.155100 -10.567200 10.640000
22.678400 2.480450 91.567900 -10.567200 12.910000
19.303800 0.648333 118.223000 -10.656000 6.480000
19.372800 1.022470 118.646000 -10.656000 11.630000
19.441700 1.399260 119.067000 -10.656000 13.980000
21.977700 3.229120 153.090000 -10.656000 5.590000
22.038900 3.238120 153.516000 -10.656000 6.880000
22.101400 2.766110 153.952000 -10.656000 5.220000
-60.356600 -11.732900 151.294000 -9.856800 4.260000
-60.502100 -12.268900 151.659000 -9.856800 8.610000
-4.370890 0.944514 174.457000 -10.744800 7.010000
-4.381680 0.946846 174.888000 -10.744800 5.880000
-4.392470 0.949179 175.319000 -10.744800 6.370000
-4.403170 1.495220 175.746000 -10.744800 5.720000
6.491540 1.476930 9.010810 -8.968800 10.290000
6.831050 1.533740 9.292000 -8.968800 2.780000
6.210920 1.455610 10.745100 -9.501600 8.830000
5.958450 -0.689322 11.451200 -9.768000 7.280000
6.510570 1.505810 11.065800 -9.501600 6.450000
5.719840 -0.712299 12.050300 -9.945600 4.860000
6.157810 -0.681357 11.834300 -9.679200 4.570000
6.903040 1.556000 11.329600 -9.412800 10.390000
-8.559680 1.489660 10.707200 -8.258400 9.360000
5.808300 -0.735276 12.484100 -9.945600 5.950000
7.074370 -0.703336 11.814800 -9.501600 3.710000
-8.741800 1.536210 11.109500 -8.347200 12.170000
5.990540 -0.725316 12.875800 -9.945600 7.910000
6.757050 -0.120937 12.511100 -9.679200 5.010000
-8.425010 1.537710 11.886700 -8.613600 10.690000
5.503060 -0.566237 13.566000 -10.212000 10.230000
-8.578240 1.582940 12.302800 -8.613600 5.260000
5.772380 -0.582891 13.920900 -10.212000 8.600000
-8.110120 1.350830 12.643300 -8.968800 8.300000
-8.738730 1.389430 12.741200 -8.702400 7.960000
5.011270 -1.854610 14.563000 -10.212000 5.940000
-8.441820 1.389430 12.939800 -8.880000 6.200000
5.443270 -1.771430 14.880200 -10.123200 8.300000
-8.684780 1.243770 13.312300 -8.880000 9.270000
6.779020 -1.819310 14.793600 -9.945600 6.390000
13.926800 1.712150 9.247910 -6.393600 9.290000
6.968610 1.608710 15.207300 -9.945600 8.610000
-8.149400 1.556970 14.614200 -9.324000 4.340000
14.283900 1.756050 9.485030 -6.393600 2.670000
7.237330 1.649960 15.555700 -9.945600 7.870000
-8.242580 1.596890 15.052900 -9.324000 3.760000
6.390110 1.691210 16.383700 -10.123200 5.090000
-7.814020 0.737410 15.827700 -9.501600 5.430000
-8.448650 1.636810 15.429200 -9.324000 3.010000
6.547880 1.676740 16.788200 -10.212000 3.490000
-8.098200 0.755396 16.167200 -9.501600 6.400000
-8.776270 1.676740 15.738400 -9.324000 7.250000
6.703780 1.716660 17.187900 -10.212000 4.850000
-8.167060 1.716660 16.542800 -9.590400 8.440000
6.650210 0.161249 17.754300 -10.212000 8.790000
-7.591960 1.931660 17.265500 -9.768000 5.290000
-8.449680 1.873320 16.868900 -9.590400 8.570000
7.426910 0.164914 17.911000 -10.123200 5.810000
-7.388530 1.975560 17.818500 -9.856800 7.990000
7.344090 0.229878 18.409200 -10.212000 6.600000
-7.572610 1.424050 18.262400 -9.856800 9.510000
7.503740 0.234875 18.809400 -10.212000 6.080000
7.503740 0.234875 18.809400 -10.123200 15.880000
7.663400 0.239872 19.209600 -10.123200 16.930000
5.006300 1.481410 20.902900 -10.567200 7.970000
4.818390 1.511040 21.387800 -10.567200 5.660000
7.540970 -1.053060 20.614700 -10.300800 6.620000
5.087730 -1.004480 21.798400 -10.567200 6.930000
17.793700 1.499820 14.237100 -7.104000 7.180000
5.185570 -1.023800 22.217600 -10.567200 6.950000
-7.544960 1.217800 21.520900 -10.123200 4.580000
-8.450200 1.217800 21.181900 -9.945600 7.720000
17.960500 1.528120 14.714300 -7.192800 5.530000
6.625330 -1.043120 22.281000 -10.478400 9.430000
-7.856090 1.240780 21.867100 -10.034400 5.710000
7.705660 -0.915972 22.393100 -10.389600 8.080000
-8.130180 1.263760 22.225400 -10.034400 6.220000
7.669800 -0.932626 22.860000 -10.389600 9.900000
6.037840 -0.949280 23.788700 -10.567200 9.760000
7.806760 -0.949280 23.268200 -10.389600 7.550000
7.302220 -0.965934 23.882100 -10.567200 11.210000
7.431110 -0.668249 24.303600 -10.478400 5.690000
5.183920 -1.697910 25.272000 -10.656000 7.030000
7.699800 -0.679576 24.671500 -10.478400 9.530000
6.517670 -3.440000 25.679200 -10.567200 6.130000
18.251200 1.470550 20.621700 -8.347200 7.570000
18.536400 1.493530 20.943900 -8.347200 4.540000
7.553640 -3.692330 26.716800 -10.478400 5.240000
18.821600 1.516510 21.266100 -8.347200 7.270000
7.348520 -2.043200 27.397500 -10.567200 4.130000
18.149400 2.163200 22.347500 -8.613600 6.730000
5.954050 -1.717780 28.197400 -10.567200 8.840000
18.253100 2.014720 22.832600 -8.702400 9.260000
18.525400 1.952600 23.173200 -8.702400 8.930000
6.366670 -0.068965 29.042400 -10.656000 10.180000
18.793900 1.980900 23.509000 -8.702400 4.550000
6.458940 -0.069964 29.463300 -10.656000 6.410000
6.551220 -0.070964 29.884200 -10.656000 6.920000
18.243300 2.022650 26.599100 -9.146400 8.410000
18.486600 2.049610 26.953700 -9.057600 5.600000
-8.160130 0.795185 32.150400 -10.478400 6.770000
18.729800 2.076580 27.308400 -9.057600 9.710000
-7.195060 0.805513 32.821100 -10.478400 8.660000
18.973100 2.103550 27.663000 -9.146400 7.790000
-7.479340 0.815840 33.199300 -10.567200 6.760000
9.178720 1.438850 33.196400 -10.567200 9.250000
7.473440 -0.404785 34.091000 -10.567200 12.740000
7.565700 -0.409782 34.511900 -10.567200 5.680000
18.908300 2.044990 33.302000 -9.590400 6.800000
19.120800 2.067960 33.676200 -9.590400 10.400000
-26.541500 1.409650 29.412800 -7.814400 5.580000
18.814000 2.022090 34.835300 -9.679200 9.650000
-27.115200 1.424970 29.472700 -7.814400 6.310000
-27.406700 1.440300 29.789600 -7.814400 9.100000
19.223000 2.066050 35.592600 -9.679200 4.910000
-27.695100 1.582130 30.103000 -7.814400 8.090000
19.421800 2.309260 35.960700 -9.679200 9.030000
19.836000 2.333570 36.225200 -9.679200 9.620000
19.268000 2.131990 37.029900 -9.768000 6.390000
19.466600 2.153970 37.411600 -9.768000 10.430000
19.373400 2.175950 37.943800 -9.856800 13.350000
19.572100 2.064820 38.333000 -9.856800 17.700000
19.468800 2.085470 38.867500 -9.856800 15.720000
19.658600 2.241880 39.246300 -9.945600 19.620000
19.851300 2.263860 39.631100 -9.945600 17.110000
19.571400 1.765330 41.232100 -9.945600 11.950000
19.753600 1.924460 41.615900 -9.945600 6.650000
19.935500 2.086240 41.999200 -9.945600 10.960000
19.219800 1.960430 42.810700 -10.034400 5.780000
19.728500 1.978420 43.052700 -10.034400 7.240000
19.907900 1.996400 43.444100 -10.034400 7.130000
20.087200 2.014390 43.835500 -10.034400 9.860000
20.266600 2.032370 44.226900 -10.034400 10.700000
19.411300 1.898560 45.084700 -10.123200 11.710000
10.237100 0.574694 48.481100 -10.656000 8.330000
19.931500 1.915210 45.327900 -10.123200 6.390000
10.043200 0.579692 48.961600 -10.656000 7.200000
20.102300 2.086330 45.716300 -10.123200 6.840000
10.129800 0.584689 49.383700 -10.656000 7.310000
20.272900 2.260090 46.104300 -10.123200 15.860000
10.216400 0.589686 49.805800 -10.656000 8.620000
19.817200 2.279410 46.769900 -10.123200 7.470000
19.985100 2.298720 47.166200 -10.123200 6.590000
11.722400 -3.714900 50.224500 -10.656000 16.210000
20.155800 2.158270 47.568900 -10.123200 7.150000
8.385660 -3.263200 51.356600 -10.656000 8.970000
20.323700 2.176260 47.965300 -10.123200 10.350000
7.933400 -12.598400 50.417500 -10.656000 14.710000
8.976310 -12.701600 50.667200 -10.744800 14.440000
20.070000 2.065100 49.475900 -10.212000 9.800000
20.234200 1.915290 49.880700 -10.212000 8.670000
20.271600 1.311540 50.814300 -10.212000 7.020000
20.432600 1.151330 51.217900 -10.212000 15.670000
20.592300 1.160320 51.618100 -10.212000 6.860000
20.751900 1.169320 52.018200 -10.212000 12.410000
20.117300 2.264950 54.994600 -10.300800 6.610000
20.265200 2.281600 55.399000 -10.300800 6.140000
20.413200 2.298260 55.803300 -10.300800 6.950000
20.561100 2.314910 56.207700 -10.300800 5.460000
20.709000 2.331560 56.612100 -10.300800 6.630000
20.088300 2.160440 57.299100 -10.300800 9.600000
20.230800 2.175770 57.705500 -10.300800 8.530000
20.370900 2.381530 58.105200 -10.300800 8.210000
20.515700 2.206410 58.518300 -10.300800 9.440000
20.317300 2.221730 59.043100 -10.389600 6.530000
20.452500 2.625900 59.436100 -10.389600 10.800000
20.592600 2.643880 59.843200 -10.389600 15.360000
20.735200 2.464800 60.257700 -10.389600 15.280000
-9.611060 2.514760 64.303000 -10.656000 10.520000
-9.675830 2.328990 64.736300 -10.656000 10.670000
-9.739480 2.344310 65.162200 -10.656000 18.050000
21.298900 2.322410 68.245300 -10.389600 9.510000
21.429300 2.113950 68.663000 -10.389600 12.970000
21.557600 2.126610 69.074100 -10.389600 16.400000
21.685900 2.139270 69.485300 -10.389600 8.200000
21.794600 1.145710 74.877100 -10.478400 7.730000
21.335600 0.666986 75.462800 -10.478400 8.220000
-17.245600 -2.616210 78.667700 -10.478400 12.620000
-17.714600 0.994471 83.893500 -10.567200 5.620000
-17.315900 0.999469 84.416500 -10.567200 6.380000
22.056500 2.086070 84.175000 -10.567200 6.080000
22.655900 1.825940 84.468000 -10.567200 9.030000
22.767500 1.834930 84.884100 -10.567200 7.610000
23.104900 1.310290 86.141900 -10.567200 5.320000
23.217400 1.039450 86.561600 -10.567200 6.390000
22.261000 0.489748 87.706700 -10.567200 7.210000
22.366500 0.773263 88.122500 -10.567200 7.270000
22.472500 0.776928 88.540100 -10.567200 5.230000
22.063900 0.780593 89.086800 -10.567200 9.420000
22.678800 2.210000 89.353000 -10.567200 5.730000
22.784800 2.220320 89.770500 -10.567200 11.110000
22.889400 2.446470 90.182800 -10.567200 11.460000
23.207300 2.480450 91.435300 -10.567200 12.480000
-54.304200 -17.358300 112.166000 -9.590400 6.280000
-54.490100 -17.417700 112.550000 -9.590400 8.740000
-54.676100 -17.477100 112.934000 -9.590400 11.400000
-56.066600 -19.415300 111.931000 -9.412800 9.790000
-56.257300 -19.481300 112.312000 -9.412800 5.930000
-56.448000 -19.547300 112.693000 -9.412800 8.530000
21.981000 1.794050 153.113000 -10.744800 10.600000
22.041300 2.278760 153.533000 -10.744800 8.620000
22.100100 3.247110 153.943000 -10.744800 6.520000
-60.836000 -14.049900 149.971000 -9.856800 7.060000
-60.127200 -14.087200 150.719000 -9.856800 8.100000
-60.286200 -14.124500 151.118000 -9.945600 7.260000
-60.445300 -14.161700 151.517000 -9.945600 5.130000
-62.647800 -14.199000 151.084000 -9.768000 5.980000
-5.272730 1.983940 170.975000 -10.744800 5.500000
-6.606920 1.988940 171.359000 -10.744800 5.540000
-5.299290 1.993940 171.836000 -10.833600 4.590000
-4.370790 1.484230 174.453000 -10.744800 6.580000
-4.381580 1.487890 174.884000 -10.744800 5.670000
-4.392240 2.033920 175.309000 -10.744800 7.120000
-4.403030 2.038920 175.740000 -10.833600 6.890000
6.454750 1.462370 9.568410 -9.324000 2.940000
6.665820 0.429024 10.047500 -9.235200 8.700000
6.984620 0.405722 10.353900 -9.235200 9.110000
6.375340 -0.619447 11.228500 -9.590400 5.630000
6.942370 -0.640095 11.394200 -9.501600 5.950000
5.811510 -0.575540 12.491000 -9.945600 6.370000
7.069710 -0.862996 11.807000 -9.501600 10.970000
7.290640 -0.889964 12.176000 -9.590400 6.540000
5.056720 -1.941930 14.075200 -10.300800 12.680000
5.201190 -1.997420 14.477300 -10.300800 8.350000
5.345670 -2.052900 14.879500 -10.300800 9.910000
-8.707570 0.468361 13.347200 -8.968800 9.900000
-9.182260 1.428020 12.955100 -8.702400 5.560000
5.578390 -2.108390 15.249600 -10.300800 4.150000
-8.942050 0.531636 13.706600 -8.968800 7.640000
6.851200 1.608710 15.260600 -10.034400 3.800000
6.786760 1.596890 15.762900 -10.034400 3.870000
-8.247170 1.490710 15.061300 -9.324000 5.790000
6.612440 1.636810 16.300800 -10.123200 6.700000
-8.572080 1.527980 15.372200 -9.324000 5.960000
6.773720 1.676740 16.698400 -10.123200 6.210000
-8.577970 1.300220 15.882600 -9.412800 6.380000
6.863620 -0.444065 17.204800 -10.212000 5.010000
-8.162210 1.830740 16.533000 -9.590400 4.460000
-8.789360 1.102450 16.274000 -9.412800 4.270000
6.511540 -0.454392 17.800600 -10.300800 6.630000
-8.352030 1.873320 16.917500 -9.590400 4.350000
-8.993760 1.128090 16.652500 -9.412800 3.960000
7.184660 -0.164914 18.009600 -10.300800 5.310000
7.344090 0.229878 18.409200 -10.300800 11.550000
7.503440 0.297504 18.808700 -10.300800 17.130000
7.663080 0.303834 19.208800 -10.300800 18.130000
6.537030 -1.826120 19.993400 -10.478400 5.900000
7.128010 -0.049974 20.331600 -10.389600 7.860000
-7.524830 1.996110 20.089300 -10.123200 6.400000
-8.107880 2.036040 20.323800 -10.034400 3.430000
4.780110 -1.937920 21.805000 -10.656000 5.340000
-8.273100 1.886140 20.738000 -10.034400 8.250000
4.872030 -1.975190 22.224400 -10.567200 7.020000
7.081550 -1.815230 22.090400 -10.478400 9.530000
7.359570 -0.915972 22.509200 -10.478400 4.070000
7.357820 -1.156300 22.952200 -10.478400 9.270000
-7.495030 0.783463 22.923500 -10.212000 7.380000
7.490290 -1.101070 23.365400 -10.478400 7.900000
-7.493870 0.797454 23.376600 -10.123200 9.110000
7.300330 -1.120390 23.875900 -10.478400 8.860000
-7.624540 0.888693 23.784200 -10.123200 9.260000
4.200530 -3.384520 25.725400 -10.656000 8.680000
18.239600 1.645090 18.854900 -8.080800 9.410000
5.714220 -1.280190 26.066100 -10.656000 6.300000
5.602080 -1.300840 26.530500 -10.656000 8.440000
17.895800 1.321490 20.940800 -8.436000 7.060000
4.794990 -1.187050 28.007100 -10.656000 9.500000
6.176760 -1.205040 28.176000 -10.656000 8.230000
18.009200 1.294240 22.527500 -8.791200 7.320000
7.421550 -1.132470 28.323100 -10.567200 6.850000
7.144640 -0.873429 28.847700 -10.656000 7.260000
6.854680 -0.536365 29.368900 -10.656000 7.110000
7.925180 -0.354811 29.547500 -10.656000 7.100000
6.550790 -0.354811 29.882200 -10.656000 7.100000
-7.863870 -0.167914 30.011200 -10.478400 9.220000
18.094500 9.214100 23.456900 -9.057600 7.130000
18.345800 9.342080 23.782700 -8.968800 9.200000
8.183070 0.394790 33.040600 -10.567200 7.890000
6.582600 0.394790 33.396300 -10.567200 6.900000
8.480370 -0.186571 33.412100 -10.567200 6.220000
18.703700 1.699900 32.941600 -9.679200 5.760000
18.658900 1.719210 33.460700 -9.679200 8.110000
18.868500 1.738530 33.836700 -9.679200 9.660000
19.078200 1.757850 34.212700 -9.679200 6.630000
18.545000 2.022090 34.979200 -9.768000 7.890000
19.018500 2.044070 35.213900 -9.768000 13.980000
-27.115200 1.424970 29.472700 -7.814400 6.420000
-27.409600 1.315100 29.792700 -7.814400 7.980000
19.427500 2.088030 35.971200 -9.768000 15.270000
19.632000 2.110010 36.349800 -9.768000 12.100000
19.265700 2.228810 37.025400 -9.856800 10.080000
19.466600 2.153970 37.411600 -9.856800 8.400000
19.665300 2.175950 37.793400 -9.856800 17.840000
-8.166980 1.043040 42.735000 -10.656000 12.390000
19.243800 2.085470 38.979400 -9.945600 17.770000
-5.933660 1.043040 43.101900 -10.656000 12.390000
19.431400 2.241880 39.359300 -9.945600 8.270000
19.621900 2.263860 39.745200 -9.945600 10.040000
19.812400 2.285840 40.131100 -9.945600 7.870000
19.558200 2.435600 41.204200 -10.034400 11.330000
19.745100 2.351780 41.598000 -10.034400 5.250000
19.603000 2.481560 42.134000 -10.034400 6.410000
19.728500 1.978420 43.052700 -10.034400 20.290000
19.572400 1.996400 43.596200 -10.034400 15.700000
20.087200 2.014390 43.835500 -10.034400 5.530000
20.266600 2.032370 44.226900 -10.034400 5.180000
19.406300 2.202140 45.073000 -10.123200 11.560000
9.582560 0.421447 48.616300 -10.744800 7.170000
19.579100 2.068350 45.474500 -10.123200 5.710000
9.665590 0.579692 49.037500 -10.744800 10.430000
19.749400 2.086330 45.869900 -10.123200 14.700000
9.748520 0.740596 49.458300 -10.656000 11.080000
19.919600 2.104320 46.265300 -10.123200 17.450000
9.831840 0.746926 49.881000 -10.656000 9.520000
19.458700 2.122300 46.927500 -10.123200 15.680000
19.618200 2.457140 47.312000 -10.123200 8.750000
19.783100 2.477790 47.709600 -10.123200 9.060000
19.947900 2.498440 48.107200 -10.123200 13.020000
-24.409600 -1.692840 46.041000 -9.412800 16.140000
19.905600 2.212230 49.070800 -10.212000 8.450000
-24.819000 -1.270230 46.813200 -9.501600 10.870000
20.067500 2.230220 49.469800 -10.212000 7.330000
20.229300 2.248200 49.868700 -10.212000 15.030000
20.436800 0.298513 51.228400 -10.212000 7.220000
20.596500 0.300845 51.628600 -10.212000 6.900000
20.117300 2.264950 54.994600 -10.300800 12.530000
20.265200 2.281600 55.399000 -10.300800 11.160000
20.413200 2.298260 55.803300 -10.300800 5.550000
20.561100 2.314910 56.207700 -10.300800 6.530000
20.709000 2.331560 56.612100 -10.300800 9.420000
20.529400 2.160440 57.142600 -10.389600 9.960000
20.675000 2.175770 57.547900 -10.389600 14.500000
20.820600 2.191090 57.953200 -10.389600 14.400000
20.966200 2.206410 58.358400 -10.389600 9.270000
-9.240260 2.313670 64.364900 -10.744800 7.520000
21.826300 2.101290 68.085600 -10.478400 10.140000
21.957800 2.113950 68.495800 -10.478400 6.430000
22.091200 1.902810 68.911800 -10.478400 5.560000
22.224000 1.745280 69.326100 -10.478400 6.690000
-17.708800 -1.765930 71.502400 -10.478400 6.280000
-17.811400 -1.948120 71.916400 -10.478400 6.490000
-17.514900 -1.910510 77.745100 -10.478400 7.500000
21.813700 1.709010 78.893000 -10.567200 12.140000
-15.108700 -0.468759 85.281600 -10.656000 7.770000
22.171300 0.743945 84.613000 -10.567200 6.640000
22.770900 1.019460 84.896900 -10.567200 5.930000
21.835800 1.029450 86.031600 -10.567200 12.710000
21.941800 1.034450 86.449200 -10.567200 10.770000
22.047800 1.039450 86.866800 -10.567200 8.010000
21.848100 2.670920 88.215400 -10.656000 10.790000
22.465600 2.401170 88.512700 -10.567200 4.840000
22.574400 1.915880 88.941600 -10.567200 8.980000
22.681700 1.639740 89.364500 -10.567200 8.280000
22.787700 1.647410 89.782100 -10.567200 6.590000
22.893700 1.655070 90.199700 -10.567200 9.640000
22.570800 3.049910 91.133200 -10.567200 10.840000
-54.737400 -19.481300 113.060000 -9.412800 6.260000
-54.922900 -19.547300 113.444000 -9.412800 8.700000
21.979000 2.750790 153.099000 -10.744800 5.020000
22.040200 2.758450 153.525000 -10.744800 6.230000
22.102600 2.285090 153.960000 -10.833600 5.420000
-59.069500 -10.194100 151.449000 -9.945600 5.150000
-59.201600 -11.229100 151.788000 -9.945600 9.420000
-60.529000 -11.258700 151.726000 -9.945600 9.240000
-5.272890 1.454910 170.980000 -10.833600 5.140000
-5.286170 1.458570 171.411000 -10.833600 4.110000
-5.379150 1.484230 174.425000 -10.833600 9.640000
-5.392430 1.487890 174.856000 -10.833600 10.470000
-5.405540 2.033920 175.281000 -10.833600 6.490000
-5.418990 1.495220 175.717000 -10.833600 4.620000
-48.154600 -16.136900 179.535000 -10.300800 7.500000
-48.265800 -16.174200 179.949000 -10.300800 6.520000
-48.402000 -15.056100 180.457000 -10.300800 4.350000
-47.467000 -15.090700 181.150000 -10.300800 4.420000
-2.064200 1.453150 10.472500 2.664000 9.950000
-2.142990 1.648480 10.872300 2.664000 14.380000
6.293390 1.640670 9.646680 -9.412800 7.320000
6.514740 1.640670 9.498600 -9.235200 5.730000
-2.222510 1.809700 11.275700 2.664000 14.450000
6.497450 0.866811 10.129200 -9.412800 9.640000
6.729900 0.866811 9.976280 -9.235200 8.920000
-2.237200 1.876720 11.706500 2.664000 11.220000
6.938180 1.493990 10.285000 -9.324000 9.410000
-2.170510 1.157750 12.251600 2.664000 9.970000
6.610370 -1.237470 11.039900 -9.590400 6.100000
7.177430 1.545510 10.639700 -9.324000 7.210000
-1.831380 1.008460 12.756800 2.664000 6.650000
7.051060 -1.319970 11.775900 -9.590400 8.550000
-2.137330 1.033170 13.582900 2.664000 5.450000
7.273540 -1.317440 12.147400 -9.590400 11.850000
-1.636410 0.977730 14.091300 2.752800 6.470000
5.608690 -0.475674 13.526100 -10.212000 10.140000
6.855600 0.656779 12.930900 -9.856800 11.190000
7.606520 0.962150 12.484200 -9.590400 11.490000
5.666160 -0.489664 13.968100 -10.300800 8.640000
7.057240 0.676095 13.311300 -9.856800 11.470000
7.258870 0.695413 13.691600 -9.856800 9.720000
-9.233030 1.628160 12.358600 -8.613600 5.230000
5.240250 -1.820430 14.947100 -10.300800 8.100000
-9.489510 1.673390 12.701900 -8.613600 3.080000
5.501960 -1.819310 15.314500 -10.300800 7.460000
6.416090 1.349860 15.473300 -10.300800 5.170000
6.580600 1.384470 15.870100 -10.212000 6.660000
-8.142720 1.862070 15.076800 -9.501600 5.010000
-7.466780 1.862070 15.422700 -9.501600 3.120000
6.518100 1.636810 16.338700 -10.300800 5.350000
-7.777640 1.854300 15.754000 -9.679200 7.180000
6.551530 1.565240 16.797600 -10.300800 5.970000
-8.060490 1.899530 16.091900 -9.679200 7.410000
-8.892020 1.788170 15.660900 -9.412800 5.590000
-7.244540 1.899530 16.475400 -9.679200 5.850000
6.707510 1.602510 17.197500 -10.300800 7.070000
-7.676150 1.944750 16.751300 -9.768000 6.790000
-8.979890 1.830740 16.103500 -9.412800 6.360000
7.000320 1.595960 17.547500 -10.300800 7.500000
-8.343970 2.048280 16.901200 -9.679200 4.950000
7.184810 0.104946 18.010000 -10.300800 12.860000
-8.533610 2.094830 17.285300 -9.679200 5.000000
7.344320 0.168579 18.409800 -10.300800 18.050000
-7.567690 1.592140 18.250600 -9.945600 6.860000
7.503970 0.172244 18.810000 -10.300800 19.200000
-8.409550 1.626750 18.351800 -9.856800 5.540000
7.663630 0.175908 19.210200 -10.300800 16.180000
-8.150260 1.741050 18.929800 -9.945600 8.910000
5.687010 -2.977520 20.114600 -10.567200 8.010000
-8.329930 1.451780 19.347100 -9.945600 8.050000
-8.506530 1.215400 19.757200 -9.945600 8.490000
-8.111410 1.937920 20.797000 -10.123200 12.120000
-8.267400 1.975190 21.196900 -10.123200 10.290000
4.892670 -0.915972 23.170900 -10.744800 5.980000
-7.528600 8.114880 20.955600 -10.300800 8.980000
5.483410 -0.503707 23.493700 -10.744800 8.450000
5.570500 -1.613020 23.866800 -10.744800 8.240000
6.137470 -1.487030 24.181200 -10.656000 9.020000
4.596250 -2.961420 24.828200 -10.744800 6.250000
4.697850 -1.538310 25.377000 -10.744800 7.640000
4.918010 -2.111310 25.734200 -10.833600 7.680000
7.138540 -1.563950 25.248600 -10.656000 7.790000
5.699360 -2.310600 25.998300 -10.744800 8.990000
5.230100 -2.347870 26.534400 -10.744800 5.220000
17.799500 1.699020 20.426300 -8.524800 5.450000
18.078400 1.811110 20.746500 -8.524800 6.780000
6.523610 0.064967 27.238100 -10.744800 6.120000
18.357000 1.925830 21.066200 -8.524800 5.050000
5.337210 -0.593654 27.927800 -10.744800 9.690000
18.639500 1.955460 21.390300 -8.524800 9.490000
8.598110 -0.758859 27.549800 -10.567200 13.700000
9.914720 -0.758859 27.103800 -10.389600 10.290000
17.984700 1.985090 22.496800 -8.791200 13.130000
18.253100 2.014720 22.832600 -8.791200 9.630000
-8.422420 1.258990 28.935900 -10.478400 5.230000
7.919790 1.182440 29.527400 -10.656000 6.140000
18.150000 8.633320 23.065800 -9.057600 12.890000
7.858110 1.199090 29.989200 -10.656000 5.710000
18.585300 8.754910 23.248100 -9.057600 12.020000
-7.732670 1.215740 30.466200 -10.567200 5.930000
18.877400 8.689680 23.613500 -9.057600 5.420000
8.244410 1.995680 30.737600 -10.656000 6.870000
19.136000 8.808720 23.936900 -9.057600 8.920000
8.355820 2.022650 31.153000 -10.656000 6.430000
-14.306200 1.175190 33.227600 -13.852800 4.550000
-14.476500 1.189190 33.623200 -13.852800 9.110000
-14.648200 1.088620 34.022000 -13.852800 5.350000
18.910600 1.956150 33.306000 -9.768000 4.820000
19.123100 1.978130 33.680300 -9.768000 9.550000
19.341300 1.757850 34.064600 -9.768000 8.160000
19.018500 2.044070 35.213900 -9.856800 9.290000
19.223000 2.066050 35.592600 -9.856800 8.480000
19.427500 2.088030 35.971200 -9.856800 13.810000
-26.403900 -4.894100 30.896600 3.552000 5.290000
19.351300 2.110010 36.500100 -9.856800 15.850000
18.976500 2.357880 37.166500 -9.945600 13.260000
19.172100 2.382190 37.549600 -9.945600 7.120000
19.367800 2.406500 37.932800 -9.945600 8.540000
-6.942820 0.766236 42.520100 -10.744800 13.430000
19.566700 2.297740 38.322500 -9.945600 6.510000
-7.012240 0.773898 42.945300 -10.744800 16.070000
18.939900 2.219910 39.120600 -10.034400 14.320000
19.621900 2.263860 39.745200 -10.034400 6.090000
-5.763510 2.008970 44.396000 -10.833600 7.440000
19.812400 2.285840 40.131100 -10.034400 11.440000
19.245300 2.188710 41.365100 -10.123200 14.600000
19.426800 2.209360 41.755300 -10.123200 9.240000
19.611200 2.086240 42.151600 -10.123200 8.520000
19.393500 2.124870 43.197700 -10.123200 16.560000
-12.622300 1.831940 45.650700 -12.876000 22.060000
19.569800 2.144190 43.590400 -10.123200 6.400000
19.746100 2.163510 43.983100 -10.123200 17.780000
19.922400 2.182820 44.375800 -10.123200 9.830000
9.956980 0.421447 48.541000 -10.833600 5.950000
19.568300 2.642400 45.449400 -10.212000 7.840000
10.043600 0.425112 48.963100 -10.833600 7.970000
19.738500 2.665380 45.844600 -10.212000 6.110000
10.129800 0.584689 49.383700 -10.833600 12.330000
