VERSION .7
FIELDS x y z velocity intensity
SIZE 4 4 4 4 4
TYPE F F F F F
COUNT 1 1 1 1 1
WIDTH 873
HEIGHT 1
VIEWPOINT 0 0 0 1 0 0 0
POINTS 873
DATA ascii
7.362840 -0.503597 9.544840 -10.478400 7.680000
7.625800 -0.521583 9.885730 -10.478400 5.670000
7.177430 1.545510 10.639700 -10.922400 3.210000
7.501200 1.597020 10.936900 -10.922400 3.830000
7.215650 1.606190 11.639800 -11.188800 5.150000
-7.994960 1.675680 12.677700 -10.744800 6.400000
-8.364150 1.477130 13.492500 -10.744800 9.080000
-8.699210 1.466620 13.794500 -10.744800 4.750000
-7.721400 1.608710 14.839300 -11.277600 7.370000
-7.919390 1.649960 15.219700 -11.277600 8.470000
-6.954760 4.285690 15.177100 -11.632800 6.920000
-8.237370 1.691210 15.537200 -11.277600 6.290000
-0.780309 1.378230 17.595800 1.776000 14.190000
-8.597720 0.433738 15.919200 -11.188800 4.640000
-1.525020 1.788170 17.944600 1.776000 10.660000
-0.463416 0.988028 18.496500 1.776000 7.110000
-1.201360 1.420610 18.868100 1.776000 6.350000
-1.228670 1.452900 19.296900 1.776000 7.220000
-7.551600 1.153730 17.822300 -11.721600 8.450000
-0.228338 1.668510 19.749700 1.864800 5.300000
-7.719420 1.179370 18.218300 -11.721600 10.780000
-0.233800 1.079940 20.222100 1.864800 4.480000
-7.238310 1.142480 18.880100 -11.899200 8.920000
-7.887230 1.205010 18.614400 -11.721600 9.480000
8.324900 0.239872 18.932300 -11.988000 10.310000
-1.333350 2.345950 20.941000 1.776000 4.740000
8.498340 0.244870 19.326800 -11.988000 16.410000
8.671770 0.249867 19.721200 -11.988000 18.140000
8.844850 0.322824 20.114800 -11.988000 15.630000
8.284650 1.471520 20.766900 -12.165600 8.570000
8.280580 1.499820 21.230700 -12.165600 8.110000
8.547790 -2.115880 21.071800 -0.444000 8.240000
5.891220 -1.115000 22.482800 -12.343200 6.520000
10.376200 -2.155800 20.715100 -0.621600 5.320000
18.157600 1.669610 17.715800 -9.412800 9.220000
18.465300 1.697910 18.016000 -9.412800 11.020000
8.408020 0.839425 24.434200 -12.254400 4.020000
18.773100 1.726210 18.316300 -9.412800 9.030000
8.440070 -3.112000 25.155800 -12.343200 7.050000
6.615460 1.811110 26.711000 -12.520800 6.990000
6.074140 2.043200 27.707900 -12.520800 5.500000
6.166170 2.074150 28.127800 -12.609600 4.840000
7.034960 1.494590 28.404900 -12.520800 6.480000
9.307030 1.562460 27.739800 -12.343200 8.620000
6.916060 1.516570 28.876700 -12.520800 8.220000
18.393800 1.701560 23.844900 -10.478400 8.570000
7.016290 1.538550 29.295200 -12.520800 8.400000
-14.864900 2.103600 26.657000 -13.053600 6.060000
-15.074300 2.133230 27.032500 -13.053600 10.900000
-14.696100 2.259900 27.719600 -13.231200 10.920000
-15.494400 2.162860 27.289300 -13.053600 9.940000
18.612100 1.700330 25.835200 -10.744800 6.390000
-15.113600 2.290860 27.983700 -13.231200 6.500000
-15.706700 2.192480 27.663100 -13.053600 4.640000
18.863600 1.723300 26.184300 -10.744800 10.580000
7.756890 1.823100 31.319800 -12.520800 7.510000
19.115100 1.746280 26.533400 -10.744800 8.640000
-5.598950 -0.179574 32.703000 -12.609600 6.820000
-6.499620 -0.181906 32.975300 -12.609600 8.530000
-25.278000 1.838190 23.365800 -8.524800 11.990000
-6.267720 1.651860 33.857100 -12.609600 9.010000
-25.594000 1.861170 23.657900 -8.524800 6.630000
-6.346060 1.672510 34.280400 -12.609600 8.700000
19.295800 1.382280 30.081200 -11.100000 8.580000
17.892800 0.857148 30.955300 -10.478400 10.800000
18.108400 0.867475 31.328200 -10.478400 10.060000
-10.768100 1.930100 34.502800 -12.254400 8.340000
19.018000 1.661260 31.761700 -11.277600 6.510000
-9.867130 1.546760 35.686100 -12.343200 8.140000
19.236400 1.796400 32.126400 -11.277600 6.250000
-10.467900 1.564750 35.963100 -12.432000 6.040000
19.457500 1.817040 32.495700 -11.277600 7.910000
-5.381450 1.934170 37.485500 -12.698400 7.320000
-10.588200 1.582730 36.376500 -12.432000 8.040000
19.678600 1.837690 32.865000 -11.277600 9.470000
-5.444940 1.600720 37.927800 -12.698400 6.350000
-5.282860 1.858340 38.374500 -12.698400 13.470000
19.137900 1.259140 33.706400 -11.455200 7.780000
-5.342320 1.757850 38.806500 -12.698400 12.770000
19.350600 1.273130 34.080900 -11.455200 5.450000
19.297100 1.287120 34.605200 -11.455200 7.050000
-10.242100 2.175950 41.354100 -12.432000 6.750000
-21.563400 -0.233213 37.305700 -11.011200 6.350000
-10.586800 2.197930 41.711300 -12.432000 6.360000
-20.902100 -0.235546 38.172200 -11.188800 5.230000
-5.015900 -1.816550 43.192700 -12.698400 5.820000
-9.552490 2.219910 42.401500 -12.520800 6.630000
19.471600 1.951020 38.873100 -11.721600 10.810000
-21.109100 -0.237878 38.550100 -11.100000 7.970000
10.228100 -1.834530 42.705700 -12.609600 9.740000
19.664400 1.970340 39.258000 -11.721600 6.270000
-21.090600 -0.240210 39.050600 -11.188800 6.500000
10.310700 -3.188630 43.050500 -12.609600 6.710000
19.859900 1.852520 39.648200 -11.721600 7.480000
20.052700 1.870500 40.033100 -11.721600 9.120000
10.971000 -1.906470 44.297200 -12.609600 15.660000
19.886100 1.906470 41.074900 -11.810400 9.410000
10.723600 -2.458580 44.774400 -12.609600 10.170000
20.073700 1.924460 41.462400 -11.810400 16.010000
-20.592300 -1.367110 41.710900 -11.366400 10.080000
10.213300 -2.481560 45.334800 -12.609600 11.740000
-21.348900 -1.379770 41.813000 -11.277600 9.120000
11.275300 -2.504540 45.525800 -12.520800 7.110000
-21.554000 -0.109944 42.214700 -11.277600 11.840000
-19.979500 -1.831940 42.943300 -11.544000 11.870000
-21.750000 -0.110943 42.598400 -11.277600 11.280000
10.863200 1.848600 46.543200 -12.698400 10.700000
10.601100 1.566930 47.056000 -12.698400 5.190000
10.053400 1.731420 47.611100 -12.698400 6.470000
19.831400 1.218600 46.803500 -12.076800 7.090000
12.623500 -2.519080 50.969500 -12.609600 7.630000
10.026400 6.935480 52.464600 -12.698400 14.410000
10.498800 -0.629665 53.264900 -12.698400 10.150000
10.582200 -0.634663 53.687700 -12.698400 7.000000
-14.016300 -5.663270 53.491000 -12.343200 6.290000
-14.125000 -5.707170 53.905600 -12.343200 6.560000
-19.245600 -0.134931 54.895500 -11.988000 5.030000
-19.068200 -0.135931 55.413200 -11.988000 8.670000
20.535300 1.597000 57.159000 -12.254400 12.650000
20.679100 1.797490 57.559400 -12.254400 5.380000
20.381700 1.286250 58.136000 -12.343200 12.730000
20.524300 1.295250 58.542500 -12.343200 6.140000
20.666800 1.304240 58.949100 -12.343200 10.740000
21.852800 -0.549713 60.826300 -12.343200 6.730000
21.525900 -0.553378 61.399500 -12.343200 7.020000
21.669200 -0.151922 61.808200 -12.343200 10.890000
21.811500 -0.356817 62.214100 -12.343200 9.340000
-16.815400 -1.590370 64.173000 -12.343200 5.550000
16.137100 2.514430 94.255300 -12.787200 6.970000
16.209800 2.525760 94.679900 -12.787200 6.180000
16.282500 2.537080 95.104500 -12.787200 5.360000
-17.602600 6.965440 95.086400 -12.609600 6.420000
-17.680900 6.996400 95.509000 -12.609600 6.960000
18.360800 0.000000 96.075600 -12.787200 6.160000
-17.759100 7.027360 95.931600 -12.609600 6.300000
18.441000 0.835564 96.495300 -12.787200 8.740000
18.521900 0.839229 96.918600 -12.787200 6.680000
18.602700 0.842894 97.341800 -12.787200 5.780000
-16.698700 6.819950 102.268000 -12.609600 8.220000
-16.764500 7.170020 102.671000 -12.609600 7.700000
-16.833800 7.199640 103.096000 -12.609600 5.370000
-16.304400 7.229270 103.616000 -12.698400 6.770000
28.589000 1.379270 115.433000 -12.609600 5.830000
28.693400 1.015140 115.855000 -12.609600 4.780000
28.796100 1.389260 116.269000 -12.609600 5.700000
19.480800 4.071210 123.802000 -12.787200 7.940000
19.547800 4.085200 124.228000 -12.787200 6.140000
18.653400 4.099190 124.801000 -12.787200 6.290000
-61.847700 -12.655400 121.132000 -11.277600 8.130000
-62.042800 -12.695300 121.514000 -11.277600 9.390000
-63.335900 -13.624100 121.721000 -11.100000 7.200000
-10.097700 1.644130 141.396000 -12.787200 8.540000
-8.239760 1.213030 142.385000 -12.876000 7.430000
-8.364230 1.231360 144.535000 -12.876000 5.510000
-8.388860 1.684100 144.961000 -12.876000 8.750000
-8.413750 1.689100 145.391000 -12.876000 11.990000
-8.438650 1.694100 145.821000 -12.876000 10.670000
26.178200 0.879215 160.324000 -12.787200 4.560000
26.247000 1.385280 160.746000 -12.787200 6.260000
19.732300 3.966690 188.958000 -12.876000 5.460000
19.777000 3.975690 189.386000 -12.876000 9.110000
19.821700 3.984680 189.815000 -12.876000 11.820000
5.753110 -0.251827 5.195860 -8.436000 5.450000
6.072730 -0.265818 5.484510 -8.436000 6.910000
6.101470 -0.459548 6.068840 -8.968800 9.110000
6.323790 -0.333081 5.845400 -8.613600 5.720000
6.344850 -0.482525 6.433710 -9.057600 8.830000
6.595960 -0.188890 6.191940 -8.702400 5.670000
6.581750 -0.505503 6.803800 -9.146400 4.160000
6.847240 -0.197885 6.553070 -8.791200 5.640000
8.279920 2.856880 5.498170 -7.192800 3.840000
7.244370 0.948728 6.696340 -8.702400 3.760000
6.411040 -0.934516 9.663440 -10.567200 6.690000
6.564000 -1.117820 10.061500 -10.656000 9.250000
7.055120 1.235050 11.782700 -10.922400 5.110000
7.738340 1.273640 11.861500 -10.567200 5.470000
-8.341840 1.389430 13.004500 -10.389600 3.850000
-8.079610 0.582247 14.230100 -10.744800 8.150000
-7.347690 1.862070 15.479800 -11.188800 4.670000
16.473300 1.362900 10.938900 -5.860800 3.660000
16.831500 1.392520 11.176700 -5.860800 10.280000
-8.166540 1.093860 17.552900 -11.188800 6.090000
18.348500 1.194820 12.805000 -7.459200 4.760000
18.551500 1.164900 13.268200 -7.548000 5.650000
8.405260 0.183238 19.837000 -11.721600 5.280000
8.573360 0.186903 20.233700 -11.632800 7.090000
18.139700 1.312630 14.514000 -8.169600 5.950000
8.741470 0.190567 20.630400 -11.632800 12.050000
18.475600 1.336940 14.782700 -8.169600 7.380000
9.030970 0.194232 20.975300 -11.632800 17.560000
18.811600 1.361250 15.051500 -8.169600 11.290000
9.201570 0.125935 21.371500 -11.632800 17.640000
19.147500 1.385560 15.320300 -8.169600 12.590000
9.095140 -0.873371 22.798500 -11.721600 10.000000
6.872240 -1.857450 24.854600 -12.076800 7.200000
18.682500 0.860771 22.556300 -9.856800 4.710000
18.735800 0.873429 23.069500 -9.945600 5.400000
8.178260 1.494590 28.097000 -11.988000 6.330000
19.007300 0.886088 23.403900 -9.945600 9.560000
8.846300 1.516570 28.345000 -12.076800 6.090000
19.506700 0.898746 23.551400 -9.945600 8.890000
5.966630 1.516570 29.087700 -12.254400 8.310000
18.550000 1.390830 24.829500 -10.300800 4.870000
6.053100 1.538550 29.509300 -12.254400 9.250000
18.807600 1.410140 25.174300 -10.300800 7.910000
8.837070 1.103210 29.719100 -12.076800 8.930000
19.065200 1.429460 25.519200 -10.300800 14.000000
8.924310 -3.011180 30.012500 -12.076800 10.730000
19.322900 1.448780 25.864000 -10.300800 15.210000
8.635400 -3.052430 30.542900 -12.076800 11.540000
19.123100 1.468090 26.544500 -10.389600 12.000000
8.575510 -2.994170 31.014800 -12.076800 10.810000
18.957900 1.487410 27.189200 -10.478400 5.770000
6.120780 -3.034090 32.027900 -12.165600 8.470000
19.204100 1.506730 27.542300 -10.478400 12.370000
19.450300 1.526040 27.895400 -10.478400 5.750000
19.040700 1.438850 28.700200 -10.656000 11.010000
19.278700 1.456830 29.059000 -10.656000 6.110000
19.511300 1.693160 29.409500 -10.656000 6.000000
19.519200 1.713800 29.919500 -10.656000 9.190000
19.754400 1.734450 30.280000 -10.656000 6.900000
-5.622090 1.398940 35.728900 -12.254400 7.980000
-5.689020 1.415590 36.154300 -12.254400 4.990000
19.214200 1.465550 32.657800 -11.011200 7.410000
19.432500 1.482210 33.028900 -11.011200 7.740000
19.392900 1.498860 33.550500 -11.011200 7.860000
19.605900 1.636690 33.919100 -11.011200 11.940000
19.292800 1.532170 34.597600 -11.188800 15.410000
19.502500 1.548830 34.973600 -11.188800 14.340000
19.712200 1.565480 35.349700 -11.188800 12.010000
-23.414500 -3.663460 36.502200 -10.389600 6.730000
-9.880520 2.085470 42.333100 -12.076800 5.940000
-9.978350 2.106120 42.752300 -12.076800 7.150000
-9.161490 1.852520 43.387300 -12.165600 6.120000
-9.250440 1.870500 43.808600 -12.165600 11.060000
19.825700 1.593520 40.158000 -11.366400 10.430000
10.273300 -2.028290 44.016000 -12.254400 10.590000
12.410500 -2.329800 43.895300 -12.254400 11.980000
11.064500 -2.743310 44.674800 -12.343200 9.080000
20.307400 1.978420 42.782700 -11.455200 14.060000
-7.066640 -1.552940 47.279500 -12.343200 7.310000
19.938100 1.016410 44.410800 -11.632800 5.840000
20.115800 0.873509 44.806500 -11.632800 7.290000
20.103000 1.061380 46.691300 -11.632800 6.110000
20.273400 1.070380 47.087000 -11.632800 6.040000
20.337000 1.088370 47.996700 -11.721600 12.680000
20.505100 1.097360 48.393400 -11.721600 9.280000
20.671700 1.270230 48.786700 -11.721600 6.020000
12.845000 -0.289185 51.863800 -12.254400 14.550000
-17.519900 -1.415780 50.913800 -11.632800 13.130000
13.052200 -0.293849 52.700400 -12.165600 9.160000
20.400100 1.594960 50.289800 -11.721600 7.840000
11.625300 -0.629665 53.030400 -12.254400 8.140000
20.560100 1.776780 50.684100 -11.721600 6.240000
11.305300 -0.634663 53.540000 -12.343200 8.430000
19.889900 1.632930 51.880000 -11.810400 9.030000
20.346000 1.645590 52.165500 -11.810400 7.720000
20.502500 1.658250 52.566700 -11.810400 6.640000
20.660800 1.495070 52.972600 -11.810400 7.060000
-18.922600 1.394160 54.990100 -11.721600 8.070000
-19.062800 1.404480 55.397500 -11.721600 6.350000
-19.204300 1.232280 55.808700 -11.721600 7.040000
-19.346600 0.873524 56.222200 -11.721600 16.000000
-28.791100 1.911420 58.318000 -11.100000 11.470000
-28.984300 1.721590 58.709300 -11.100000 9.860000
-16.967700 0.000000 63.260800 -11.988000 8.660000
-29.176700 1.580040 59.098900 -11.100000 7.850000
-29.367400 1.590370 59.485200 -11.100000 6.330000
12.019400 2.451570 67.843900 -12.343200 6.540000
-6.671090 1.823530 69.029300 -12.432000 7.370000
16.830500 2.835480 95.000600 -12.343200 7.410000
16.907100 2.548410 95.432900 -12.343200 8.920000
16.427900 2.559730 95.953600 -12.343200 7.350000
-17.848500 6.148840 96.414400 -12.165600 7.660000
-17.923200 6.480360 96.818100 -12.165600 8.950000
-18.001500 6.508660 97.240800 -12.165600 7.180000
-18.079700 6.536960 97.663600 -12.165600 5.520000
-16.311000 6.580340 103.658000 -12.254400 5.260000
-16.374600 6.933140 104.062000 -12.254400 5.750000
29.467700 1.389260 116.101000 -12.254400 4.710000
29.573700 1.394260 116.519000 -12.254400 6.180000
29.681300 0.652998 116.942000 -12.254400 6.940000
18.661200 1.854660 124.853000 -12.343200 4.710000
18.725700 1.469220 125.284000 -12.343200 7.400000
18.789900 1.081100 125.714000 -12.343200 5.880000
-62.467800 -11.925700 122.346000 -10.922400 9.010000
-62.590900 -13.666700 122.588000 -10.922400 7.520000
-8.980730 0.764940 141.048000 -12.432000 7.180000
-9.008110 0.767272 141.478000 -12.432000 9.420000
-9.035490 0.769604 141.908000 -12.432000 7.250000
-9.059870 3.748990 142.290000 -12.432000 7.250000
-9.088400 2.986260 142.739000 -12.432000 10.170000
-8.413750 1.689100 145.391000 -12.432000 10.670000
-8.439090 0.790593 145.829000 -12.432000 8.310000
-8.463980 0.792926 146.259000 -12.432000 5.220000
-8.488880 0.795258 146.689000 -12.432000 6.970000
19.819200 5.017530 189.791000 -12.432000 5.280000
19.864000 5.028860 190.219000 -12.432000 9.370000
19.908700 5.040180 190.648000 -12.432000 8.420000
5.747960 -0.413593 5.191200 -8.613600 1.290000
5.687560 -0.413593 5.257300 -8.524800 1.640000
6.644840 -0.048975 6.142170 -8.702400 4.370000
6.961260 -0.051307 6.434660 -8.702400 5.710000
7.127160 0.948728 6.820960 -8.968800 4.150000
7.185880 0.998057 7.963270 -9.501600 5.030000
7.021580 1.210350 8.645730 -9.945600 3.800000
7.473320 1.037980 8.281800 -9.501600 4.220000
7.152390 1.256900 9.089580 -10.034400 3.700000
6.720210 -1.080670 9.961930 -10.567200 7.300000
6.800350 -1.119260 10.423800 -10.567200 8.690000
7.504740 1.505810 10.417200 -10.478400 6.390000
7.503950 1.556000 10.940900 -10.567200 6.750000
7.216270 1.304370 13.178600 -11.100000 5.050000
7.422450 1.341640 13.555100 -11.100000 5.200000
-7.400450 1.020940 16.484000 -11.366400 7.410000
7.749990 1.186620 17.262600 -11.544000 9.100000
-7.257530 0.674181 17.502600 -11.455200 5.690000
-6.829490 1.294490 19.480200 -11.721600 4.740000
17.824400 1.646620 12.748300 -7.636800 9.290000
-6.971770 1.321460 19.886000 -11.721600 6.640000
18.173900 1.678900 12.998200 -7.636800 9.520000
8.519790 0.183238 19.788000 -11.632800 10.090000
18.523400 1.711190 13.248200 -7.636800 6.670000
8.573360 0.186903 20.233700 -11.721600 9.380000
17.964100 1.456310 14.717300 -8.258400 14.790000
8.741470 0.190567 20.630400 -11.721600 6.260000
18.296800 1.483270 14.989800 -8.258400 17.590000
8.909570 0.194232 21.027200 -11.721600 11.270000
18.629400 1.510240 15.262400 -8.258400 15.770000
8.132950 -1.958680 21.712800 -11.721600 5.520000
8.293390 -1.629550 22.141100 -11.899200 6.860000
8.444180 -1.659180 22.543700 -11.899200 6.370000
8.123620 -0.588644 23.171500 -11.988000 9.270000
6.970600 -2.597100 25.210400 -12.076800 6.280000
18.541500 1.342140 20.949700 -9.590400 5.210000
18.826700 1.362780 21.272000 -9.590400 7.110000
18.544500 1.582510 24.822100 -10.300800 8.380000
18.804900 1.507320 25.170700 -10.300800 7.870000
7.853750 1.582510 29.972500 -12.254400 8.730000
19.065200 1.429460 25.519200 -10.300800 8.130000
7.710990 -2.647850 30.380800 -12.165600 9.940000
19.322900 1.448780 25.864000 -10.300800 5.920000
7.812930 -2.856040 30.782400 -12.254400 15.680000
18.714200 1.366910 26.839700 -10.567200 8.420000
8.158730 -2.894640 31.136400 -12.254400 9.490000
18.957900 1.487410 27.189200 -10.567200 12.870000
19.204100 1.506730 27.542300 -10.567200 7.200000
19.452900 1.420860 27.899200 -10.567200 5.640000
19.278700 1.456830 29.059000 -10.744800 9.480000
19.516700 1.474820 29.417700 -10.744800 7.510000
19.754700 1.492810 29.776500 -10.744800 4.740000
19.038300 1.641950 31.246600 -10.922400 11.270000
19.262300 1.661260 31.614200 -10.922400 9.400000
-5.689020 1.415590 36.154300 -12.254400 9.330000
19.486200 1.680580 31.981800 -10.922400 8.150000
18.966100 1.231160 32.812100 -11.100000 11.870000
19.436800 1.245150 33.036200 -11.100000 7.030000
19.655200 1.259140 33.407400 -11.100000 11.680000
19.295000 1.409650 34.601500 -11.188800 8.610000
19.502500 1.548830 34.973600 -11.188800 6.190000
19.712200 1.565480 35.349700 -11.188800 12.700000
-22.056100 -1.215210 34.974700 -10.478400 4.830000
-22.281400 -1.486260 35.331900 -10.478400 15.000000
-21.251100 -2.064820 37.428200 -10.744800 13.270000
-9.457910 2.197930 41.981700 -12.165600 6.760000
-9.552490 2.219910 42.401500 -12.165600 5.810000
-9.400820 2.106120 42.883000 -12.165600 9.190000
-9.158950 2.126770 43.375300 -12.165600 8.450000
19.637100 1.441010 39.776000 -11.455200 8.450000
-9.255310 1.177930 43.831600 -12.165600 6.990000
19.825700 1.593520 40.158000 -11.455200 12.500000
9.334230 -2.412630 44.205400 -12.343200 6.320000
20.016300 1.608840 40.544100 -11.455200 13.700000
9.414220 -3.140590 44.584200 -12.343200 12.890000
-10.954600 -3.140590 44.230900 -12.165600 9.670000
20.206900 1.624160 40.930200 -11.455200 9.070000
11.671500 -2.351780 44.542500 -12.343200 5.500000
19.764000 1.211910 41.637800 -11.544000 15.190000
19.948700 1.223240 42.027000 -11.544000 10.710000
19.763900 0.708947 44.022600 -11.632800 14.370000
-19.078400 -1.268540 44.311500 -11.366400 8.480000
19.940300 0.715277 44.415700 -11.632800 9.630000
10.792300 1.291190 47.905000 -12.343200 7.480000
20.114600 1.025400 44.803800 -11.632800 10.490000
10.887000 1.302520 48.325200 -12.343200 7.120000
-20.901100 -0.727936 44.924000 -11.277600 9.050000
19.760900 1.197940 45.896700 -11.632800 9.430000
19.931300 1.208270 46.292400 -11.632800 8.620000
20.101600 1.218600 46.688100 -11.632800 7.820000
-18.835000 1.218600 47.213300 -11.455200 9.930000
20.270800 1.347820 47.081000 -11.632800 8.310000
19.965100 1.249580 48.148700 -11.721600 11.580000
20.130100 1.259900 48.546600 -11.721600 7.320000
20.671700 1.270230 48.786700 -11.721600 7.660000
20.236300 1.748800 49.885900 -11.721600 8.370000
20.398200 1.762790 50.285000 -11.721600 10.390000
20.555500 2.115060 50.672900 -11.721600 8.680000
20.253600 -0.133932 54.071700 -11.899200 8.810000
-19.239000 1.529040 54.876600 -11.810400 10.030000
-19.381500 1.540370 55.283100 -11.810400 6.930000
-19.525200 1.414810 55.692900 -11.810400 6.640000
-19.347400 0.689633 56.224500 -11.810400 4.620000
20.574200 0.879853 56.243700 -11.988000 6.550000
-18.612300 0.694631 56.925600 -11.810400 8.450000
-29.189600 1.340220 57.169400 -11.011200 17.720000
-29.385500 1.349210 57.553100 -11.011200 15.270000
-28.531000 1.721590 58.930900 -11.100000 9.400000
-28.531000 1.721590 58.930900 -11.100000 5.170000
-29.175000 1.732920 59.095500 -11.100000 6.150000
15.373600 0.000000 83.045400 -12.432000 7.020000
15.934200 0.000000 83.378400 -12.343200 6.420000
16.015100 0.000000 83.801600 -12.343200 5.430000
16.908100 2.323590 95.438500 -12.432000 6.770000
16.983200 2.333920 95.862700 -12.432000 6.900000
-17.763000 6.725590 95.952500 -12.254400 5.960000
-17.841200 6.755220 96.375200 -12.254400 5.560000
-17.919500 6.784850 96.797900 -12.254400 6.460000
-17.997700 6.814480 97.220600 -12.254400 10.010000
19.169300 0.552716 100.307000 -12.432000 6.060000
19.250200 0.555048 100.730000 -12.432000 7.040000
19.328300 1.831300 101.138000 -12.432000 6.820000
29.575300 0.650665 116.525000 -12.254400 6.930000
29.681300 0.652998 116.942000 -12.254400 8.460000
29.787300 0.655330 117.360000 -12.254400 5.940000
18.724900 1.860990 125.279000 -12.432000 7.580000
19.756900 1.867310 125.557000 -12.432000 8.840000
-63.514100 -14.092300 122.063000 -10.922400 8.970000
-63.691400 -14.563000 122.404000 -10.922400 7.070000
-8.190270 0.000000 141.529000 -12.432000 5.910000
-8.215160 0.000000 141.959000 -12.432000 7.160000
-8.239500 1.654120 142.380000 -12.432000 6.630000
-8.264400 1.659120 142.810000 -12.432000 6.040000
-8.289290 1.664120 143.240000 -12.432000 7.350000
-7.595990 0.790593 145.875000 -12.432000 8.380000
-7.618390 0.792926 146.306000 -12.432000 4.660000
-7.640800 0.795258 146.736000 -12.432000 7.430000
-7.663040 1.253350 147.163000 -12.520800 7.470000
26.317400 0.378807 161.176000 -12.432000 6.610000
25.452200 0.379806 161.751000 -12.432000 8.180000
25.518900 0.888543 162.175000 -12.432000 7.020000
19.868700 2.810470 190.264000 -12.520800 7.690000
19.912400 3.409750 190.683000 -12.520800 7.680000
5.634620 -0.537672 5.915280 -9.235200 1.990000
5.680050 -0.537672 5.871680 -9.057600 1.320000
5.931180 -0.565971 6.226610 -9.235200 3.650000
6.281510 -0.510469 6.493430 -9.235200 3.050000
7.207130 1.462370 9.015300 -9.945600 5.220000
6.777770 -1.405420 9.882090 -10.567200 7.370000
7.097770 -1.405420 9.654820 -10.389600 6.720000
7.019830 -1.455610 10.235000 -10.567200 9.810000
-7.901390 1.647350 9.539750 -9.590400 6.650000
7.343280 -1.505810 10.531700 -10.478400 10.640000
7.829910 -1.664520 10.150300 -10.212000 10.630000
7.555370 0.030984 11.015900 -10.478400 10.060000
8.077040 0.030984 10.639300 -10.212000 10.520000
7.886500 0.031984 11.310800 -10.478400 6.860000
8.252600 0.074628 11.046300 -10.300800 6.470000
-7.898080 1.656390 11.708000 -10.300800 5.230000
-8.057190 1.492640 12.144700 -10.300800 8.380000
-8.306310 1.304370 12.520200 -10.300800 7.930000
-8.284260 0.948013 14.590500 -10.833600 8.390000
-8.267410 0.879170 15.098200 -10.833600 5.750000
-6.898110 1.788170 16.635800 -11.455200 5.410000
-7.754700 0.699469 16.337200 -11.188800 6.820000
-6.926850 0.699469 16.705100 -11.455200 6.490000
-7.810190 0.716123 16.786900 -11.277600 7.940000
7.709920 0.887874 16.825000 -11.544000 5.970000
-7.989750 0.849949 17.172900 -11.277600 7.330000
-6.487230 1.698190 17.734100 -11.632800 4.350000
-8.108850 0.949819 18.061900 -11.366400 4.190000
-6.523660 2.019460 18.607800 -11.721600 6.960000
-6.690820 1.079940 19.084600 -11.721600 6.170000
-7.393570 1.102910 19.285100 -11.721600 6.490000
-7.395650 1.125890 19.744400 -11.721600 7.160000
8.519520 0.249867 19.787400 -11.810400 9.850000
8.573100 0.254864 20.233100 -11.810400 16.810000
8.741470 0.190567 20.630400 -11.810400 18.300000
8.909570 0.194232 21.027200 -11.810400 14.900000
7.091890 -1.312630 22.122600 -12.076800 8.230000
8.746370 0.197897 21.561300 -11.721600 9.640000
7.353350 -1.336940 22.490200 -12.076800 8.610000
6.106700 -1.361250 23.305200 -12.165600 7.630000
18.544500 1.582510 24.822100 -10.300800 8.170000
18.802000 1.604490 25.166900 -10.300800 9.100000
19.059600 1.626470 25.511600 -10.300800 15.160000
9.341050 -2.526650 29.930300 -12.165600 10.020000
19.317100 1.648440 25.856400 -10.300800 15.980000
9.469000 -2.561260 30.340300 -12.254400 12.360000
5.121890 -2.561260 31.368200 -12.254400 12.290000
18.498800 1.670420 26.971500 -10.567200 9.390000
18.742200 1.692400 27.326400 -10.567200 8.970000
18.985600 1.714380 27.681300 -10.567200 14.320000
19.231900 1.631210 28.040500 -10.567200 8.020000
-6.308660 1.510790 35.609500 -12.343200 14.320000
19.510400 1.432250 31.472900 -10.922400 6.450000
-6.176850 1.302400 36.078400 -12.343200 15.240000
19.737200 1.448900 31.838900 -10.922400 5.490000
-5.968620 1.203180 36.553800 -12.343200 9.320000
19.175000 1.600720 33.173600 -11.100000 11.750000
19.390500 1.618700 33.546300 -11.100000 7.740000
19.605900 1.636690 33.919100 -11.100000 11.750000
19.292800 1.532170 34.597600 -11.188800 13.580000
19.502500 1.548830 34.973600 -11.188800 10.800000
19.712200 1.565480 35.349700 -11.188800 6.870000
19.646000 1.582130 35.878200 -11.188800 11.590000
-19.973400 -1.253180 37.673500 -10.922400 4.990000
-21.622800 -1.253180 36.751600 -10.744800 5.600000
-9.784100 1.931700 41.920000 -12.165600 9.030000
-14.154900 1.278500 41.134800 -12.520800 5.600000
-9.555320 1.951020 42.414100 -12.165600 8.620000
-14.295000 1.291160 41.542100 -12.520800 5.320000
19.825700 1.593520 40.158000 -11.455200 8.600000
20.016300 1.608840 40.544100 -11.455200 7.750000
20.206900 1.624160 40.930200 -11.455200 12.320000
20.397600 1.639490 41.316400 -11.455200 8.800000
-19.562000 -0.980429 42.689200 -11.277600 7.550000
-19.741400 -0.989424 43.080900 -11.277600 4.730000
-19.923100 -0.702617 43.477300 -11.277600 5.220000
-21.512700 -3.047450 43.575200 -11.100000 9.660000
19.765300 0.410453 44.025800 -11.721600 7.720000
19.940300 0.715277 44.415700 -11.721600 5.010000
23.794600 1.034400 43.454500 -11.188800 8.120000
20.116800 0.721606 44.808700 -11.721600 9.740000
-17.985500 -2.374550 46.113300 -11.544000 6.570000
-22.095800 -2.665380 44.756100 -11.100000 9.530000
-19.646400 -2.415840 46.366800 -11.455200 7.910000
19.933900 0.896496 46.298400 -11.721600 7.470000
20.103000 1.061380 46.691300 -11.810400 7.240000
-14.264500 -4.403610 54.438000 -12.076800 7.630000
20.822300 0.841874 53.386600 -11.899200 9.470000
20.978800 0.848204 53.788000 -11.899200 8.060000
-19.239000 1.529040 54.876600 -11.810400 8.440000
-19.382700 1.404480 55.286400 -11.810400 7.710000
-19.525200 1.414810 55.692900 -11.810400 7.410000
-16.946600 -0.873524 56.991600 -11.899200 8.660000
-17.071200 -0.138929 57.410600 -11.988000 7.650000
-17.972400 0.139929 57.586500 -11.899200 8.690000
-28.532600 1.569720 58.934300 -11.188800 15.680000
-29.175000 1.732920 59.095500 -11.188800 15.370000
-28.908100 1.590370 59.709800 -11.188800 8.850000
-16.056500 0.000000 64.830800 -12.076800 5.120000
-16.160100 0.000000 65.249000 -12.076800 8.990000
15.852300 0.979479 82.949600 -12.432000 6.350000
15.933700 0.721957 83.375400 -12.432000 4.770000
16.357300 2.023820 95.541300 -12.432000 5.270000
-17.763000 6.725590 95.952500 -12.254400 8.390000
-17.841200 6.755220 96.375200 -12.254400 6.410000
-17.919500 6.784850 96.797900 -12.254400 5.680000
-17.251500 6.508660 97.376700 -12.254400 9.630000
17.045200 6.961440 104.390000 -12.432000 6.060000
28.797600 0.648333 116.275000 -12.254400 12.560000
28.900600 1.022470 116.691000 -12.254400 8.550000
29.004200 1.026130 117.109000 -12.254400 7.640000
19.624300 1.073770 124.715000 -12.432000 8.090000
19.691700 0.685647 125.143000 -12.432000 6.320000
19.759000 0.000000 125.570000 -12.432000 6.890000
-61.221400 -14.427300 122.222000 -11.011200 9.480000
-62.356400 -14.472600 122.128000 -11.011200 7.540000
-8.214870 1.209370 141.954000 -12.520800 9.360000
-8.239760 1.213030 142.385000 -12.520800 8.360000
-8.264830 0.774269 142.818000 -12.520800 6.570000
-8.314620 0.778933 143.678000 -12.520800 5.840000
-9.117630 0.776601 143.198000 -12.520800 5.660000
-7.573420 1.238690 145.442000 -12.520800 5.590000
-8.438910 1.242350 145.826000 -12.520800 9.510000
-8.463800 1.246020 146.256000 -12.520800 8.380000
-8.488700 1.249680 146.686000 -12.520800 6.630000
26.314600 2.399020 161.159000 -12.432000 4.420000
25.449500 2.405350 161.734000 -12.432000 6.860000
26.453500 2.411680 162.010000 -12.432000 8.330000
26.522900 2.418010 162.435000 -12.432000 8.590000
19.821700 3.984680 189.815000 -12.520800 9.900000
19.866500 3.993680 190.243000 -12.520800 8.860000
19.911200 4.002670 190.672000 -12.520800 5.130000
6.878410 -0.969127 9.864960 -10.567200 8.160000
7.131730 -0.820657 10.228300 -10.567200 9.130000
7.380510 -0.769153 10.585100 -10.567200 9.990000
7.893370 -0.309813 10.232600 -10.212000 9.740000
7.545550 -0.681357 11.001500 -10.656000 9.800000
8.158800 -0.030984 10.576700 -10.212000 6.950000
-7.946270 0.549583 11.779400 -10.300800 5.400000
-8.180140 0.826473 12.126100 -10.300800 5.920000
-8.316010 1.083510 12.534800 -10.389600 4.480000
7.525080 3.810630 13.018700 -11.188800 9.570000
-7.735780 1.378910 13.872500 -10.833600 4.930000
-7.944850 1.416170 14.247400 -10.833600 14.910000
-8.155550 1.414600 14.625200 -10.833600 16.310000
-7.532840 4.761470 14.753500 -11.188800 14.240000
-8.367340 1.384470 15.005000 -10.833600 4.130000
-7.721160 4.880510 15.122300 -11.188800 9.600000
-8.011590 0.000000 16.227900 -11.188800 7.400000
-7.945270 0.000000 16.738700 -11.277600 6.540000
-8.130050 0.000000 17.128000 -11.277600 5.630000
-6.782480 1.452900 18.107400 -11.632800 7.880000
-8.312430 0.464719 17.512300 -11.277600 5.920000
-7.242190 1.230650 19.334700 -11.721600 4.020000
-7.124840 1.321460 19.831700 -11.810400 6.200000
8.416140 0.390780 20.296700 -11.899200 4.480000
8.581160 0.398443 20.694700 -11.899200 7.410000
8.746620 0.335484 21.093700 -11.899200 17.480000
8.912010 0.269856 21.492600 -11.899200 8.130000
8.123620 0.588644 23.171500 -12.076800 4.480000
8.389710 6.424170 25.005700 -11.988000 5.640000
7.964070 1.925830 26.783200 -12.165600 8.810000
8.425080 1.806900 27.554400 -12.165600 7.970000
9.303780 1.743410 27.730100 -12.165600 8.850000
18.539100 1.750180 24.814900 -10.389600 7.500000
8.825330 -1.941740 29.679600 -12.254400 9.030000
18.796500 1.774490 25.159500 -10.389600 8.330000
7.723280 -1.968710 30.429200 -12.254400 11.520000
19.054000 1.798790 25.504200 -10.389600 13.650000
19.311500 1.823100 25.848800 -10.389600 14.180000
8.287660 1.847410 31.628500 -12.254400 8.350000
8.828150 1.871720 31.928500 -12.254400 11.470000
9.129610 1.896030 32.290900 -12.254400 5.690000
9.498440 1.920330 32.632600 -12.254400 6.520000
9.618680 1.944640 33.045700 -12.254400 7.990000
-7.201570 1.780320 34.105400 -12.343200 10.560000
19.055600 1.693160 29.706800 -10.833600 6.190000
-6.160580 1.147210 34.773700 -12.343200 8.200000
19.288000 1.713800 30.069100 -10.833600 10.530000
-6.236300 1.050650 35.201100 -12.343200 9.860000
19.502500 1.775750 31.460300 -11.011200 8.230000
-5.751080 2.090490 36.548700 -12.432000 6.270000
19.483400 1.796400 31.977200 -11.011200 7.860000
-5.817960 2.114800 36.973700 -12.432000 6.390000
19.211800 1.582730 32.653700 -11.100000 10.440000
19.430100 1.600720 33.024800 -11.100000 8.770000
19.648400 1.618700 33.395900 -11.100000 5.530000
19.866800 1.636690 33.766900 -11.100000 11.030000
-5.630420 1.287120 39.219800 -12.432000 6.000000
19.290400 1.654680 34.593300 -11.277600 7.480000
-5.917020 1.920290 39.587900 -12.432000 6.110000
19.497500 1.796480 34.964600 -11.277600 5.720000
-5.980640 1.940930 40.013600 -12.432000 6.600000
19.707100 1.815800 35.340500 -11.277600 12.400000
19.916800 1.835120 35.716500 -11.277600 5.890000
-22.325000 -1.215210 34.803700 -10.478400 9.620000
-22.557600 -1.227860 35.166200 -10.478400 10.740000
-21.684100 -1.240520 36.214400 -10.656000 8.140000
-22.785600 -1.501590 35.521600 -10.389600 10.280000
-20.473200 -1.648750 37.388900 -10.922400 13.030000
-21.905400 -1.253180 36.583900 -10.567200 6.410000
-20.970500 -1.665400 37.606000 -10.833600 13.090000
-23.806500 -1.532230 35.883800 -10.300800 7.060000
-14.152000 1.547550 41.126600 -12.609600 10.400000
-22.578600 0.237878 37.708200 -10.656000 6.460000
-14.292100 1.562870 41.533800 -12.609600 7.680000
-9.399380 2.241880 42.876400 -12.254400 7.580000
-14.432300 1.578200 41.940900 -12.609600 6.550000
-9.491530 2.263860 43.296800 -12.254400 7.970000
-9.587810 1.870500 43.736000 -12.254400 5.150000
19.510900 1.870500 40.299900 -11.544000 7.760000
19.698500 1.888490 40.687400 -11.544000 5.990000
19.886100 1.906470 41.074900 -11.544000 7.110000
-23.683200 0.677297 39.553000 -10.656000 5.300000
-23.904600 0.683627 39.922600 -10.656000 9.260000
-20.134600 -1.125650 42.418600 -11.277600 8.500000
-24.125900 0.689957 40.292300 -10.656000 11.540000
-19.991300 -0.842860 42.968600 -11.366400 13.880000
-21.139800 -2.698190 42.819700 -11.188800 5.900000
22.919300 -1.716100 42.436600 -11.277600 7.080000
-21.744300 -0.569697 44.044200 -11.188800 8.980000
24.782600 -1.762060 42.875000 -11.188800 8.330000
22.861200 1.608900 43.935500 -11.455200 11.620000
24.664100 -1.777390 43.439200 -11.188800 6.760000
-22.286200 -2.688350 45.142000 -11.188800 5.900000
19.936300 0.428776 46.304000 -11.810400 6.670000
-18.659300 -2.415840 46.772800 -11.544000 9.140000
20.106100 0.589686 46.698300 -11.810400 9.650000
20.275600 0.753256 47.092200 -11.810400 9.890000
-17.615400 -2.015140 49.031700 -11.810400 5.230000
-17.771400 -0.934808 49.466000 -11.810400 5.410000
-17.365800 -2.560380 50.465900 -11.810400 8.000000
-17.505800 -2.581030 50.872900 -11.810400 7.320000
11.866400 -11.263800 52.672700 -12.343200 7.150000
-17.921000 -2.941110 52.079600 -11.810400 6.920000
11.959100 -11.351800 53.084200 -12.432000 5.840000
12.051900 -11.439800 53.495700 -12.432000 10.520000
-16.067600 -5.349590 55.201400 -11.988000 9.350000
-19.058200 1.902700 55.384200 -11.899200 7.010000
-19.520500 1.916690 55.679500 -11.810400 9.920000
-18.479600 -0.137930 56.519700 -12.076800 5.470000
-20.096600 1.746860 55.938100 -11.810400 10.630000
-29.370000 2.498100 57.522600 -11.100000 6.270000
-16.492300 -0.352152 62.940100 -12.165600 7.490000
-16.601500 -0.354484 63.356900 -12.165600 8.600000
-16.216400 -1.172340 63.891400 -12.165600 8.440000
-15.552900 -1.394190 64.938400 -12.165600 10.420000
-16.156500 -1.403180 65.234800 -12.165600 10.520000
11.416200 0.000000 66.681100 -12.520800 11.370000
-16.639400 -1.412180 65.557900 -12.165600 12.800000
10.971400 0.000000 67.192400 -12.520800 13.050000
-16.062000 -0.163916 68.817800 -12.254400 6.710000
-15.308900 -2.322410 69.833400 -12.254400 10.470000
-14.452200 -2.336400 70.455400 -12.343200 10.420000
16.357300 2.023820 95.541300 -12.520800 7.810000
16.430000 2.032820 95.965900 -12.520800 9.540000
-17.094200 7.058320 96.488800 -12.343200 9.160000
-17.169100 7.089270 96.912000 -12.343200 8.210000
-17.244100 7.120230 97.335200 -12.343200 8.520000
18.118200 0.846559 97.871400 -12.520800 7.120000
18.193300 2.086790 98.277200 -12.520800 7.860000
18.844000 1.474860 98.604400 -12.520800 9.350000
17.885000 2.457850 100.953000 -12.520800 8.720000
17.947200 4.616770 101.304000 -12.520800 8.540000
-16.964800 7.910210 103.898000 -12.343200 10.060000
28.899700 1.394260 116.688000 -12.343200 5.650000
29.003300 1.399260 117.106000 -12.343200 5.860000
29.108400 0.655330 117.530000 -12.343200 6.290000
-62.181500 -14.004500 121.786000 -11.011200 7.270000
-62.376500 -14.048400 122.168000 -11.011200 8.360000
-63.472600 -14.943200 121.984000 -11.011200 7.350000
-63.670300 -14.989700 122.364000 -10.922400 5.270000
-8.190150 0.767272 141.527000 -12.609600 5.210000
-9.035490 0.769604 141.908000 -12.609600 5.380000
-8.239940 0.771936 142.388000 -12.609600 5.280000
-8.264650 1.216700 142.815000 -12.609600 6.290000
-9.144820 1.224030 143.625000 -12.609600 7.170000
-7.617990 1.699100 146.298000 -12.609600 8.530000
-7.640400 1.704090 146.728000 -12.609600 10.720000
-7.662800 1.709090 147.159000 -12.609600 8.320000
26.316500 1.388940 161.171000 -12.520800 5.110000
25.451400 1.392610 161.746000 -12.520800 6.600000
26.454500 1.903990 162.016000 -12.520800 6.380000
26.524000 1.908980 162.442000 -12.520800 5.870000
19.862200 5.620330 190.203000 -12.609600 9.450000
19.907000 5.632990 190.631000 -12.609600 8.690000
6.179270 -1.077900 9.798550 -10.922400 3.010000
6.408130 -1.117820 10.161500 -10.922400 8.080000
6.555680 -1.157750 10.575200 -10.922400 9.480000
6.781740 -1.197670 10.939900 -11.011200 8.320000
7.728040 0.619447 10.344100 -10.656000 5.480000
7.081250 1.484170 11.228800 -11.011200 5.560000
7.907110 -0.474991 10.755700 -10.656000 6.080000
-8.031860 1.820430 13.651500 -10.922400 3.860000
-8.294900 0.734047 14.098600 -10.922400 4.660000
-7.126100 1.676740 16.551100 -11.544000 4.910000
-1.175060 1.159650 18.455000 1.864800 5.730000
-6.836060 1.716660 17.135800 -11.721600 5.730000
-1.456980 1.186620 18.866300 1.864800 3.880000
-1.378790 1.153730 19.307000 1.864800 7.400000
-6.791880 1.424050 18.566900 -11.899200 4.280000
-7.231120 1.455000 18.861300 -11.810400 3.660000
-6.413830 1.358330 19.616600 -11.988000 5.110000
-7.651710 1.166790 19.180300 -11.721600 5.460000
-6.547450 1.386630 20.025300 -12.076800 5.120000
-7.811120 1.191090 19.579900 -11.721600 7.020000
8.404660 0.316494 19.835500 -11.988000 5.990000
8.416560 0.322824 20.297700 -11.988000 14.230000
8.581160 0.398443 20.694700 -11.988000 17.280000
8.746180 0.406105 21.092700 -11.988000 16.070000
8.746560 0.125935 21.561800 -11.988000 10.040000
8.312940 0.128267 22.193300 -12.076800 8.410000
8.872850 -2.122740 21.873100 -0.266400 6.420000
8.283600 -0.932626 22.644800 -12.254400 8.620000
9.202950 -2.235650 22.194200 -0.710400 7.490000
7.491290 -1.025180 23.368500 -12.343200 10.890000
9.386790 -2.140040 23.529600 -0.799200 8.800000
7.673600 -2.236060 24.587500 -1.065600 9.190000
9.068780 -0.059969 24.211200 -12.165600 10.580000
6.466150 0.223550 25.476200 -12.343200 8.570000
9.409360 0.060969 24.542900 -12.165600 9.670000
8.497610 0.227215 25.327300 -12.254400 8.720000
8.731760 -2.639940 26.025200 -12.254400 5.790000
8.664210 -2.681190 26.499400 -12.343200 5.300000
9.030140 1.692140 26.914500 -12.343200 5.870000
18.722400 1.424730 23.053000 -10.300800 4.880000
18.812900 1.445380 23.532800 -10.300800 4.550000
8.922490 2.197980 29.181200 -12.432000 7.780000
9.048160 2.228940 29.592200 -12.432000 7.990000
7.545760 2.065790 30.467300 -12.432000 4.430000
-14.695000 1.798790 28.241400 -13.142400 4.830000
7.649130 2.094090 30.884600 -12.432000 8.430000
-15.111100 1.922880 28.502300 -13.142400 7.660000
7.752490 2.122390 31.302000 -12.432000 7.030000
18.703800 1.746280 26.824900 -10.833600 9.770000
-15.312500 1.948520 28.882300 -13.142400 6.510000
18.949900 1.769260 27.177800 -10.833600 8.790000
-14.424000 2.281370 29.792800 -13.408800 8.870000
19.192800 1.896030 27.526100 -10.833600 9.150000
-14.846500 2.207290 30.072500 -13.320000 5.940000
9.137340 1.299010 32.318200 -12.432000 13.260000
19.438800 1.920330 27.879000 -10.833600 8.000000
-15.212700 2.235580 30.370600 -13.320000 13.060000
9.065120 1.315670 32.785500 -12.432000 6.900000
9.626820 1.332320 33.073700 -12.432000 7.240000
-25.183000 1.780320 24.101100 -8.702400 5.620000
-25.493900 1.802300 24.398600 -8.702400 5.310000
-6.632520 0.000000 34.705700 -12.520800 8.870000
19.254200 1.976060 31.601000 -11.188800 8.760000
-5.251190 2.776650 36.578200 -12.609600 11.200000
19.723900 1.999030 31.817400 -11.188800 7.180000
19.206500 1.817040 32.644700 -11.277600 9.490000
-10.793600 1.934170 36.299100 -12.254400 8.290000
19.421800 1.956150 33.010600 -11.277600 13.900000
-10.420100 1.956150 36.855400 -12.343200 5.600000
19.643000 1.858340 33.386600 -11.277600 8.650000
19.600500 1.878990 33.909600 -11.366400 10.730000
19.285100 1.899640 34.583600 -11.455200 8.090000
-5.447570 3.218890 39.571000 -12.698400 9.030000
19.497500 1.796480 34.964600 -11.455200 12.450000
-5.522090 1.064670 40.112300 -12.609600 7.610000
19.707100 1.815800 35.340500 -11.455200 12.540000
10.068400 0.854503 39.668800 -12.520800 5.460000
-20.458800 -1.798560 37.880700 -11.100000 8.590000
-10.345500 2.197930 41.771800 -12.343200 4.980000
-10.449000 2.219910 42.189600 -12.343200 9.230000
-21.994700 -0.237878 38.051800 -10.922400 7.960000
-9.072550 1.834530 42.966100 -12.432000 7.360000
-9.160260 1.989650 43.381500 -12.432000 7.890000
-20.685300 -0.103947 39.753800 -11.188800 7.300000
19.818300 2.008970 40.143000 -11.721600 10.220000
-20.884200 -0.104946 40.136000 -11.188800 7.260000
9.332650 -2.552340 44.197900 -12.520800 6.140000
20.008800 2.028290 40.529000 -11.721600 10.110000
9.421530 -2.576650 44.618800 -12.520800 9.660000
20.199400 2.047600 40.915000 -11.721600 7.540000
11.068400 -2.458580 44.690500 -12.520800 7.770000
19.756000 1.781980 41.621100 -11.810400 14.820000
10.815900 3.056240 45.159600 -12.520800 8.280000
19.940700 1.798640 42.010100 -11.810400 8.790000
10.918200 2.939580 45.586800 -12.520800 16.220000
-21.609300 -1.007410 43.140800 -11.277600 7.760000
-21.802300 -1.016410 43.526000 -11.277600 12.250000
10.791400 1.443060 47.900900 -12.609600 5.800000
10.889100 0.881171 48.334300 -12.609600 5.930000
10.983700 0.888834 48.754600 -12.609600 8.670000
20.100500 1.336500 46.685300 -11.988000 8.890000
-17.236900 -2.015140 49.166000 -11.988000 8.920000
-14.711700 -3.208660 54.849500 -12.165600 9.010000
-14.472100 -4.956600 55.230400 -12.254400 9.830000
-14.583800 -4.860430 55.656700 -12.254400 8.200000
-18.921500 1.529040 54.986900 -11.988000 5.490000
-19.061700 1.540370 55.394200 -11.988000 5.340000
-19.202900 1.414810 55.804800 -11.988000 6.060000
-19.343100 1.425140 56.212100 -11.899200 7.630000
21.169900 0.754599 61.521000 -12.254400 7.270000
21.450300 0.764593 62.335900 -12.254400 6.460000
21.590500 0.769591 62.743300 -12.254400 7.840000
-16.153100 -1.974710 65.220900 -12.343200 11.240000
-16.249500 -2.823740 65.610100 -12.343200 5.830000
21.692900 -1.069750 69.507800 -12.343200 6.520000
21.821300 -1.076080 69.919100 -12.343200 6.690000
16.352200 3.147840 95.511700 -12.698400 7.620000
-17.094200 7.058320 96.488800 -12.520800 7.950000
18.684000 0.538723 97.767100 -12.698400 8.980000
18.764900 0.541055 98.190400 -12.698400 9.150000
18.844000 1.474860 98.604400 -12.698400 6.450000
19.744800 2.131760 100.174000 -12.698400 5.690000
-16.899400 7.553640 103.497000 -12.520800 5.440000
-16.968600 7.584590 103.921000 -12.520800 5.700000
28.898500 1.766040 116.683000 -12.520800 5.120000
29.003300 1.399260 117.106000 -12.520800 6.250000
29.785700 1.404250 117.354000 -12.520800 6.430000
19.620800 2.635470 124.692000 -12.698400 7.710000
19.687700 2.644460 125.117000 -12.698400 8.460000
20.483800 1.081100 125.450000 -12.698400 8.240000
-62.414800 -13.199700 122.243000 -11.188800 9.010000
-62.590900 -13.666700 122.588000 -11.188800 6.850000
-61.836300 -13.709300 123.450000 -11.100000 5.940000
-8.214610 1.649120 141.950000 -12.787200 5.630000
-9.062390 1.654120 142.330000 -12.787200 6.890000
-9.089770 1.659120 142.760000 -12.787200 4.980000
-8.438910 1.242350 145.826000 -12.787200 9.520000
-8.463540 1.699100 146.251000 -12.787200 4.950000
-8.488430 1.704090 146.682000 -12.787200 4.590000
26.315700 1.893990 161.166000 -12.698400 6.760000
26.385100 1.898990 161.591000 -12.698400 5.280000
26.454500 1.903990 162.016000 -12.698400 7.250000
19.821700 3.984680 189.815000 -12.787200 6.290000
19.866500 3.993680 190.243000 -12.787200 4.880000
19.911200 4.002670 190.672000 -12.787200 5.410000
