VERSION .7
FIELDS x y z velocity intensity
SIZE 4 4 4 4 4
TYPE F F F F F
COUNT 1 1 1 1 1
WIDTH 822
HEIGHT 1
VIEWPOINT 0 0 0 1 0 0 0
POINTS 822
DATA ascii
7.302460 1.648540 11.579600 -11.366400 3.320000
-7.965450 0.618144 11.238400 -10.478400 4.860000
7.622480 1.700060 11.883100 -11.277600 4.150000
-7.939550 0.802165 11.769400 -10.656000 4.710000
-8.214370 0.637461 11.589600 -10.478400 5.220000
-6.983350 1.796550 12.753200 -11.366400 4.650000
-8.173800 1.007360 12.116700 -10.656000 3.390000
-7.050490 0.943902 13.298500 -11.366400 4.980000
-7.357140 0.970870 13.622200 -11.366400 4.620000
-6.695030 2.140060 13.828600 -11.632800 4.170000
-7.639200 1.096240 13.951000 -11.366400 5.440000
-6.990340 2.199510 14.159300 -11.632800 5.970000
-7.955860 1.125870 14.267100 -11.277600 4.150000
-7.093440 1.768970 14.651600 -11.632800 5.160000
-7.538600 1.176390 14.487900 -11.455200 3.950000
-8.389960 1.155500 14.515000 -11.188800 2.770000
8.024520 -5.656410 13.639000 -11.721600 8.430000
8.441130 -5.656410 13.385200 -11.544000 6.690000
8.277890 0.146590 15.117400 -11.810400 15.860000
8.603210 1.238300 14.883900 -11.455200 8.260000
8.395300 0.095617 15.544400 -11.810400 17.140000
8.600190 0.000000 15.923800 -11.810400 13.860000
8.036970 1.773710 16.600400 -12.076800 8.440000
8.223870 1.814960 16.986500 -12.076800 9.840000
8.179440 -0.104946 17.580600 -12.076800 8.690000
9.455750 4.355290 16.358800 -11.721600 5.440000
7.119530 4.869140 17.846300 -12.343200 4.670000
8.257190 -0.107278 18.019300 -12.076800 6.300000
9.658940 4.511780 16.710400 -11.721600 5.560000
6.144140 -2.250200 19.166200 -12.520800 6.380000
8.512780 1.704780 18.297000 -12.165600 6.830000
-8.146860 0.720148 18.527400 -11.988000 4.700000
6.274860 -2.298070 19.574000 -12.520800 7.170000
-7.400650 0.816048 19.757800 -12.165600 9.250000
7.969100 -1.281920 19.975900 -12.343200 9.640000
9.077960 1.032410 19.511800 -12.076800 7.570000
8.097930 2.306570 20.298900 -12.343200 8.820000
9.248230 1.511040 19.877800 -11.988000 3.980000
9.299370 1.937920 20.293600 -12.343200 5.120000
6.945540 1.975190 21.666100 -12.343200 3.650000
6.299600 2.299070 22.281300 -12.520800 4.720000
8.879220 2.012460 21.413500 -12.254400 6.480000
6.590980 2.341650 22.643800 -12.520800 3.870000
8.629440 1.081750 22.508600 -12.432000 6.560000
8.780930 1.252820 22.903800 -12.432000 8.400000
8.551180 -0.619625 24.391000 -12.520800 9.290000
6.055180 2.001770 25.943400 -12.698400 6.350000
18.509300 1.384690 19.809900 -9.945600 6.500000
8.610710 2.034050 25.664400 -12.609600 8.270000
18.800800 1.470550 20.121900 -9.945600 8.700000
-15.025900 2.066340 23.032100 -12.964800 10.060000
19.091300 1.580020 20.432800 -9.945600 8.360000
-15.083400 2.012240 23.514200 -12.964800 6.400000
18.450000 1.516510 21.589300 -10.300800 4.490000
-6.603800 2.218610 27.572900 -12.698400 7.550000
18.726300 1.628640 21.912700 -10.389600 5.180000
-6.919390 2.252230 27.938200 -12.698400 10.840000
19.009100 1.562460 22.243500 -10.389600 8.580000
19.288600 1.585440 22.570600 -10.389600 9.620000
-7.314160 0.252868 28.817300 -12.698400 4.630000
-6.049110 1.887800 29.489800 -12.787200 9.170000
16.111000 0.993319 25.989200 -10.478400 7.240000
-6.135520 1.914770 29.911100 -12.787200 5.170000
-6.635870 1.486670 30.270300 -12.787200 6.130000
-6.721230 2.065790 30.659700 -12.787200 6.030000
-5.551570 1.995680 31.336100 -12.876000 11.450000
19.115000 1.723300 26.001300 -10.922400 8.160000
8.771660 2.222110 31.024800 -12.787200 5.940000
-11.086600 1.723300 30.307400 -12.520800 6.800000
19.369800 1.746280 26.348000 -10.922400 7.380000
9.305480 2.554770 31.294400 -12.698400 5.680000
-11.234400 1.746280 30.711500 -12.520800 5.780000
-12.292600 1.746280 30.303500 -12.343200 5.250000
-12.454400 1.769260 30.702200 -12.343200 6.530000
18.779800 1.402880 27.838800 -11.100000 4.750000
8.950370 1.299010 32.370500 -12.787200 5.170000
19.018000 1.526040 28.191900 -11.100000 5.630000
19.255900 1.651860 28.544700 -11.188800 5.760000
-5.353710 1.438850 34.023300 -12.876000 5.960000
18.820300 1.780320 29.340000 -11.366400 7.450000
-5.618920 1.564680 34.412100 -12.876000 9.650000
19.055600 1.693160 29.706800 -11.366400 8.850000
19.288000 1.713800 30.069100 -11.366400 9.690000
9.518820 1.824280 34.426400 -12.787200 8.820000
19.520400 1.734450 30.431400 -11.366400 9.520000
-10.301800 2.022010 36.436900 -12.520800 5.040000
-5.444940 1.600720 37.927800 -12.964800 8.310000
-10.417100 2.163410 36.844700 -12.520800 6.900000
-5.509340 0.929438 38.376400 -12.964800 8.780000
-9.528140 1.978130 37.540200 -12.698400 7.970000
-9.634010 2.000110 37.957300 -12.698400 9.720000
-10.035400 2.022090 38.298200 -12.609600 7.720000
-20.275700 -1.012050 37.028200 -11.277600 7.000000
-20.771800 -0.890482 37.249700 -11.277600 8.070000
-19.240900 -2.219910 38.973400 -11.544000 7.010000
-18.822400 -2.241880 39.654200 -11.721600 7.220000
-18.697700 -2.263860 40.188200 -11.721600 7.120000
25.061500 0.103947 37.150700 -11.188800 4.280000
-18.859100 -3.081330 40.535100 -11.721600 5.960000
-17.958600 -2.291950 44.271100 -11.988000 5.030000
-18.120400 -2.312600 44.670000 -11.988000 5.800000
-18.974700 -2.333250 44.781700 -11.899200 5.910000
11.254600 -1.915210 48.220500 -12.876000 7.820000
11.170100 -1.493690 49.581600 -12.876000 7.550000
11.266300 -1.228920 50.009000 -12.964800 7.130000
19.985100 2.298720 47.166200 -12.254400 8.850000
-13.741400 -3.874390 49.697900 -12.432000 8.430000
-15.202500 -3.906680 49.720100 -12.343200 10.580000
-14.941300 -3.938960 50.247700 -12.343200 6.180000
-16.737800 -6.336570 49.887500 -12.254400 8.600000
12.136800 1.899960 52.000200 -12.876000 9.760000
-17.880100 -5.197380 51.000600 -12.254400 6.250000
-17.724600 -5.238630 51.508700 -12.254400 12.130000
-17.085400 -2.338130 53.296600 -12.432000 5.620000
-28.758400 1.435460 52.519700 -11.366400 5.120000
20.569400 1.574350 56.230300 -12.520800 6.840000
-28.965300 1.445790 52.897500 -11.366400 5.670000
20.722300 -0.886183 56.648300 -12.520800 8.100000
-29.170500 1.597000 53.272200 -11.366400 5.200000
20.540100 -0.892513 57.172600 -12.520800 5.610000
-29.374900 1.797490 53.645400 -11.366400 5.340000
20.687300 -0.520395 57.582200 -12.520800 7.750000
-29.584300 1.619660 54.027900 -11.366400 5.660000
21.167800 -0.524060 57.866300 -12.520800 7.980000
-15.835500 -2.751800 63.938500 -12.609600 10.150000
22.011100 -0.784583 63.965600 -12.609600 11.400000
20.513200 -3.516680 65.727600 -12.698400 7.050000
21.150500 -3.538660 65.977400 -12.698400 5.760000
20.778500 -2.913670 66.577900 -12.609600 7.350000
21.422500 -2.931650 66.825700 -12.609600 7.350000
-17.341300 6.941620 90.740900 -12.787200 6.280000
-17.421900 6.973900 91.163000 -12.787200 5.330000
-17.502600 7.006190 91.585000 -12.787200 5.660000
-17.579100 7.328140 91.985200 -12.787200 9.630000
-10.317700 1.554170 133.603000 -13.053600 5.540000
-10.350900 1.559170 134.033000 -13.053600 10.020000
-8.597530 0.000000 135.029000 -13.053600 10.000000
-9.729720 1.161730 136.243000 -13.053600 5.870000
-8.706740 1.165390 136.744000 -13.053600 5.430000
-8.733850 1.594150 137.170000 -13.053600 7.320000
-8.761230 1.599150 137.600000 -13.053600 7.370000
-8.952880 1.634130 140.610000 -13.053600 6.160000
-8.980260 1.639130 141.040000 -13.053600 11.500000
-9.007640 1.644130 141.470000 -13.053600 11.970000
25.484100 0.366813 156.073000 -13.053600 8.020000
25.553500 0.367812 156.498000 -13.053600 6.560000
17.858600 4.881620 184.793000 -13.142400 7.350000
17.901100 4.461300 185.232000 -13.142400 5.120000
6.049800 -0.758524 5.463810 -8.613600 3.010000
6.256220 -0.798446 5.873000 -8.791200 8.080000
6.448990 -0.838368 6.292080 -8.968800 9.480000
6.692270 -0.878291 6.656480 -9.057600 8.320000
7.788840 0.474909 6.109860 -8.169600 5.480000
6.983180 1.101160 6.945840 -9.146400 5.560000
7.994670 -0.367735 6.549710 -8.347200 6.080000
-8.313940 0.579510 9.881800 -9.679200 4.660000
-6.818960 1.145430 14.365900 -11.366400 4.280000
-6.587680 1.131940 15.887100 -11.721600 5.120000
8.394520 0.259525 15.543000 -11.455200 5.990000
8.352820 0.265855 16.052700 -11.455200 14.230000
8.551270 0.329481 16.434100 -11.455200 17.280000
8.750130 0.337144 16.816300 -11.455200 16.070000
8.684080 0.104946 17.336900 -11.544000 10.040000
8.257190 0.107278 18.019300 -11.632800 8.410000
8.288460 -0.782740 18.462000 -11.899200 8.620000
7.509070 -0.863309 19.252600 -11.988000 10.890000
9.000570 -0.050974 20.048100 -11.810400 10.580000
6.263330 0.186903 21.063600 -12.165600 8.570000
9.334320 0.051973 20.369900 -11.810400 9.670000
8.461930 0.194232 21.211300 -11.988000 8.720000
8.741240 -2.268700 21.911400 -11.988000 5.790000
8.727950 -2.309950 22.377700 -12.076800 5.300000
9.084770 1.461390 22.772500 -12.076800 5.870000
18.614600 1.259540 18.515000 -9.324000 4.880000
18.553600 1.280190 19.179600 -9.412800 4.550000
8.673730 1.888410 24.740600 -12.254400 7.780000
8.815920 1.919370 25.146200 -12.254400 7.990000
7.369730 1.782810 26.066300 -12.254400 4.430000
7.486710 1.811110 26.480100 -12.254400 8.430000
7.603690 1.839400 26.893800 -12.254400 7.030000
18.663900 1.562460 22.533900 -10.123200 9.770000
18.938400 1.585440 22.865300 -10.123200 8.790000
19.209600 1.701560 23.192700 -10.123200 9.150000
8.938090 1.132470 27.881700 -12.254400 13.260000
19.484000 1.725870 23.524000 -10.123200 8.000000
8.851210 1.149130 28.360800 -12.254400 6.900000
9.366730 1.165780 28.648100 -12.254400 7.240000
-6.643500 0.000000 30.305100 -12.432000 8.870000
18.949900 1.769260 27.177800 -10.656000 8.760000
-5.262540 2.453780 32.229500 -12.520800 11.200000
19.656500 1.815210 27.733100 -10.656000 7.180000
19.015200 1.631210 28.187900 -10.833600 9.490000
-11.062000 1.736360 32.146800 -12.076800 8.290000
19.253000 1.758340 28.540300 -10.833600 13.900000
-10.378200 1.736360 32.374000 -12.165600 5.600000
19.496600 1.672510 28.901500 -10.833600 8.650000
19.511300 1.693160 29.409500 -10.922400 10.730000
19.055700 1.713800 30.216800 -11.011200 8.090000
-5.541350 2.872770 35.215800 -12.609600 9.030000
19.288000 1.622630 30.585300 -11.011200 12.450000
-5.624350 0.951406 35.743300 -12.520800 7.610000
19.517700 1.641950 30.949400 -11.011200 12.540000
9.962630 0.764555 35.237200 -12.343200 5.460000
-10.321600 1.978130 37.329800 -12.165600 4.980000
-10.436300 2.000110 37.744600 -12.165600 9.230000
-9.225390 1.654680 38.518900 -12.343200 7.360000
-9.324420 1.796480 38.932400 -12.343200 7.890000
19.640900 1.835120 35.868900 -11.366400 10.220000
9.289430 -2.309260 39.800600 -12.432000 6.140000
19.847700 1.854430 36.246500 -11.366400 10.110000
9.387210 -2.333570 40.219600 -12.432000 9.660000
20.054400 1.873750 36.624100 -11.366400 7.540000
10.812700 -2.228810 40.312900 -12.432000 7.770000
19.765400 1.632100 37.281200 -11.544000 14.820000
10.680700 2.773260 40.760900 -12.432000 8.280000
19.967100 1.648750 37.661600 -11.544000 8.790000
10.791800 2.669890 41.185000 -12.432000 16.220000
10.768700 1.316470 43.480600 -12.520800 5.800000
10.875200 0.804548 43.910700 -12.520800 5.930000
10.978800 0.812210 44.328900 -12.520800 8.670000
20.133400 1.234560 42.416100 -11.721600 8.890000
-17.523300 -1.865250 44.928400 -11.810400 8.920000
-14.788700 -2.989890 50.807800 -12.076800 9.010000
-14.482400 -4.621200 51.223400 -12.165600 9.830000
-14.602100 -4.533980 51.646800 -12.165600 8.200000
-19.037900 1.427110 50.826100 -11.810400 5.490000
-19.189000 1.438430 51.229500 -11.810400 5.340000
-19.341200 1.321870 51.635900 -11.810400 6.060000
-19.492300 1.332190 52.039300 -11.721600 7.630000
21.019100 0.709623 57.459900 -12.076800 7.270000
21.315200 0.719617 58.269200 -12.076800 6.460000
21.463200 0.724615 58.673800 -12.076800 7.840000
-16.290900 -1.848130 60.737400 -12.254400 11.240000
-16.395300 -2.643880 61.126500 -12.254400 5.830000
21.289500 -1.006450 65.113700 -12.254400 6.520000
21.423400 -1.012780 65.523200 -12.254400 6.690000
16.152700 3.007940 91.174900 -12.609600 7.620000
-17.587200 6.748740 92.028000 -12.432000 7.950000
18.415600 0.515402 93.429900 -12.609600 8.980000
18.498900 0.517734 93.852600 -12.609600 9.150000
18.580500 1.411560 94.266600 -12.609600 6.450000
19.650600 2.041810 95.798300 -12.609600 5.690000
-16.971300 7.244060 99.127700 -12.432000 5.440000
-17.043800 7.275020 99.551400 -12.432000 5.700000
28.512600 1.702740 112.338000 -12.432000 5.120000
28.619800 1.349280 112.760000 -12.432000 6.250000
29.597200 1.354280 112.953000 -12.432000 6.430000
18.951100 2.545520 120.436000 -12.609600 7.710000
19.018100 2.554510 120.862000 -12.609600 8.460000
19.789400 1.044460 121.197000 -12.609600 8.240000
-62.483400 -12.828400 117.855000 -11.011200 9.010000
-62.665400 -13.283500 118.199000 -11.011200 6.850000
-61.950500 -13.326100 119.059000 -11.011200 5.940000
-8.761230 1.599150 137.600000 -12.698400 5.630000
-9.852180 1.604150 137.958000 -12.698400 6.890000
-9.882880 1.609140 138.388000 -12.698400 4.980000
-9.007920 1.205700 141.474000 -12.698400 9.520000
-9.035020 1.649120 141.900000 -12.698400 4.950000
-9.062390 1.654120 142.330000 -12.698400 4.590000
25.621300 1.844020 156.913000 -12.609600 6.760000
25.690800 1.849020 157.339000 -12.609600 5.280000
25.760200 1.854010 157.764000 -12.609600 7.250000
19.374300 3.894730 185.530000 -12.698400 6.290000
19.419000 3.903730 185.959000 -12.698400 4.880000
19.463800 3.912720 186.387000 -12.698400 5.410000
7.209680 -0.395683 6.142520 -8.524800 7.680000
7.475180 -0.413669 6.494040 -8.613600 5.670000
7.081650 1.236400 7.434390 -9.501600 3.210000
7.436190 1.287920 7.687070 -9.501600 3.830000
7.228970 1.305030 8.459020 -9.945600 5.150000
-8.657890 1.235050 10.660500 -9.768000 4.750000
-7.825020 1.361220 11.794700 -10.567200 7.370000
-8.062140 1.402470 12.152200 -10.567200 8.470000
-7.006520 3.642840 12.340100 -11.100000 6.920000
-8.299260 1.443720 12.509600 -10.567200 6.290000
-8.672650 0.371775 12.856200 -10.478400 4.640000
-7.544740 0.974261 14.499700 -11.277600 8.450000
-7.628360 0.999899 14.940500 -11.277600 10.780000
-7.259140 0.972321 15.602500 -11.544000 8.920000
-7.823960 1.025540 15.323600 -11.277600 9.480000
8.274810 0.204891 15.607800 -11.544000 10.310000
8.476640 0.209888 15.988500 -11.544000 16.410000
8.552040 0.214886 16.435600 -11.544000 18.140000
8.750570 0.278515 16.817100 -11.544000 15.630000
8.161910 1.273430 17.542900 -11.810400 8.570000
8.239480 1.301730 17.980700 -11.810400 8.110000
5.765660 -0.970467 19.390000 -12.165600 6.520000
18.129400 1.528120 14.505700 -8.347200 9.220000
18.465200 1.556420 14.774400 -8.347200 11.020000
8.294120 0.741492 21.265400 -11.988000 4.020000
18.800900 1.584720 15.043000 -8.347200 9.030000
8.426120 -2.760640 21.978300 -12.076800 7.050000
6.531410 1.613020 23.621900 -12.343200 6.990000
6.096030 1.826490 24.613700 -12.432000 5.500000
6.199350 1.857450 25.030900 -12.520800 4.840000
6.995760 1.340730 25.301300 -12.343200 6.480000
9.206830 1.401620 24.579800 -12.165600 8.620000
6.912030 1.362710 25.770200 -12.343200 8.220000
18.248100 1.555710 20.618200 -9.856800 8.570000
7.023520 1.384690 26.185800 -12.343200 8.400000
18.663900 1.562460 22.533900 -10.123200 6.390000
18.938400 1.585440 22.865300 -10.123200 10.580000
7.796280 1.652950 28.196600 -12.343200 7.510000
19.212900 1.608420 23.196700 -10.123200 8.640000
-5.661830 -0.163249 29.626400 -12.520800 6.820000
-6.551140 -0.165582 29.883800 -12.520800 8.530000
-6.313480 1.507320 30.778700 -12.520800 9.010000
-6.399970 1.527970 31.200300 -12.520800 8.700000
19.379700 1.282360 26.900700 -10.656000 8.580000
-10.961500 1.769260 31.266300 -12.076800 8.340000
19.038100 1.545360 28.696400 -10.922400 6.510000
-9.944890 1.420860 32.525000 -12.165600 8.140000
19.273300 1.672510 29.050900 -10.922400 6.250000
-10.514100 1.438850 32.797900 -12.254400 6.040000
19.511300 1.693160 29.409500 -10.922400 7.910000
-5.418290 1.780320 34.433800 -12.609600 7.320000
-10.645500 1.456830 33.207900 -12.254400 8.040000
19.749200 1.713800 29.768200 -10.922400 9.470000
-5.487550 1.474820 34.873900 -12.609600 6.350000
-5.280780 1.713800 35.331100 -12.609600 13.470000
19.067500 1.161200 30.235600 -11.100000 7.780000
-5.345170 1.622630 35.762000 -12.609600 12.770000
19.297300 1.175190 30.599900 -11.100000 5.450000
19.047400 1.189190 31.261500 -11.188800 7.050000
-10.256600 2.022090 38.239600 -12.343200 6.750000
-21.605600 -0.219221 34.260300 -10.744800 6.350000
-10.665700 2.044070 38.574200 -12.343200 6.360000
-21.029100 -0.221553 35.120400 -10.922400 5.230000
-5.210030 -1.690650 40.132500 -12.609600 5.820000
-9.724800 2.066050 39.265500 -12.432000 6.630000
19.434200 1.815800 35.491400 -11.455200 10.810000
-21.250500 -0.223885 35.490100 -10.833600 7.970000
10.061800 -1.708630 39.642800 -12.520800 9.740000
19.640900 1.835120 35.868900 -11.455200 6.270000
-21.194800 -0.226217 36.024200 -10.922400 6.500000
10.150300 -2.971920 39.991500 -12.520800 6.710000
19.850300 1.726620 36.251400 -11.455200 7.480000
19.845000 1.744600 36.744300 -11.455200 9.120000
10.803600 -1.780580 41.230000 -12.520800 15.660000
19.673800 1.780580 37.809700 -11.632800 9.410000
10.585500 -2.297740 41.706300 -12.520800 10.170000
19.872500 1.798560 38.191600 -11.632800 16.010000
-20.672500 -1.278500 38.276400 -11.100000 10.080000
10.122300 -2.320720 42.263700 -12.520800 11.740000
-21.396600 -1.291160 38.370300 -11.011200 9.120000
11.124800 -2.343690 42.455900 -12.432000 7.110000
-21.615700 -0.102947 38.763100 -11.011200 11.840000
-19.862300 -1.715370 39.653100 -11.366400 11.870000
-21.825500 -0.103947 39.139400 -11.011200 11.280000
10.765300 1.732020 43.466800 -12.609600 10.700000
10.532600 1.468990 43.976900 -12.609600 5.190000
10.032100 1.624160 44.530500 -12.609600 6.470000
19.583900 1.146310 43.621700 -11.899200 7.090000
12.546100 -2.374550 47.880100 -12.520800 7.630000
9.751040 6.547090 49.471100 -12.609600 14.410000
10.303000 -0.594684 50.227800 -12.609600 10.150000
10.389600 -0.599681 50.649900 -12.609600 7.000000
-14.228000 -5.355960 50.323600 -12.254400 6.290000
-14.344600 -5.399860 50.736100 -12.254400 6.560000
-19.346700 -0.127935 51.650600 -11.810400 5.030000
-19.096100 -0.128934 52.202800 -11.810400 8.670000
20.246700 1.517720 54.053200 -12.165600 12.650000
20.396000 1.708880 54.451900 -12.165600 5.380000
20.128000 1.223290 55.023700 -12.254400 12.730000
20.276000 1.232280 55.428300 -12.254400 6.140000
20.424000 1.241280 55.832900 -12.254400 10.740000
21.613200 -0.524060 57.701500 -12.254400 6.730000
21.315900 -0.527725 58.271000 -12.254400 7.020000
21.464600 -0.144926 58.677600 -12.254400 10.890000
21.612400 -0.340492 59.081600 -12.254400 9.340000
-16.875800 -1.518080 61.034000 -12.254400 5.550000
16.155700 2.435150 91.191500 -12.698400 6.970000
16.230800 2.446470 91.615600 -12.698400 6.180000
16.306000 2.457800 92.039700 -12.698400 5.360000
-17.587200 6.748740 92.028000 -12.520800 6.420000
-17.667900 6.779700 92.450100 -12.520800 6.960000
18.332500 0.000000 93.008500 -12.698400 6.160000
-17.748600 6.810660 92.872300 -12.520800 6.300000
18.415200 0.809911 93.427900 -12.698400 8.740000
18.498500 0.813576 93.850600 -12.698400 6.680000
18.581800 0.817241 94.273400 -12.698400 5.780000
-16.978500 6.621860 99.170000 -12.520800 8.220000
-17.047500 6.962620 99.573100 -12.520800 7.700000
-17.120100 6.992250 99.996800 -12.520800 5.370000
-16.418100 7.021880 100.550000 -12.609600 6.770000
28.513800 1.344290 112.342000 -12.520800 5.830000
28.620600 0.989484 112.763000 -12.520800 4.780000
28.725800 1.354280 113.177000 -12.520800 5.700000
19.012200 3.973280 120.824000 -12.698400 7.940000
19.079200 3.987270 121.250000 -12.698400 6.140000
18.207700 4.001260 121.819000 -12.698400 6.290000
-62.300800 -12.375900 117.511000 -11.100000 8.130000
-62.702700 -12.455800 118.269000 -11.100000 9.390000
-63.982100 -13.368700 118.467000 -10.922400 7.200000
-10.682700 1.609140 138.329000 -12.698400 8.540000
-8.871020 1.187380 139.324000 -12.787200 7.430000
-9.007920 1.205700 141.474000 -12.787200 5.510000
-9.035020 1.649120 141.900000 -12.787200 8.750000
-9.062390 1.654120 142.330000 -12.787200 11.990000
-9.089770 1.659120 142.760000 -12.787200 10.670000
25.692100 0.862890 157.347000 -12.698400 4.560000
25.761000 1.359620 157.769000 -12.698400 6.260000
19.419000 3.903730 185.959000 -12.787200 5.460000
19.463800 3.912720 186.387000 -12.787200 9.110000
19.508500 3.921720 186.816000 -12.787200 11.820000
-8.046590 1.210350 7.700890 -8.791200 2.790000
-8.225490 1.455610 9.293820 -9.590400 3.240000
7.694190 1.356800 10.298800 -10.567200 2.210000
-8.442880 1.396560 9.688900 -9.590400 7.980000
-8.627450 1.443110 10.095400 -9.679200 7.800000
-7.995760 1.536210 11.657900 -10.478400 4.110000
-7.878400 1.312240 12.282100 -10.656000 4.320000
-8.161110 3.806420 12.097900 -10.656000 6.340000
-6.906010 4.031620 12.786900 -11.277600 3.780000
-6.899750 4.146810 13.260200 -11.277600 5.180000
-6.584370 0.734047 14.974000 -11.632800 5.620000
-6.549750 0.753364 15.457800 -11.721600 6.290000
-7.313440 0.857191 15.106000 -11.455200 7.520000
-7.500970 0.879170 15.493300 -11.455200 5.800000
8.153940 0.259525 15.670500 -11.632800 11.660000
8.352820 0.265855 16.052700 -11.632800 16.750000
8.424770 0.272185 16.500400 -11.721600 17.360000
9.463530 -1.362130 16.372300 -11.277600 7.470000
8.619750 0.395770 16.882200 -11.721600 13.700000
7.042180 -0.629569 18.055500 -12.165600 9.080000
6.939840 0.404764 18.101600 -11.899200 7.420000
7.198670 -0.643559 18.456800 -12.165600 6.890000
7.500290 -0.657549 18.800800 -12.165600 5.300000
9.348190 -0.046976 17.965700 -11.632800 7.460000
7.663080 -0.303834 19.208800 -12.165600 5.460000
9.688210 -0.047975 18.273800 -11.632800 8.130000
7.935950 -0.310164 19.563500 -12.165600 7.220000
8.801310 1.547880 19.604300 -11.899200 5.090000
9.129110 1.646620 19.922100 -11.988000 8.270000
-7.686810 1.646620 20.521700 -11.899200 9.810000
8.423020 -2.833430 21.970200 -12.165600 10.440000
8.100140 -2.884940 22.546400 -12.254400 7.910000
6.181000 -2.936460 23.588800 -12.432000 4.950000
8.424290 1.949690 23.448700 -12.254400 5.780000
8.707280 1.983300 23.803000 -12.254400 6.860000
9.226930 2.016920 24.067100 -12.165600 8.490000
8.277150 2.084150 25.315600 -12.432000 8.500000
18.449000 1.470550 20.444900 -9.856800 6.780000
8.412650 2.034050 25.730000 -12.432000 9.630000
18.737300 1.493530 20.764400 -9.856800 6.960000
19.025600 1.516510 21.083800 -9.856800 9.940000
19.313800 1.539480 21.403300 -9.856800 12.640000
18.988500 1.608420 23.380700 -10.300800 13.470000
19.259800 1.631390 23.714700 -10.300800 12.580000
9.191540 1.794690 28.672300 -12.432000 9.320000
18.729800 1.750180 24.671300 -10.567200 6.410000
18.989900 1.774490 25.013900 -10.567200 6.790000
19.253300 1.700330 25.360900 -10.567200 5.580000
-5.503050 8.689680 29.726500 -12.609600 8.420000
-7.827530 2.094090 30.839900 -12.520800 6.090000
18.711700 1.468090 26.836100 -10.833600 10.710000
-6.482410 1.922880 31.602200 -12.520800 11.600000
18.957900 1.487410 27.189200 -10.833600 8.970000
-6.321830 1.948520 32.073300 -12.520800 14.500000
19.204100 1.506730 27.542300 -10.833600 6.740000
-10.430200 1.792240 31.900600 -12.343200 7.690000
-11.347700 1.792240 31.585800 -12.076800 5.160000
19.038100 1.545360 28.696400 -11.011200 6.890000
-10.571000 1.315670 32.331400 -12.343200 7.050000
19.276100 1.564680 29.055100 -11.011200 10.880000
-10.703500 1.438850 32.736600 -12.343200 10.610000
19.514100 1.584000 29.413800 -11.011200 13.730000
-5.878350 2.184460 34.334900 -12.609600 9.920000
19.749200 1.713800 29.768200 -11.011200 12.170000
-5.679300 2.538520 34.781900 -12.609600 6.280000
-5.544950 2.569470 35.238700 -12.609600 5.940000
19.288000 1.622630 30.585300 -11.188800 8.630000
-5.337890 2.488770 35.713200 -12.698400 8.670000
19.517700 1.641950 30.949400 -11.188800 7.210000
-4.983280 2.518390 36.198400 -12.698400 6.800000
-21.874100 -2.230550 30.363100 -10.300800 6.050000
-10.030700 2.187720 37.397400 -12.343200 6.160000
-9.927790 1.878990 37.887700 -12.343200 8.850000
-10.036900 1.899640 38.304100 -12.343200 10.020000
-22.296000 -3.752700 33.607000 -10.567200 6.790000
-10.144400 2.044070 38.714500 -12.343200 12.140000
-9.194320 2.066050 39.393100 -12.432000 7.980000
19.231300 1.690650 35.607900 -11.544000 12.460000
19.435900 1.708630 35.986700 -11.544000 9.690000
9.623820 -1.982230 40.182500 -12.609600 6.070000
19.637800 1.854430 36.360600 -11.544000 7.270000
10.270800 -2.002880 40.466200 -12.520800 9.960000
19.842400 1.873750 36.739400 -11.544000 8.700000
7.675850 -2.251780 41.463600 -12.609600 6.900000
19.472400 1.893070 37.422700 -11.632800 5.710000
-19.484500 -1.143950 38.898800 -11.366400 14.380000
11.273800 -0.504732 42.032300 -12.520800 9.510000
-21.063500 -2.263860 39.000400 -11.188800 9.030000
-22.023800 -1.468990 39.495000 -11.100000 11.100000
-18.338200 -1.870500 40.846900 -11.544000 6.540000
-22.233600 -1.482980 39.871200 -11.100000 7.960000
-18.831800 -1.888490 41.095800 -11.544000 6.740000
23.053100 -1.924460 39.882800 -11.366400 8.100000
22.977300 0.251870 40.468400 -11.455200 6.210000
-19.386400 0.251870 42.306200 -11.544000 8.130000
19.585300 0.998419 43.624800 -11.988000 4.890000
19.761700 1.007410 44.017800 -11.988000 8.390000
19.936800 1.166960 44.407700 -11.988000 5.890000
20.112000 1.291190 44.798100 -11.988000 6.190000
-13.949500 -4.870520 50.450700 -12.254400 7.310000
-14.992200 -6.499280 50.418900 -12.165600 7.120000
-14.835100 -6.100880 50.967000 -12.165600 10.090000
-14.558300 -6.150080 51.491800 -12.254400 14.020000
-18.886800 1.415780 50.422700 -11.988000 13.210000
11.609600 2.895150 52.958600 -12.698400 7.780000
-19.039000 1.301210 50.829100 -11.988000 5.630000
11.701700 2.918130 53.378900 -12.698400 7.370000
-19.585800 1.142340 51.086600 -11.988000 8.650000
-16.835400 0.810225 52.516700 -12.165600 9.070000
-19.742200 0.810225 51.494500 -11.899200 7.410000
-16.966100 0.988444 52.924400 -12.165600 10.070000
12.100900 1.902700 57.307800 -12.698400 6.310000
-16.979700 -0.328831 58.335100 -12.343200 14.370000
-28.850400 1.810150 54.417300 -11.188800 10.250000
-16.646500 0.520395 58.877600 -12.343200 9.950000
-29.056400 1.487100 54.805700 -11.188800 6.340000
20.833000 0.524060 57.987700 -12.254400 9.740000
-29.258100 1.497430 55.186300 -11.188800 6.000000
20.979400 0.143927 58.395200 -12.254400 7.220000
-29.462000 1.313240 55.570800 -11.188800 7.070000
21.125100 0.144926 58.800700 -12.254400 4.960000
21.267400 1.118700 59.197000 -12.254400 7.440000
-14.283400 -3.406790 65.155300 -12.520800 12.340000
-14.758700 -3.013450 65.510900 -12.432000 12.860000
20.006200 -2.497530 67.280800 -12.432000 5.570000
-17.579100 7.328140 91.985200 -12.520800 5.880000
-17.663900 7.070760 92.429100 -12.520800 6.210000
-17.748600 6.810660 92.872300 -12.520800 10.660000
17.491300 0.222886 94.485100 -12.698400 5.550000
17.058400 2.344250 96.286800 -12.698400 6.830000
-16.978500 6.621860 99.170000 -12.609600 6.680000
-17.047500 6.962620 99.573100 -12.609600 5.420000
-17.112400 7.619630 99.952200 -12.609600 8.860000
27.864800 0.985819 112.509000 -12.609600 7.460000
27.967500 1.349280 112.923000 -12.609600 8.760000
-62.282500 -12.787200 117.476000 -11.188800 5.380000
-63.389900 -12.828400 117.370000 -11.100000 9.500000
-63.612400 -12.455800 117.782000 -11.100000 10.490000
-8.816550 0.321836 138.469000 -12.787200 7.340000
-8.843940 0.322835 138.899000 -12.787200 6.350000
-8.189970 1.205700 141.524000 -12.787200 4.370000
-8.214610 1.649120 141.950000 -12.787200 7.280000
-8.239500 1.654120 142.380000 -12.787200 7.580000
-8.264400 1.659120 142.810000 -12.787200 7.800000
19.419000 3.903730 185.959000 -12.876000 8.030000
19.463800 3.912720 186.387000 -12.876000 7.810000
6.938240 1.266350 9.789090 -10.744800 3.560000
7.186040 1.311580 10.138700 -10.744800 4.480000
7.350340 1.396560 10.541800 -10.833600 3.530000
-8.226300 0.888845 9.932030 -9.768000 6.370000
-8.579360 0.918473 10.197300 -9.679200 6.170000
-8.856120 0.948101 10.526200 -9.679200 2.380000
7.309680 1.532050 11.591100 -11.188800 3.860000
-8.095620 1.361220 11.610700 -10.300800 3.330000
7.453160 1.448740 12.023000 -11.188800 4.260000
-7.711410 0.656779 12.439600 -10.833600 7.490000
-7.858320 0.695413 13.356600 -10.922400 4.190000
-6.722520 4.023930 13.885400 -11.455200 3.660000
-7.193130 4.230610 14.088100 -11.455200 6.070000
-6.640760 0.150255 16.370600 -11.721600 7.520000
8.353420 0.153920 16.053900 -11.721600 14.430000
8.425380 0.157585 16.501500 -11.721600 18.120000
8.621320 0.161249 16.885300 -11.721600 17.150000
9.198170 -1.153730 17.031000 -11.544000 9.860000
8.091950 -1.592140 18.024200 -11.988000 9.000000
7.964430 -1.179370 18.112600 -11.544000 6.690000
8.273230 -1.455000 18.428000 -11.988000 7.550000
8.178000 -0.367793 18.994200 -11.988000 8.030000
6.247520 -2.459480 20.018100 -12.343200 6.650000
8.348370 -0.375456 19.389900 -11.988000 7.490000
6.375020 -2.509680 20.426600 -12.343200 7.750000
9.216820 1.481410 19.417600 -11.899200 7.010000
10.208000 -1.429340 20.379300 -11.988000 10.160000
8.605000 -1.456310 21.569900 -12.165600 7.550000
8.235580 -2.755240 22.513600 -12.254400 5.670000
8.382650 -2.804440 22.915600 -12.254400 8.280000
8.418380 2.161530 23.432200 -12.343200 6.640000
9.064300 2.277120 23.642900 -12.254400 7.140000
9.390940 1.645090 24.494900 -12.254400 10.620000
18.251200 1.470550 20.621700 -9.945600 8.480000
5.530610 1.725990 26.962100 -12.609600 6.740000
8.761960 1.321490 26.115200 -12.432000 6.300000
18.536400 1.493530 20.943900 -9.945600 8.370000
18.818400 1.604330 21.262500 -10.034400 8.590000
19.109100 1.472610 21.591000 -9.945600 9.610000
18.666200 1.494590 22.536600 -10.300800 8.210000
18.719500 1.516570 23.049500 -10.300800 5.890000
18.990800 1.538550 23.383500 -10.300800 7.230000
-6.585510 0.838143 31.187900 -12.520800 7.970000
-6.490490 1.049280 31.641600 -12.609600 8.690000
18.700700 1.847410 26.820300 -10.833600 4.900000
-6.329710 1.063270 32.113300 -12.609600 7.170000
18.946700 1.871720 27.173200 -10.833600 10.720000
19.192800 1.896030 27.526100 -10.833600 11.920000
-10.817100 1.526040 32.240600 -12.343200 7.690000
19.035400 1.651860 28.692200 -11.011200 13.930000
-10.514100 1.438850 32.797900 -12.343200 7.590000
19.048800 1.672510 29.198600 -11.011200 11.670000
-10.644100 1.564680 33.203400 -12.343200 5.280000
19.284000 1.693160 29.559100 -11.011200 6.950000
19.522000 1.603310 29.923800 -11.011200 8.580000
19.293000 1.398940 30.593200 -11.188800 5.510000
19.520300 1.528780 30.953600 -11.188800 5.430000
-4.870170 2.607280 37.514700 -12.698400 10.670000
-21.653300 2.187720 32.098500 -10.478400 5.860000
-21.893900 2.212030 32.455100 -10.478400 5.390000
-10.150700 1.515520 37.844900 -12.343200 8.030000
-9.727690 1.815800 39.277200 -12.432000 6.950000
-9.831170 1.835120 39.695000 -12.432000 8.770000
19.433300 1.835120 35.981900 -11.544000 10.500000
10.162100 -2.205830 40.038000 -12.609600 12.750000
19.640500 1.726620 36.365500 -11.544000 7.670000
8.937540 -2.228810 40.769700 -12.698400 8.200000
19.845000 1.744600 36.744300 -11.544000 13.450000
19.765400 1.632100 37.281200 -11.632800 15.950000
19.678500 1.516910 37.818700 -11.632800 8.250000
19.582200 1.532230 38.352800 -11.721600 11.390000
19.780100 1.413030 38.740400 -11.721600 12.660000
-19.463500 -2.320720 38.856900 -11.366400 11.870000
-19.121900 -2.479420 39.496400 -11.455200 11.650000
-21.569100 -2.914750 38.679500 -11.100000 12.520000
-21.773900 -3.081330 39.046900 -11.011200 8.080000
23.314800 -0.658308 38.265400 -11.277600 8.760000
-21.968300 -3.529610 39.395400 -11.011200 9.640000
23.539000 -0.664638 38.633400 -11.277600 6.680000
22.453700 0.534716 40.265800 -11.455200 5.390000
19.624200 1.223240 42.179500 -11.899200 8.830000
-20.840700 0.539713 41.606300 -11.366400 8.370000
19.805900 1.234560 42.570000 -11.899200 6.710000
-19.229900 -1.234560 42.833300 -11.632800 5.360000
-21.356700 0.544710 41.828200 -11.366400 8.170000
23.076800 -1.245890 41.383300 -11.544000 9.040000
-4.597470 1.848600 47.572500 -12.787200 8.530000
-16.996600 -2.795420 46.463400 -11.988000 5.920000
-17.487700 -3.591070 46.687500 -11.899200 9.370000
-17.638500 -3.622030 47.090000 -11.899200 7.630000
11.107100 14.046300 47.588500 -12.698400 7.620000
-13.967100 -4.101070 50.514200 -12.254400 6.570000
-13.688600 -4.134690 51.035300 -12.254400 10.440000
-15.867000 -4.291850 50.840500 -12.165600 6.460000
-16.005300 -3.869690 51.283800 -12.076800 7.700000
-19.192600 0.973120 51.239100 -11.988000 7.350000
-19.342600 1.151330 51.639500 -11.988000 9.290000
-17.677300 1.160320 52.687600 -12.076800 9.410000
12.445700 2.428060 56.772600 -12.698400 11.720000
12.537900 2.446040 57.193200 -12.698400 5.850000
11.851900 2.464030 57.778800 -12.698400 7.660000
-28.652800 1.466450 54.044500 -11.277600 6.680000
-17.100400 0.000000 58.749700 -12.343200 6.230000
-28.852900 1.619660 54.422000 -11.277600 7.090000
-16.764300 0.142927 59.294200 -12.343200 5.450000
-29.054700 1.630980 54.802500 -11.277600 6.530000
-17.341200 0.143927 59.577000 -12.343200 7.860000
-29.258100 1.497430 55.186300 -11.277600 5.460000
21.464600 0.144926 58.677600 -12.343200 5.600000
-29.459900 1.507750 55.566900 -11.277600 10.560000
21.612400 0.340492 59.081600 -12.343200 12.330000
35.272700 0.482752 81.924300 -12.076800 6.990000
35.443100 0.485084 82.320000 -12.076800 5.010000
35.613500 0.487416 82.715800 -12.076800 7.470000
-17.055000 6.748740 92.128100 -12.520800 8.000000
17.713600 -0.218888 92.689400 -12.787200 7.370000
-17.667900 6.779700 92.450100 -12.520800 6.660000
17.794500 -0.219888 93.112700 -12.787200 6.010000
-17.748600 6.810660 92.872300 -12.520800 6.040000
17.794500 0.219888 93.112700 -12.787200 7.060000
17.956300 0.221887 93.959100 -12.787200 7.070000
18.037200 0.222886 94.382400 -12.787200 9.740000
17.726600 0.225885 95.756200 -12.787200 8.260000
17.883300 0.531727 96.602400 -12.787200 8.790000
17.961700 0.534059 97.026100 -12.787200 9.450000
-17.047500 6.962620 99.573100 -12.609600 8.480000
-17.112400 7.619630 99.952200 -12.609600 8.990000
16.526500 -0.237879 101.214000 -12.787200 4.540000
-62.464600 -13.240900 117.820000 -11.188800 6.210000
-62.665400 -13.283500 118.199000 -11.100000 6.670000
-8.734120 1.169060 137.174000 -12.876000 6.560000
-8.789070 0.748615 138.037000 -12.876000 5.630000
-8.165080 1.202040 141.094000 -12.876000 5.660000
-8.189720 1.644130 141.520000 -12.876000 11.120000
-8.214610 1.649120 141.950000 -12.876000 11.840000
-8.239500 1.654120 142.380000 -12.876000 8.620000
-51.016300 -16.714400 133.069000 -11.810400 5.650000
-51.169500 -16.764600 133.468000 -11.810400 4.910000
19.375500 3.317800 185.541000 -12.876000 14.830000
17.986300 3.325460 186.114000 -12.876000 10.730000
-7.820220 1.448740 11.787500 -10.656000 5.760000
-6.992890 1.627800 12.770700 -11.277600 2.900000
-8.057190 1.492640 12.144700 -10.567200 4.880000
-7.010380 1.723550 13.730200 -11.366400 4.260000
-8.071270 0.083957 13.247000 -10.922400 4.130000
-6.836360 5.308260 13.389400 -11.544000 5.990000
-7.021130 5.451730 13.751200 -11.544000 6.080000
-7.179960 5.754190 14.062300 -11.632800 7.830000
-7.616570 1.025540 15.427800 -11.544000 8.460000
7.084690 1.527980 16.111900 -11.988000 7.010000
8.131760 -4.392830 15.056500 -11.810400 6.470000
-7.898260 1.051180 15.768100 -11.455200 5.800000
7.130060 1.565240 16.560300 -12.076800 9.260000
8.229440 0.153920 16.117800 -11.810400 14.790000
8.425380 0.157585 16.501500 -11.810400 17.280000
8.981200 -4.607120 15.537900 -11.544000 7.720000
8.621500 0.102614 16.885700 -11.810400 15.170000
5.213160 -2.971720 18.438600 -12.520800 7.160000
7.664770 -0.569628 17.802200 -12.254400 8.820000
8.817440 0.104946 17.269400 -11.810400 8.340000
7.199360 -0.582286 18.458500 -12.254400 10.230000
8.385650 4.750200 17.320600 -11.988000 9.520000
7.897820 -0.594945 18.639400 -12.165600 11.030000
8.065090 -0.671540 19.034100 -12.254400 9.950000
7.514120 -2.281040 19.599500 -12.343200 8.380000
7.782950 -2.327590 19.954800 -12.343200 7.280000
8.969660 0.766115 19.574100 -12.076800 7.890000
9.151680 0.577639 19.971300 -12.076800 10.480000
8.277050 1.640750 21.221700 -12.343200 8.970000
8.431300 1.743480 21.617100 -12.343200 6.670000
8.589390 1.702660 22.022500 -12.343200 5.850000
6.030510 1.537210 23.759800 -12.520800 5.270000
5.996450 1.564180 24.211700 -12.609600 8.080000
8.901850 1.512670 23.765600 -12.343200 11.050000
9.054360 1.458480 24.172700 -12.343200 11.420000
6.988300 1.807320 25.274400 -12.609600 5.900000
9.205260 1.482790 24.575600 -12.343200 8.950000
8.079450 1.216970 25.887900 -12.609600 6.980000
18.251200 1.470550 20.621700 -10.123200 6.840000
18.536400 1.493530 20.943900 -10.123200 11.740000
18.821600 1.516510 21.266100 -10.123200 11.930000
-16.584300 1.955460 23.020400 -12.609600 6.180000
19.106700 1.539480 21.588300 -10.123200 7.430000
-16.476800 1.896000 23.630800 -12.609600 6.620000
18.446000 1.562460 22.712700 -10.478400 9.320000
18.714100 1.677250 23.042800 -10.478400 12.620000
18.985300 1.701560 23.376700 -10.478400 11.400000
8.371360 6.865760 28.152900 -23.887200 10.950000
19.253000 1.820330 23.706400 -10.478400 5.970000
-6.532820 2.292350 29.800200 -12.609600 11.410000
15.951700 0.838143 27.597000 -10.567200 8.000000
15.309400 0.838143 27.958500 -10.389600 5.350000
-6.581160 1.429460 31.167300 -12.698400 7.030000
15.734200 0.849469 28.215900 -10.478400 7.140000
-6.670100 1.448780 31.588500 -12.698400 7.890000
18.915200 1.569270 26.687300 -11.011200 8.640000
18.915200 1.569270 26.687300 -10.922400 5.330000
-6.759030 1.468090 32.009700 -12.698400 7.020000
18.955100 1.589910 27.185300 -11.011200 7.020000
-10.386200 1.105240 32.399100 -12.520800 8.350000
18.813700 1.651860 28.838100 -11.188800 5.330000
-10.517700 1.119230 32.809200 -12.520800 6.720000
19.048800 1.672510 29.198600 -11.188800 5.110000
19.284000 1.693160 29.559100 -11.188800 9.700000
18.822200 1.713800 30.362800 -11.366400 11.420000
19.049000 1.734450 30.728600 -11.366400 8.370000
-10.300000 2.041870 34.639000 -12.698400 10.770000
19.275800 1.755100 31.094400 -11.366400 5.630000
9.481440 1.415590 35.349700 -12.698400 10.320000
19.502500 1.775750 31.460300 -11.366400 10.530000
9.597400 0.888129 35.782000 -12.698400 8.150000
-5.111170 0.898456 37.127400 -12.876000 10.750000
-10.253600 2.236340 38.228500 -12.520800 6.550000
-5.461780 1.424970 39.674200 -12.876000 10.980000
-5.211270 1.440300 40.142100 -12.876000 11.280000
19.231300 1.690650 35.607900 -11.721600 6.900000
19.435900 1.708630 35.986700 -11.721600 9.960000
19.640500 1.726620 36.365500 -11.721600 9.710000
8.936020 -2.357880 40.762800 -12.787200 7.900000
-10.040700 1.615440 40.541200 -12.609600 6.880000
19.845000 1.744600 36.744300 -11.721600 14.190000
8.160200 -1.632100 41.400100 -12.876000 5.210000
8.243470 -1.648750 41.822500 -12.876000 9.440000
10.809200 -1.121300 41.251700 -12.698400 15.350000
-20.053100 -2.589480 38.538800 -11.366400 8.090000
-18.952600 -1.547550 39.146800 -11.544000 7.070000
-21.072000 -2.615120 38.482400 -11.277600 7.440000
-19.140300 -1.562870 39.534400 -11.544000 6.410000
-19.327900 -1.578200 39.922000 -11.544000 4.660000
23.314800 -0.658308 38.265400 -11.366400 7.110000
-21.501600 -2.008970 39.267100 -11.188800 7.020000
19.823400 1.732020 40.153400 -11.899200 6.110000
25.277100 -2.028290 37.470300 -11.100000 8.650000
-22.619200 -2.028290 39.132100 -11.100000 7.640000
24.063100 -0.670967 38.817000 -11.277600 7.490000
24.586900 1.105000 38.987800 -11.366400 8.680000
-17.857000 -2.573470 44.761700 -11.988000 8.020000
-18.021400 -2.333250 45.173700 -11.988000 7.350000
-17.829100 -2.353900 45.712300 -11.988000 7.430000
-17.721200 -2.221460 46.223100 -11.988000 6.200000
10.396700 15.100900 47.425800 -12.876000 9.720000
10.302600 -0.753256 50.225800 -12.876000 6.250000
-13.463600 -4.188010 50.196200 -12.432000 8.830000
-14.251700 -4.425170 50.407300 -12.343200 5.920000
-14.752800 -4.747210 50.684300 -12.343200 8.380000
-28.852900 1.619660 54.422000 -11.366400 12.930000
-15.961300 0.905173 59.508700 -12.432000 6.470000
-29.054700 1.630980 54.802500 -11.366400 10.760000
20.526500 0.911503 58.549000 -12.432000 7.280000
-29.256400 1.642310 55.183100 -11.366400 7.750000
21.122800 0.917833 58.794500 -12.432000 7.540000
21.268500 0.924163 59.200000 -12.432000 5.930000
-17.583200 7.038480 92.007100 -12.698400 10.900000
-17.663900 7.070760 92.429100 -12.698400 9.870000
-17.744600 7.103050 92.851200 -12.698400 5.390000
-17.829300 6.841610 93.294400 -12.698400 9.260000
-16.133800 7.522770 98.808900 -12.787200 8.260000
-16.203100 7.555060 99.233000 -12.787200 10.940000
-16.276000 7.275020 99.679800 -12.787200 13.090000
-17.116300 7.305980 99.975000 -12.787200 7.560000
-8.761230 1.599150 137.600000 -12.964800 5.090000
-8.788610 1.604150 138.030000 -12.964800 10.130000
-8.815980 1.609140 138.460000 -12.964800 7.590000
-8.843830 0.753279 138.897000 -12.964800 6.090000
-8.189970 1.205700 141.524000 -12.964800 13.100000
-8.214870 1.209370 141.954000 -12.964800 14.530000
-8.239760 1.213030 142.385000 -12.964800 11.530000
-9.090060 1.216700 142.765000 -13.053600 6.160000
-51.746100 -17.595600 132.673000 -11.899200 5.750000
19.421200 2.747170 185.979000 -13.053600 5.280000
19.466700 2.173840 186.415000 -13.053600 8.790000
