VERSION .7
FIELDS x y z velocity SNR
SIZE 4 4 4 4 4
TYPE F F F F F
COUNT 1 1 1 1 1
WIDTH 231
HEIGHT 1
VIEWPOINT 0 0 0 1 0 0 0
POINTS 231
DATA ascii
2.21012696466504 9.2370740163117 2.11322720245165 4.79615592604354 18.5795221451154
2.53040997415686 8.97067524147912 2.79247880323968 4.79615592604354 18.5795221451154
6.17031444443201 6.8911111853469 3.01889600350236 4.79615592604354 18.5795221451154
5.92464014196543 8.80001276426937 1.15886653037671 3.09429414583454 5.15557224288506
-0.728464725217007 10.4095563780077 2.23495688001223 3.71315297500145 8.15174730932217
5.983474876909 8.70991223606382 1.48997125334149 3.71315297500145 8.15174730932217
6.32449007690687 8.4930145981455 1.3244188918591 3.71315297500145 8.15174730932217
-0.725893213924471 10.372810203691 2.40050924149462 3.86786768229318 6.24071640464846
1.24070856247064 10.5912181527376 -0.413880903705969 3.86786768229318 6.24071640464846
6.1031000586099 8.70675871636772 0.910537988153131 3.86786768229318 6.24071640464846
6.12022862930063 8.21871652268602 2.97994250668297 3.86786768229318 6.24071640464846
6.11669167673567 9.08527160141032 0.852107742924053 3.09429414583454 7.64692377597976
6.79134693809413 8.40944517065575 1.95984780872532 3.09429414583454 7.64692377597976
6.77105892628917 8.3843233613224 2.13026935731013 3.24900885312627 6.25647652000918
6.41114185933297 8.43717085784856 2.89716632594178 3.403723560418 5.75106633195427
6.71260282631347 8.31193958059127 2.55632322877216 3.403723560418 5.75106633195427
6.52778732502527 8.76601787193304 1.10774006580127 3.71315297500145 9.75095925124728
6.44653681973046 8.65690840710911 2.04505858301773 3.86786768229318 11.1876796113635
5.3302598897268 9.92456361535837 0.876453678436169 1.54714707291727 16.872118264403
5.1584609832386 10.0222186281938 0.788808310592553 1.701861780209 11.6912607956397
5.39200223516277 9.83039157432867 1.40232588549787 1.701861780209 11.6912607956397
5.98149467577901 9.44062648605977 1.66526198902872 2.32072060937591 5.62991577963855
6.610028240922 8.87645733674083 2.27877956393404 3.86786768229318 5.4786899262897
5.93853582346926 9.76267132106157 2.07183911208105 1.39243236562554 9.67218585665182
5.38133370795517 10.2343172883986 1.08095953673794 1.54714707291727 21.0376994733898
5.91134920968457 9.71797781703931 2.34207899626554 1.54714707291727 21.0376994733898
5.29533681555859 10.2881505642663 0.990879575343113 1.701861780209 9.48709956926836
5.61945202984484 10.0330040277168 1.62143930510691 1.701861780209 9.48709956926836
5.67904690893851 10.1394050893866 2.68292209343516 1.23771765833382 6.70660245502327
5.38545892016005 10.4632460895564 1.94280565386684 1.54714707291727 11.3104724230023
5.72653400609823 10.2241888431295 2.22034931870496 1.54714707291727 11.3104724230023
6.09903679167113 10.0265273027119 2.12783476375892 1.54714707291727 11.3104724230023
5.74292827025068 10.2534592626293 2.03532020881288 1.701861780209 5.23076936170866
5.86825106945062 10.4772113549081 2.37372871243129 1.39243236562554 8.25081717872518
5.06122299294238 10.9723427166691 3.40843097169621 0.928288243750363 7.7137625187845
-1.94480175308698 12.384616854743 0.681686194339242 1.85657648750073 6.17831136451067
0.578579359572184 12.4184639262691 1.75290735687234 1.85657648750073 6.17831136451067
1.06799378482686 12.4714359445568 0.973837420484632 1.85657648750073 6.17831136451067
2.90551690335581 11.7288641564579 3.40843097169621 1.85657648750073 6.17831136451067
3.73148014622209 11.4332279506563 3.60319845579314 1.85657648750073 6.17831136451067
-2.82336380071462 12.2298384729735 -0.29215122614539 2.01129119479245 9.36409087104144
-1.9439213874657 12.3790106324665 0.779069936387706 2.01129119479245 9.36409087104144
-0.96960967710904 12.4627406382462 1.16860490458156 2.01129119479245 9.36409087104144
0.0965333865586459 12.4449028694959 1.65552361482387 2.01129119479245 9.36409087104144
1.06860773664076 12.4786053315222 0.876453678436169 2.01129119479245 9.36409087104144
0.19264073029884 12.4163197833912 1.8502910989208 2.16600590208418 5.37676243895457
6.22787043122518 10.8904648489693 0.486918710242316 2.16600590208418 5.37676243895457
6.61711233317675 10.6584435592109 -0.486918710242316 2.16600590208418 5.37676243895457
5.93043843561488 11.2786145411636 1.79673004079415 1.54714707291727 6.79381640412631
6.08433747988054 11.3286022868725 -0.499091677998374 1.701861780209 6.93386576083658
6.48643493871075 11.1104443354455 -0.299455006799025 1.85657648750073 11.3409239442465
6.48799662910916 11.1131193139822 -0.0998183355996745 2.01129119479245 23.8830695657102
6.58622624546015 11.0515806737667 -0.299455006799025 2.16600590208418 12.059540568344
7.38633462390889 10.5374371632661 0.0998183355996745 2.16600590208418 12.059540568344
6.1990919753761 11.3018316509259 2.76082908707393 1.08300295104209 6.68689795229002
6.1990919753761 11.3018316509259 2.76082908707393 1.23771765833382 5.84324404637093
6.09350773888438 11.5887426767206 1.5337939372633 1.54714707291727 5.64796999471223
6.41844306640771 11.4595275117452 1.12478222065975 1.54714707291727 5.64796999471223
0.810880447092629 13.0423580672491 1.73829979556507 1.701861780209 7.72155960815828
5.81981924611278 11.8067647457368 -0.715770504056204 1.701861780209 7.72155960815828
6.22822761426105 11.5965154509255 -0.715770504056204 1.701861780209 7.72155960815828
6.23067003709326 11.601063067979 -0.613517574905318 1.85657648750073 8.78766123399574
6.64324054504209 11.3790325471661 -0.409011716603546 1.85657648750073 8.78766123399574
6.64624044933133 11.3841710045672 -0.102252929150886 2.01129119479245 14.8587091482174
7.46087015058573 10.8604992171104 0.409011716603546 2.01129119479245 14.8587091482174
7.56580619513557 10.7934735467617 -0.204505858301772 2.16600590208418 9.14019029776833
5.60205277241993 11.6166992334871 3.97812586267972 1.08300295104209 7.8845174695243
6.1598626729049 11.46922480777 3.55937577187133 1.08300295104209 7.8845174695243
5.70208942907029 11.5679242947541 3.97812586267972 1.23771765833382 8.89944867709332
6.60172873840011 11.5442181339397 2.30312549944615 1.23771765833382 8.89944867709332
6.59251738047092 11.5281105461459 2.40781302214825 1.39243236562554 5.874424089853
5.7406321708049 11.395999554877 4.39687595348811 1.701861780209 5.19026893974143
6.48359341096434 11.820518475099 -0.628125136212587 1.701861780209 5.19026893974143
6.71494932411124 11.7422031149188 2.78517502258605 1.23771765833382 5.70631872946314
5.95916781392917 14.8548613380188 0.24832854222358 0.154714707291727 5.22078335321241
6.08331714338603 14.8044533482098 0.24832854222358 0.309429414583454 9.32555850416885
-8.12254796874776 12.8198628678148 -5.09073511558342 0.464144121875182 5.5789864912804
0.616021760737682 15.8718013630782 1.98662833778865 0.464144121875182 5.5789864912804
6.08240184309125 14.8022258594575 0.372492813335373 0.464144121875182 5.5789864912804
6.20035784203928 15.0892853768897 0.506395458652009 0.154714707291727 6.84381230101369
6.83613303359794 14.8202113611621 -0.126598864663002 0.154714707291727 6.84381230101369
6.20259787168772 15.0947367471943 0.253197729326004 0.309429414583454 11.627733768515
7.08612324804489 14.6941426380743 -0.506395458652009 0.309429414583454 11.627733768515
7.21591820213116 14.6390540726755 -0.126598864663002 0.464144121875182 8.60044709979008
7.34693761985118 14.9048553590603 -0.774200749285282 0.464144121875182 7.39959160340089
-5.37053399434114 16.0105849065789 1.44614856941968 0 6.82965279677514
5.78442025919826 15.9309763836472 0.131468051765425 0 6.82965279677514
5.96620632988223 14.8724067708331 -5.52165817414786 0.309429414583454 7.00750512215312
6.0074650396511 16.1284975070858 1.33902645316637 -0.154714707291727 13.428185478663
6.0109185186043 16.137769209263 1.20512380784973 0 19.8657619585748
6.11280292038829 16.4113026063511 1.49970962754633 -0.154714707291727 16.8781736634808
6.66422643032331 16.2181630456165 1.22703514981064 -0.154714707291727 16.8781736634808
6.11280292038829 16.4113026063511 1.49970962754633 0 14.7449141019591
6.53157586188475 16.2817455014872 1.09069791094279 0 14.7449141019591
-12.4783342482443 13.6460452142433 -1.00548713665038 2.16600590208418 7.92080867008104
-10.2703433021829 14.9501402841136 3.73466650755856 2.16600590208418 7.92080867008104
-8.35156869462706 15.5500250480488 -5.60199976133784 2.16600590208418 7.92080867008104
-0.85674943229402 18.3890277846447 -2.01097427330077 2.16600590208418 7.92080867008104
-0.875503986476804 18.7915702374975 -0.876453678436169 2.01129119479245 21.1095147053671
-0.436906548338263 18.7705379375804 -1.46075613072695 2.01129119479245 21.1095147053671
-1.02055872841949 18.7683407026412 -1.16860490458156 2.16600590208418 51.8980286640264
-0.436628780027736 18.7586043544596 -1.60683174379964 2.16600590208418 51.8980286640264
-1.02055872841949 18.7683407026412 -1.16860490458156 2.32072060937591 18.9870538530672
-0.436906548338263 18.7705379375804 -1.46075613072695 2.32072060937591 18.9870538530672
-0.592896023177039 19.1001353125665 -1.18808165299125 2.01129119479245 36.010805508763
-0.443905926361532 19.0712477603673 -1.63361227286297 2.16600590208418 107.29074670942
-0.443905926361532 19.0712477603673 -1.63361227286297 2.32072060937591 31.8331889394948
-0.603124968461799 19.4296606111118 -0.905668801050707 2.16600590208418 36.2105800390956
0 19.3450246306017 -2.11322720245165 2.16600590208418 36.2105800390956
-0.451729634125415 19.4073727370999 -1.35850320157606 2.32072060937591 9.2118434534418
-8.85765406005612 18.3676782975929 -0.632994323315012 -0.618858829166909 13.5156557251872
5.85361201786092 19.5381720262974 -0.474745742486259 -0.618858829166909 13.5156557251872
5.85079233870959 19.5287605080502 -0.791242904143764 -0.464144121875182 9.64386902415085
7.42962410746288 18.9770776160771 0.949491484972516 -0.464144121875182 9.64386902415085
5.94527745205868 19.8441326907138 -0 -0.618858829166909 8.73889037740115
7.22530280497609 19.3980784755037 0.803415871899822 -0.618858829166909 8.73889037740115
6.10596062643864 19.7952815351789 -0 -0.464144121875182 6.61662192892749
7.38341695262105 19.331104297513 0.964099046279785 -0.464144121875182 6.61662192892749
-14.80963257202 19.0991219810883 -0 -0.154714707291727 7.09975927430596
-14.805622413575 19.0939503129235 0.562391110329876 0 5.48005890501343
-15.1914067413288 19.1978323103231 0.189898296994503 0 8.50400827691446
-14.0978551363086 26.2492004208021 1.1564319368255 -0.773573536458636 5.80092724928524
-14.1016772741827 26.2563169688248 0.925145549460402 -0.618858829166909 12.3306674679247
-14.2531193249869 26.5382912624504 0.701162942748937 -0.618858829166909 9.25147773070418
-13.5558168931461 26.9102911811587 -0 -0.618858829166909 9.25147773070418
-12.6209329694808 27.3612133151131 -0 -0.618858829166909 9.25147773070418
-4.93720011830453 31.4403931934644 3.47659959113014 1.39243236562554 6.29110360192046
1.4845378520943 31.8637010781821 2.73161396445939 1.39243236562554 6.29110360192046
2.69513153809972 31.4722433942015 5.21489938669521 1.39243236562554 6.29110360192046
17.8796550400978 26.557088498779 -0 1.39243236562554 6.29110360192046
11.5798459162579 29.5777594608461 -6.01831525859502 1.23771765833382 7.0089855140907
15.0344684628795 28.5928226833567 -1.25381567887396 1.23771765833382 7.0089855140907
16.8006246669727 27.6194303592422 -0.250763135774792 1.23771765833382 7.0089855140907
15.0385445305348 28.6005746221765 -1.00305254309917 1.39243236562554 24.4556810368471
15.0385445305348 28.6005746221765 -1.00305254309917 1.54714707291727 7.83426229317288
15.1694536740784 28.8495399872118 -1.77238410528203 1.23771765833382 6.7615843982026
16.2046546768643 28.3365275653878 -0 1.23771765833382 6.7615843982026
16.9637375278171 27.8875801685552 0.253197729326004 1.23771765833382 6.7615843982026
15.1754024322646 28.8608534425843 -1.51918637595603 1.39243236562554 23.1053070920668
16.9622064246154 27.8850631074881 0.506395458652007 1.39243236562554 23.1053070920668
15.1804341761114 28.8704229035834 -1.26598864663002 1.54714707291727 5.9966836349442
-7.81292913818444 32.6536013031929 -0.781504529938919 1.08300295104209 9.91574033966223
-6.2399876537649 32.9337173250825 2.08401207983711 1.08300295104209 9.91574033966223
-5.19998971147075 33.1138534418478 2.08401207983711 1.08300295104209 9.91574033966223
-3.88098409559898 33.1297376734003 3.90752264969459 1.08300295104209 9.91574033966223
0.779150011203236 33.4741259886851 2.60501509979639 1.08300295104209 9.91574033966223
2.85506707829247 33.3398814583081 2.86551660977603 1.08300295104209 9.91574033966223
14.7944384966064 30.013725081131 2.86551660977603 1.08300295104209 9.91574033966223
17.3011962059734 28.4423462350087 4.42852566965386 1.08300295104209 9.91574033966223
16.8279106259744 29.4263940102104 -0 0.928288243750363 9.31934222473057
16.5629811298914 29.5716478234242 -0.525872207061699 1.08300295104209 24.3553255875813
16.7163420662793 29.8454593773448 -0.530741394164123 0.928288243750363 5.05077105742216
16.7138269133684 29.8409688079528 -0.796112091246189 1.08300295104209 12.8987619742408
5.60942168012901 39.7830288941578 5.0250010897007 -1.54714707291727 7.08626034009374
7.53387279393784 39.7626486983474 1.25625027242518 -1.54714707291727 7.08626034009374
-13.6684644132141 39.6674491996077 2.93611982276117 -1.54714707291727 6.29981366344216
6.05051962584644 40.6067067293059 9.13459500414585 -1.54714707291727 6.29981366344216
7.7764765429572 41.0430748362723 4.89353303793528 -1.54714707291727 6.29981366344216
8.15322918623403 41.2471303155824 5.25872207061701 -1.54714707291727 6.14329067621081
-18.5925147187739 39.4165980926238 9.3342316753452 -0.309429414583454 5.55716174761805
14.1673796531996 42.2356575864332 1.38284913708818 -0.309429414583454 5.55716174761805
15.5341040027822 41.7050712788228 2.41998598990431 -0.309429414583454 5.55716174761805
37.9873985573077 23.9936778896158 4.90814059924255 0.464144121875182 5.84031746141839
-27.5277970569676 36.2270453853256 1.05904819477704 0.309429414583454 14.157505171694
-24.6260098549629 37.3239645913332 8.4723855582163 0.309429414583454 14.157505171694
-23.61718628905 38.8255344620589 2.47111245447975 0.309429414583454 14.157505171694
-22.5760303131913 39.4779350775136 1.7650803246284 0.309429414583454 14.157505171694
-27.5344247186584 36.2357674999349 0.353016064925678 0.464144121875182 28.9594125382426
-26.1161151566103 37.2575758374952 -1.05904819477704 0.464144121875182 28.9594125382426
-24.3761009160131 36.9451946467358 10.5904819477704 0.464144121875182 28.9594125382426
-23.6064953490366 38.8079590635825 2.82412851940544 0.464144121875182 28.9594125382426
-22.559700335809 39.4493794024027 2.47111245447975 0.464144121875182 28.9594125382426
-22.7050018055994 39.7034631324242 2.84360526781513 0.309429414583454 16.2886724146962
-27.7251513611975 36.4867669795211 -0 0.464144121875182 34.7250130950261
-22.6933424799348 39.6830748668501 3.19905592629202 0.464144121875182 34.7250130950261
-27.724317302925 36.485669344762 0.35545065847689 0.618858829166909 5.61793077246262
-26.3001834402332 37.5201699482668 -0.710901316953779 0.618858829166909 5.61793077246262
-22.6803043759596 39.660275578617 3.55450658476891 0.618858829166909 5.61793077246262
-8.87315799845934 44.8892452196914 2.48815460933823 0.618858829166909 5.61793077246262
-22.8211309027829 39.9065341283266 3.93673777230913 0.464144121875182 6.21613432954718
17.1365822494028 49.7323243696574 3.68110544943191 -0.928288243750363 11.4920122115848
17.1365822494028 49.7323243696574 3.68110544943191 -0.773573536458636 15.4462238575821
15.1459199047803 50.5540148020023 5.34880203201184 -0.928288243750363 11.4393839127847
16.8184748524212 50.1390774004191 4.11446310154757 -0.928288243750363 11.4393839127847
16.8077823156232 50.1072009113304 4.52590941170233 -0.773573536458636 15.6380601781463
36.7644132404451 38.5295836051574 3.31104722964775 2.01129119479245 5.39075670030217
38.6405768521319 36.2695165730213 6.20821355558953 2.01129119479245 5.39075670030217
49.2041789914121 18.0940706704281 9.93314168894324 2.01129119479245 5.39075670030217
-32.3933863438966 42.6302429808019 3.74683947531462 1.85657648750073 14.4807091517266
38.8678743630268 36.4828666705097 6.24473245885771 1.85657648750073 14.4807091517266
-32.3933863438966 42.6302429808019 3.74683947531462 2.01129119479245 21.1893858637109
38.8311128709706 36.4483609344674 6.66104795611488 2.01129119479245 21.1893858637109
-34.6295136870886 41.1591805207603 4.60625099889231 1.85657648750073 18.8228080682695
-32.981589882335 42.5344386654842 4.18750090808392 1.85657648750073 18.8228080682695
-34.6053693760216 41.1304836101789 5.0250010897007 2.01129119479245 26.0003129615192
-32.9606214612048 42.5073969120194 4.60625099889231 2.01129119479245 26.0003129615192
-0.85399201638173 2.93663439210528 -0.706032129851358 0 5.3001148389716
0.072859618407325 3.13022140920966 -0.219113419609042 0 5.3001148389716
0.456394823742378 3.06299159518672 0.511264645754432 0 5.3001148389716
-0.738856268687221 8.62795154623558 -1.49970962754633 0.934395403248721 6.72757224674791
3.08472617019222 7.68952661760163 -2.93125063565874 0.934395403248721 6.72757224674791
6.7745781802223 5.37433100205268 1.56787824698026 0.934395403248721 6.72757224674791
0.317175812428878 10.2178134081628 -3.06271868742417 -0.10382171147208 5.09167119455794
6.41114185933297 9.91556566636741 -3.22827104890655 -0.830573691776641 5.87865681599286
7.24724399589037 9.73215995360088 -1.61413552445328 -0.726751980304561 5.30322897899083
6.96853592385803 9.3578891909611 3.70301679139281 -0.62293026883248 5.37769421775819
7.06032129851358 14.0157766568535 -0 -1.24586053766496 13.5734704006223
8.16495818651865 13.7006672308656 1.3658069822297 -1.34968224913704 6.9848081815021
6.70246940758354 15.2055617951097 0.774200749285282 -1.5573256720812 5.09079438519239
-12.0643936625135 14.0464320938806 -0.287282039042966 0.830573691776641 7.25250209291514
-8.2819111788422 16.440812318129 -2.01097427330077 0.830573691776641 7.25250209291514
-12.0643936625135 14.0464320938806 -0.287282039042966 0.934395403248721 5.20325191959743
-8.30607893563074 16.4887888714788 -1.43641019521483 0.934395403248721 5.20325191959743
-0.726058840927136 18.7069068587813 -2.04505858301773 0.726751980304561 9.53657500095957
-0.726058840927136 18.7069068587813 -2.04505858301773 0.830573691776641 42.5554515479366
-0.581324288684997 18.7273520825243 -1.89898296994503 0.934395403248721 27.3366496044631
-0.738159821609255 19.018688639761 -2.07914289273469 0.726751980304561 16.760575497448
-0.738766283537183 19.0343141320209 -1.93063268611078 0.830573691776641 70.1284160849386
-0.739327378795643 19.0487707519906 -1.78212247948688 0.934395403248721 45.9612582285336
-0.748889199328163 19.2951310688402 -2.41511680280189 0.726751980304561 7.21014029329223
-0.750260802291374 19.3304704207407 -2.11322720245165 0.830573691776641 38.4393218415375
-0.75087720621812 19.3463520686114 -1.96228240227653 0.934395403248721 19.5803354420919
-0.458140572434022 19.682801798978 -1.84055272471595 0.830573691776641 13.0769923047416
-0.458751875755176 19.7090648344594 -1.5337939372633 0.934395403248721 7.74928959566591
-0.310491576908611 20.0121890265172 -1.71395386005295 0.830573691776641 7.87941966673221
-0.489294416094676 21.0212445542031 0.326235535862351 0.726751980304561 6.47700352444073
16.9304475146271 25.6603252931784 -6.32994323315011 -0.934395403248721 15.4807092363258
16.8858506556841 26.1159033262024 -6.14734871680924 -1.0382171147208 12.2235884296067
16.8858506556841 26.1159033262024 -6.14734871680924 -0.934395403248721 11.8942208067175
36.0926151047943 22.7968909140192 11.6714414845083 -1.45350396060912 6.99037086906953
36.7614391560054 22.4704313684406 -11.4085053809775 -1.34968224913704 16.2440563801525
