VERSION .7
FIELDS x y z velocity SNR
SIZE 4 4 4 4 4
TYPE F F F F F
COUNT 1 1 1 1 1
WIDTH 319
HEIGHT 1
VIEWPOINT 0 0 0 1 0 0 0
POINTS 319
DATA ascii
-1.26700069858223 10.8156590550433 1.44858316297089 4.64144121875182 6.65990824707293
1.01015020689553 10.805434321789 1.70421548584811 4.64144121875182 6.65990824707293
5.70895012955384 9.38524332595608 0.085210774292405 4.64144121875182 6.65990824707293
-1.60800898665005 10.7917920074265 -1.27816161438608 4.79615592604354 5.48327606376364
-1.2576568403878 10.7358958910587 1.95984780872532 4.79615592604354 5.48327606376364
5.41587336558396 9.27670748642437 -2.30069090589494 4.79615592604354 5.48327606376364
5.78805413281887 9.32304684975633 0.511264645754432 4.79615592604354 5.48327606376364
-2.33481983514521 10.901274535701 -1.84055272471595 4.02258238958491 5.18142150240448
-9.45977252900521 5.97500075261993 -1.5776166211851 4.17729709687663 63.5630265275399
-2.43003331020317 10.9216696711461 -1.5776166211851 4.17729709687663 63.5630265275399
-9.57551216110403 5.85303224720479 -1.31468051765425 4.33201180416836 37.9891011594261
-6.71683687933326 8.83947066195931 -2.1034888282468 4.33201180416836 37.9891011594261
-2.84406037532092 11.0996102085788 -1.8916791892914 4.02258238958491 31.0709707027722
-2.49170384367563 11.198844964259 -1.80159922789657 4.02258238958491 31.0709707027722
-2.49753423548659 11.2250493842335 -1.62143930510691 4.17729709687663 338.710096142413
-2.41335583912527 11.2679591626843 -1.44127938231726 4.33201180416836 219.935290670291
-3.33531326397976 11.1326005403825 -2.68292209343516 4.02258238958491 53.8984609113366
-2.92092687195121 11.3995996736755 -1.94280565386684 4.02258238958491 53.8984609113366
-2.30107530937811 11.6411241465086 -1.20268921429852 4.33201180416836 231.443705138423
-3.4352111061704 11.4660393162735 -2.56362700942579 4.02258238958491 24.1741139577962
-2.92343287948858 11.8011865890168 -1.42423722745877 4.02258238958491 24.1741139577962
-2.74149578784379 11.4578935566074 3.32322019740381 4.17729709687663 72.0997944967376
-2.451911447313 11.9080894758227 -1.42423722745877 4.17729709687663 72.0997944967376
3.962119857949 11.4985256160894 3.11627974555082 3.55843826770973 11.3700223059633
4.35250552777456 11.6853571499712 1.46075613072695 3.55843826770973 11.3700223059633
4.34400239513908 11.6625284272723 1.65552361482387 3.71315297500145 25.8241499613964
4.35250552777456 11.6853571499712 1.46075613072695 3.86786768229318 42.6823660531255
4.2380960665745 11.6722169764312 1.8502910989208 4.02258238958491 18.5744278630559
4.51148318154675 10.9792142540289 -4.09011716603545 4.02258238958491 18.5744278630559
-2.28537953009257 12.061889798642 -2.62936103530851 4.17729709687663 13.1861992312201
-1.80287203458365 12.0995716906817 -2.82412851940543 4.17729709687663 13.1861992312201
-2.31680127740751 12.2277290600876 -1.65552361482387 4.33201180416836 16.8085906203515
-2.33150778903439 12.3053478189109 -0.876453678436169 4.48672651146009 13.5030188689769
-1.62409879007994 12.2090434484282 -2.43459355121158 4.64144121875182 14.3679969648447
5.30378494918595 10.9981960286272 2.9215122614539 4.64144121875182 14.3679969648447
5.23655925501658 10.8587934378889 3.50581471374468 4.79615592604354 6.44478552630886
4.46526187170188 11.9880789136331 1.39745669839545 3.55843826770973 18.052265098558
4.47232463566544 12.0070406171515 1.1978200271961 3.71315297500145 37.1724869368856
4.48316869984277 12.0361541385614 0.798546684797399 3.86786768229318 42.4829158752072
4.86616873320065 11.8423824201754 1.29763836279577 3.86786768229318 42.4829158752072
6.65374092090702 10.9384345901553 1.29763836279577 4.48672651146009 21.9262612982631
-1.53711216822695 12.2897208422011 3.49364174598862 4.64144121875182 38.0834688264472
6.11381387125817 11.1463574653388 1.9963667119935 4.64144121875182 38.0834688264472
6.64363381686922 10.4856843941016 3.39382341038894 4.64144121875182 38.0834688264472
6.16918702173014 11.0145042449034 2.49545838999187 4.79615592604354 14.0155497075615
4.04060082758211 12.3803714636211 2.04505858301773 3.403723560418 14.4171935598895
4.45000086990322 12.2558278252527 1.94280565386684 3.403723560418 14.4171935598895
4.55631245663095 12.2325263007347 1.84055272471595 3.55843826770973 22.5846007516788
4.59136053304608 12.0210019156904 2.86308201622482 3.71315297500145 28.9547364303057
4.3624937939566 11.712173074018 4.19237009518634 3.86786768229318 22.0485405512268
5.01039352839343 12.1933700806507 -0 3.86786768229318 22.0485405512268
4.86006662040634 12.115049952263 1.84055272471595 4.02258238958491 31.2302441014058
5.37750760549836 11.9242643310512 1.63604686641418 4.02258238958491 31.2302441014058
5.9670466210066 11.5931953337772 1.94280565386684 4.33201180416836 19.7591117994897
6.01092287171515 11.678441181059 1.12478222065975 4.48672651146009 17.7575313233272
6.27684132040572 11.2067108882694 2.9653349453757 4.64144121875182 17.1875942566739
6.77479853617771 10.6927024038567 3.68110544943191 4.64144121875182 17.1875942566739
6.32932705937172 11.3004192476694 2.45407029962127 4.79615592604354 10.0429951964039
4.14177570142508 12.6903705391077 1.98906293133986 3.403723560418 9.54614343405822
4.55595327156759 12.5476332496635 1.98906293133986 3.55843826770973 20.0065547846656
3.84559485153091 12.4672655808934 3.45468824916923 3.71315297500145 11.5928884541122
4.29192397654307 12.4556549412756 -2.93125063565874 3.71315297500145 11.5928884541122
4.65390631034011 12.4945406804882 2.09375045404196 3.71315297500145 11.5928884541122
4.99822549587863 12.1637577712053 3.03593815836084 3.86786768229318 12.6508689775721
5.28847598084331 11.7268426435162 4.08281338538182 3.86786768229318 12.6508689775721
4.94808640938262 12.0417385258731 3.55937577187133 4.02258238958491 18.0736132775227
-2.86209340344472 12.3976017578154 4.50156347619021 4.17729709687663 15.4267714510639
-3.0094283259658 13.0358058402666 -1.77968788593566 4.33201180416836 13.5916119901929
5.68810771263791 12.0589311885933 -2.09375045404196 4.33201180416836 13.5916119901929
5.6654446238422 12.0108848712387 2.40781302214825 4.48672651146009 8.68133001359484
5.99836813332725 11.907643364616 2.09375045404196 4.48672651146009 8.68133001359484
4.02986059729501 12.6973237748858 3.64215195261252 3.403723560418 8.50458271235991
3.74521149770633 13.2773251764358 -0.642732697519857 3.55843826770973 27.2618774872204
4.17663127760887 13.1597702550087 -0.321366348759929 3.55843826770973 27.2618774872204
5.31972897839112 12.6430080940974 1.60683174379964 3.86786768229318 9.33737789932366
-3.31438596562902 13.3793689887107 -0.856976930026477 4.17729709687663 8.78678282103822
5.74530729666241 12.4553849453907 -1.60683174379964 4.17729709687663 8.78678282103822
-3.19728358776748 13.3628273956754 -1.39258751129302 4.33201180416836 9.50882704015063
2.84036584591301 13.2616690170445 3.94404155296276 3.09429414583454 7.73589113432353
4.08289145165987 12.864413904103 4.1631549725718 3.403723560418 11.4110213763472
4.41834687142024 12.8225486616382 3.94404155296276 3.403723560418 11.4110213763472
4.16302973199875 13.4963768399373 0.109556709804521 3.55843826770973 22.8684416557024
4.59459414166799 13.3340384257966 0.766896968631647 3.55843826770973 22.8684416557024
4.70739425172685 13.3054642748757 0.547783549022606 3.71315297500145 26.3704188345583
-1.96035887050327 13.9032181988423 -1.5337939372633 4.33201180416836 7.48724821108159
4.58309048791529 13.3006535050732 3.24774779731625 3.403723560418 30.2870722141318
4.57797523296569 12.9396610218373 4.47965213422931 3.55843826770973 11.7572853492437
4.92702436903294 13.5696068659433 0.223982606711465 3.71315297500145 14.118572522089
5.03581710649848 13.5198728768662 0.559956516778664 3.86786768229318 8.94122692995256
-1.89092184595539 14.2148661866284 -1.67986955033599 4.33201180416836 5.18767672955014
4.55381508643591 13.575790259789 3.54720280411527 3.403723560418 11.6866365350364
-3.38242642483436 14.136619180907 -2.51736973195277 3.55843826770973 8.96108014837273
3.79698533918445 13.4608710534468 4.69146177318472 3.55843826770973 8.96108014837273
5.03095158272409 13.8558346835537 0.572129484534721 3.71315297500145 7.0501474000031
5.48831081751719 13.681121042371 0.572129484534721 3.71315297500145 7.0501474000031
6.23178185205873 13.211534016723 2.059666144325 3.71315297500145 7.0501474000031
4.68920312465059 13.9794077926927 -0.457703587627778 3.86786768229318 5.36497787003413
5.03095158272409 13.8558346835537 0.572129484534721 3.86786768229318 5.36497787003413
5.59319003973564 13.6116725561424 1.0298330721625 3.86786768229318 5.36497787003413
3.96128603826691 14.4887391195312 1.16860490458156 3.403723560418 5.33625862637036
4.57075906018514 14.0047724213495 3.15523324237021 3.403723560418 5.33625862637036
4.6317994651865 14.1917997770457 3.69814760429039 3.55843826770973 5.58178682068115
4.7438856800348 14.9470809166148 -0.608648387802895 3.55843826770973 5.16486621879243
5.72112273110939 14.6131471187499 -0.121729677560579 3.55843826770973 5.16486621879243
-10.6339847189301 13.9945033103197 -0.136337238867848 4.79615592604354 5.45127024125607
-6.66096234861901 17.0137274321239 3.01646140995115 3.09429414583454 11.8027935106904
-6.66080367254659 17.4391736678973 2.48328542223581 2.93957943854282 11.7393420406865
5.94842422129189 17.7333857593482 2.19113419609042 2.93957943854282 11.7393420406865
4.91233862262044 17.9672944802248 2.7754366483812 3.09429414583454 62.0686598279354
5.97105616062291 17.8008558818056 1.46075613072695 3.09429414583454 62.0686598279354
4.91233862262044 17.9672944802248 2.7754366483812 3.24900885312627 27.7793462473003
5.97448870940064 17.8110889636015 1.31468051765425 3.24900885312627 27.7793462473003
6.04756462498009 18.0289421886707 2.2276530993586 2.93957943854282 17.1706029274559
5.12161731703642 18.156886090199 3.26722454572594 3.09429414583454 206.338215381765
6.06671432694092 18.0860310981725 1.63361227286297 3.09429414583454 206.338215381765
4.981909812851 18.2217569996562 3.11871433910203 3.24900885312627 101.444488789702
6.07057376329996 18.097536813169 1.48510206623906 3.24900885312627 101.444488789702
6.14089143449094 18.3071671862795 2.41511680280189 2.93957943854282 7.6348135517366
5.21250930274189 18.4791115375155 3.16984080367748 3.09429414583454 75.08803163563
6.01157999807605 18.4194372657178 1.81133760210142 3.09429414583454 75.08803163563
5.39200223516277 18.5415541390842 2.41511680280189 3.24900885312627 35.6207360685575
6.01577430260435 18.4322885841993 1.6603928019263 3.24900885312627 35.6207360685575
2.86782008765833 19.2467319260472 4.98604759288132 2.63015002395936 8.67384938059404
3.69426361378936 19.4977683180943 3.11627974555082 2.63015002395936 8.67384938059404
2.91262977652799 19.5474621123917 5.06395458652009 2.63015002395936 6.72540478843879
3.7648020757872 19.8700597226424 2.6902258740888 2.63015002395936 6.72540478843879
5.61019061736401 19.888950243304 1.44614856941968 2.93957943854282 7.0706180615673
4.55615480440471 20.4774220729317 1.46805991138058 2.78486473125109 8.04247718424268
4.55353713712544 20.4656570912695 1.63117767931176 2.93957943854282 9.94391270055141
5.54600410965998 20.2849796567245 -0 2.93957943854282 9.94391270055141
4.63197863322373 20.8182086819406 0.827761807411938 2.78486473125109 6.698788910689
4.62862817234701 20.8031501941462 1.15886653037671 2.93957943854282 7.38099494610958
-11.3719401166743 19.478698059283 1.40232588549787 3.71315297500145 7.25738408293144
-9.96719579812204 20.2206169962625 1.57761662118511 3.71315297500145 7.25738408293144
-11.3329425571643 19.8175305535227 1.9549786216229 3.71315297500145 5.49936888746756
-10.2882039431622 20.4235986679358 1.42180263390756 3.71315297500145 5.49936888746756
16.3104592957815 22.349356115791 -5.6969489098351 -4.33201180416836 7.64875415470281
16.3365231237453 22.3850699949859 -5.47783549022606 -4.17729709687663 26.117269180263
16.4083664864305 22.483513139234 -4.82049523139893 -4.02258238958491 7.07742863347755
16.5675327773753 22.7016102543088 -5.09560430268584 -4.02258238958491 12.1771055003984
14.6228250562725 32.4251389360057 3.88561130773368 4.33201180416836 8.04090536123781
16.3509207390788 31.7677119109337 1.94280565386684 4.33201180416836 8.04090536123781
14.4421886811814 34.3236862506258 2.89716632594178 4.02258238958491 8.25026117292944
-7.5142553117421 36.494150184119 2.6074496933476 4.17729709687663 10.5411108756626
14.4119979903155 34.2519342590235 3.76631622372431 4.17729709687663 10.5411108756626
14.5635516112754 34.6121205888663 2.9215122614539 4.02258238958491 29.7959022077536
16.3584998813742 33.9218105849564 0.584302452290777 4.02258238958491 29.7959022077536
14.5635516112754 34.6121205888663 2.9215122614539 4.17729709687663 40.6666784254898
16.3560385696571 33.916706684815 0.876453678436171 4.17729709687663 40.6666784254898
14.6933563788105 34.9206180204582 2.65127237726941 4.02258238958491 18.0320351808948
16.494820713719 34.204492339831 0.5891716393932 4.02258238958491 18.0320351808948
14.6849145413694 34.9005549271069 2.94585819696601 4.17729709687663 27.6491040034541
16.4923388910709 34.1993459071885 0.883757459089806 4.17729709687663 27.6491040034541
-9.72573869578361 39.2604385995145 5.38045174817759 3.71315297500145 6.23214025469672
-2.8236015568404 40.3484734092024 5.38045174817759 3.71315297500145 6.23214025469672
0.305953078763168 39.4428962203424 10.4444063346977 3.71315297500145 6.23214025469672
-9.66750247665423 39.0253531651928 6.96293755646512 3.86786768229318 7.39881579426677
-2.79868203305553 39.9923804114605 7.59593187978013 3.86786768229318 7.39881579426677
0.303907456764354 39.1791784746951 11.3938978196702 3.86786768229318 7.39881579426677
14.3450194186898 38.5126852018889 1.27572702083487 3.71315297500145 48.4535170015882
14.3480427631144 38.5208021035593 0.956795265626153 3.86786768229318 45.0787176006114
14.4545233837179 38.8066751652621 1.28546539503972 3.71315297500145 76.7541812741007
15.7393699067151 38.3035705721047 1.28546539503972 3.71315297500145 76.7541812741007
14.4575698071076 38.814854028014 0.964099046279788 3.86786768229318 71.0428147710744
14.5600798948761 39.0900672309392 1.6190047115557 3.71315297500145 13.9786481360686
15.854309218865 38.5832886345518 1.6190047115557 3.71315297500145 13.9786481360686
14.5600798948761 39.0900672309392 1.6190047115557 3.86786768229318 13.4284767363435
15.5124926719763 38.6691455660322 2.59040753848912 3.86786768229318 13.4284767363435
-9.47506787409912 41.0427269738894 4.60138181178989 3.71315297500145 6.97031185107015
14.7540727274833 39.6108880591 2.95803116472207 3.71315297500145 6.97031185107015
-14.22679151633 40.2120698085133 1.65552361482388 3.55843826770973 34.1815512383493
-12.5360974176852 40.6415293051516 3.64215195261252 3.55843826770973 34.1815512383493
-10.86184026027 41.020553306481 4.63546612150685 3.55843826770973 34.1815512383493
-3.63117886841133 42.4028822114931 3.31104722964775 3.55843826770973 34.1815512383493
14.4824536803599 39.8863874373915 4.63546612150685 3.55843826770973 34.1815512383493
-14.2165008150658 40.1829831098617 2.31773306075342 3.71315297500145 74.4094404861059
-12.5075736330381 40.5490563296312 4.63546612150685 3.71315297500145 74.4094404861059
-10.86184026027 41.020553306481 4.63546612150685 3.71315297500145 74.4094404861059
-3.6288703051194 42.3759240965411 3.64215195261252 3.71315297500145 74.4094404861059
14.22679151633 40.2120698085133 1.65552361482388 3.71315297500145 74.4094404861059
14.3417591527512 40.5370261850922 0.333539316515985 3.55843826770973 178.928399894612
14.3404647025559 40.5333674176491 0.667078633031971 3.71315297500145 402.33757993197
14.3266499564857 40.4943199955566 2.00123589909592 3.86786768229318 17.2602820869577
14.446443526129 40.8329168871732 -0.335973910067197 3.55843826770973 188.557843879346
15.4473593333067 40.4439457109769 1.34389564026879 3.55843826770973 188.557843879346
16.7860570216616 39.8941855224048 1.67986955033599 3.55843826770973 188.557843879346
14.446443526129 40.8329168871732 0.335973910067197 3.71315297500145 417.815117146037
15.4473593333067 40.4439457109769 1.34389564026879 3.71315297500145 417.815117146037
16.7860570216616 39.8941855224048 1.67986955033599 3.71315297500145 417.815117146037
14.1070832663293 40.9403713471106 1.0079217302016 3.86786768229318 20.3110643928353
15.4431724599287 40.4329837286766 1.67986955033599 3.86786768229318 20.3110643928353
14.2127295762624 41.2469690383879 0.338408503618409 3.55843826770973 23.3493173447739
15.5550795067398 40.7259763643917 1.69204251809205 3.55843826770973 23.3493173447739
16.8954652299431 40.1542079537133 2.36885952532887 3.55843826770973 23.3493173447739
14.2114467719438 41.2432461933337 0.676817007236817 3.71315297500145 45.2795034508547
15.5550795067398 40.7259763643917 1.69204251809205 3.71315297500145 45.2795034508547
16.8954652299431 40.1542079537133 2.36885952532887 3.71315297500145 45.2795034508547
14.258555201982 42.507469266002 2.08888126693954 3.55843826770973 6.98489997520865
16.6929426754911 41.6117411878047 2.08888126693954 3.55843826770973 6.98489997520865
18.9605277626468 40.196794987051 6.26664380081861 3.55843826770973 6.98489997520865
14.0194616311347 42.9555281800238 1.05174441412341 3.55843826770973 5.99740561020063
15.3958573887283 42.4020090994956 2.80465177099574 3.55843826770973 5.99740561020063
16.7954807877037 41.8673455752529 2.80465177099574 3.55843826770973 5.99740561020063
-5.39438185021732 46.0487472263834 2.88255876463451 3.24900885312627 6.27038769547249
14.0507829338232 44.2713428650971 0.720639691158625 3.24900885312627 6.27038769547249
-15.0439391840103 43.6592345199213 5.0444778381104 3.403723560418 12.634688160115
-5.38508828700873 45.9694134018771 3.96351830137245 3.403723560418 12.634688160115
14.0507829338232 44.2713428650971 0.720639691158625 3.403723560418 12.634688160115
14.1474231260905 44.5758377182711 -0 3.24900885312627 19.3547182068109
14.1474231260905 44.5758377182711 -0 3.403723560418 43.2503448723466
16.6786705845123 43.6677384850402 1.4510177565221 3.403723560418 43.2503448723466
14.1469975278624 44.5744967392547 0.362754439130524 3.55843826770973 6.69346537649206
15.2283514032503 44.1944199012009 1.4510177565221 3.55843826770973 6.69346537649206
16.6786705845123 43.6677384850402 1.4510177565221 3.55843826770973 6.69346537649206
14.2406583788749 44.869604255166 -0.730378065363472 3.24900885312627 11.7281946987304
16.7860570216616 43.9488953572572 1.82594516340869 3.24900885312627 11.7281946987304
14.2385157191212 44.8628531420753 -1.09556709804521 3.403723560418 25.819663135216
15.3263998893432 44.4789678375022 1.82594516340869 3.403723560418 25.819663135216
16.7860570216616 43.9488953572572 1.82594516340869 3.403723560418 25.819663135216
13.8618772332504 46.2681402806114 1.87463703443292 3.24900885312627 7.81761494782971
13.9607138124525 46.5980367754678 0.754724000875587 3.24900885312627 18.0793408737333
16.5914360706858 45.6947739564005 1.88681000218897 3.24900885312627 18.0793408737333
13.9556719874785 46.5812081842718 1.50944800175118 3.403723560418 14.3012755152937
16.5914360706858 45.6947739564005 1.88681000218897 3.403723560418 14.3012755152937
-24.5407888233372 42.0352737283149 5.31715231584609 2.16600590208418 5.01816369040749
4.17159976037157 48.7136160686896 2.65857615792304 2.16600590208418 5.01816369040749
6.07601424165328 48.5797461022585 0.75959318797801 2.16600590208418 5.01816369040749
-24.4449779419248 41.8711617816568 6.83633869180211 2.32072060937591 11.5937637995135
4.16757017289898 48.6665607929367 3.41816934590106 2.32072060937591 11.5937637995135
6.07381992689562 48.562201829063 1.51918637595603 2.32072060937591 11.5937637995135
14.0520512357291 46.9029026058253 0.379796593989005 3.24900885312627 8.49440124338463
15.1625868222325 46.458055427607 3.03837275191206 3.24900885312627 8.49440124338463
16.6929426754911 45.9743351313281 2.27877956393404 3.24900885312627 8.49440124338463
14.0457085809461 46.8817321080412 1.51918637595603 3.403723560418 7.04944693964153
15.1625868222325 46.458055427607 3.03837275191206 3.403723560418 7.04944693964153
16.6984775937225 45.9895789496676 1.89898296994503 3.403723560418 7.04944693964153
6.86690230122258 48.7013079495593 3.05784950032175 2.16600590208418 8.84788550944218
6.86337605397 48.6762991689153 3.44008068786196 2.32072060937591 22.0543145414506
6.482077384305 48.7285409634214 3.44008068786196 2.47543531666763 5.87825051374025
5.36568256345195 49.1188364552309 4.23132359200573 2.32072060937591 8.1222558234278
-19.8609039774408 46.1106257691026 1.16860490458156 3.24900885312627 5.12235021626554
-17.4397286605499 46.8211830396715 5.06395458652008 3.24900885312627 5.12235021626554
-15.8624645901117 47.2890286915952 5.84302452290779 3.24900885312627 5.12235021626554
-5.38065476412066 49.2558958260239 8.18023433207091 3.24900885312627 5.12235021626554
17.486308417758 46.9462376996741 3.50581471374468 3.24900885312627 5.12235021626554
13.717283754694 48.629786878539 0.783939123490126 3.09429414583454 8.57990648522014
16.8465766642221 47.6169005554476 1.56787824698026 3.09429414583454 8.57990648522014
16.4547958115658 47.7537020408949 1.56787824698026 3.24900885312627 11.0344974758837
16.3861281798074 51.6295712698973 3.79066215923643 2.93957943854282 7.19037368090875
13.4296683610156 54.212300637696 6.10109143933622 2.93957943854282 10.1787278651159
16.5556211831559 53.6726655084069 1.30737673700062 2.93957943854282 10.1787278651159
-10.3971626020766 54.8746621178188 6.10109143933622 3.09429414583454 11.5833364704752
16.5581125287362 53.6807423517048 0.871584491333743 3.09429414583454 11.5833364704752
16.6400913084298 53.9465142954212 2.19113419609042 2.93957943854282 20.1353059705277
13.4800055879069 54.4154997639993 7.01162942748935 3.09429414583454 22.6716813483715
14.057367226557 53.0887002430865 -14.5418272813868 2.93957943854282 5.72587720331294
13.3575672326556 53.9212459413408 -11.897858684771 3.09429414583454 7.30481945614257
13.432088557152 56.138492575186 6.305597297638 2.93957943854282 13.9691950730186
16.2100025109995 55.7415642731674 1.35119942092243 2.93957943854282 13.9691950730186
13.5260549956711 56.5312188581222 5.43401280630425 2.78486473125109 6.86672672975165
16.3000766675122 56.0513035456441 0.905668801050705 2.78486473125109 6.86672672975165
13.5260549956711 56.5312188581222 5.43401280630425 2.93957943854282 34.215737151686
16.3000766675122 56.0513035456441 0.905668801050705 2.93957943854282 34.215737151686
16.3000766675122 56.0513035456441 0.905668801050705 3.09429414583454 12.6734725233586
13.6169207565425 56.9109860715614 4.55268994076566 2.93957943854282 11.548745388014
16.3891907343951 56.3577413443691 0.455268994076564 2.93957943854282 11.548745388014
13.6571667978394 63.7653160222739 7.12362073084509 2.78486473125109 6.03917798378543
13.7225120935229 64.0704132281221 7.15770504056205 2.78486473125109 11.5405216170953
16.3525921108728 63.8198119511045 2.04505858301773 2.78486473125109 11.5405216170953
6.0591925541785 8.13675255867909 -2.08888126693954 0.830573691776641 5.73928413911045
6.66654607772186 7.92357570892556 -0.241024761569947 0.830573691776641 5.73928413911045
-0.321390166972125 10.3535787681661 -2.56606160297701 0.726751980304561 14.7731001837888
6.20354281235321 8.67348351420395 -0.413880903705969 0.830573691776641 8.86179761529647
6.3908080719304 8.93530844083967 -0 0.726751980304561 7.43936812150472
-6.72666744344562 8.8524078501958 -2.01584346040319 1.66114738355328 5.31273253616364
-1.80837915982049 10.9536251561544 -2.1034888282468 1.66114738355328 5.31273253616364
-9.55680526930598 5.84159765873612 -1.48997125334149 1.76496909502536 16.0745610265937
-6.80295017265804 8.77336926132388 -2.1034888282468 1.76496909502536 16.0745610265937
-9.5664555785146 5.84749641068204 -1.40232588549787 1.86879080649744 9.64323120166381
-6.792554351452 8.75996237520821 -2.19113419609042 1.86879080649744 9.64323120166381
6.07768118783993 9.5924381957719 2.43215895766037 0 5.27827542772872
6.87559045763958 9.23307482777519 1.53135934371208 0.31146513441624 5.20789472944841
-2.30772639765295 11.2078323461007 -1.98175915068623 1.66114738355328 30.1448330197657
-2.31079905494825 11.2227551843791 -1.8916791892914 1.76496909502536 125.292639194865
-2.31650478184356 11.2504659348911 -1.71151926650174 1.86879080649744 62.8388524389784
6.38177576333944 10.0723923643099 -0.277543664838121 0.62293026883248 15.6488359897779
-2.3700973813733 11.5107467338332 -2.03532020881288 1.66114738355328 77.6290902579671
-2.37625810574472 11.5406672503882 -1.8502910989208 1.76496909502536 305.291577947812
-2.38181836357216 11.5676715077362 -1.66526198902872 1.86879080649744 144.771278179486
6.54833710868435 10.3352770668215 -0.379796593989007 0.62293026883248 23.8877922039247
-3.06894168328521 11.5900881339746 -2.46867786092854 1.66114738355328 59.5010645140677
-2.44172125653781 11.8585992286689 -1.80403382144778 1.76496909502536 192.722299445157
-2.44712134926168 11.8848256192689 -1.61413552445328 1.86879080649744 64.5937330596715
-3.21390166972125 11.7551175044126 -3.01889600350236 1.66114738355328 26.5270937740894
-3.22015514772004 11.7779901297265 -2.9215122614539 1.76496909502536 38.0886901232457
-7.75099051579995 9.79515713685753 -1.26598864663002 1.86879080649744 7.55420296909746
-2.76150026552852 11.9618669694423 -2.62936103530851 1.86879080649744 7.55420296909746
3.7370374685809 11.774693826705 2.23982606711465 1.86879080649744 7.55420296909746
6.78644280557192 10.7110806193383 2.19600338319285 0.31146513441624 7.92704241912772
6.74750682834951 10.8684751103246 -1.39745669839545 0.41528684588832 5.40567062048954
-3.26636335748226 11.9470005697598 -3.49364174598862 1.66114738355328 8.92286711251672
-3.38881705475406 12.39488533669 0.698728349197723 1.76496909502536 14.8228994709906
-2.17902599288388 12.5819959997367 -1.5970933695948 1.86879080649744 5.88031452205731
-1.78283944872317 12.6442184857401 -1.5970933695948 1.86879080649744 5.88031452205731
-3.36204160621356 12.6970019464144 -1.12478222065975 1.76496909502536 11.5732837189079
6.17031444443201 11.2493660944619 -4.18750090808392 0.10382171147208 9.29929128059828
-2.9816816400741 13.4010269738598 -1.49970962754633 1.76496909502536 5.11332178768052
-10.9437998309601 8.90483891329704 -0.657340258827126 1.76496909502536 6.15353281520218
-3.16555865520108 13.7121085918979 -1.20512380784973 1.76496909502536 6.15353281520218
-1.82419610544925 13.7132603299256 -2.84847445491755 1.76496909502536 6.15353281520218
-11.0489049597254 8.76519111361666 -0.766896968631647 1.86879080649744 5.76953852859445
-7.57612655171646 11.7173480120233 -2.19113419609042 1.86879080649744 5.76953852859445
-1.84212698348267 13.8480543894468 -2.0815774862859 1.86879080649744 5.76953852859445
-1.89092184595539 14.2148661866284 -1.67986955033599 1.76496909502536 11.071887720038
-1.8925933786834 14.2274318112236 -1.56787824698026 1.86879080649744 18.3210509760714
-1.9337367130026 14.5367238071198 -1.60196255669722 1.86879080649744 11.6640024952241
-7.62670851636365 16.1688135739672 0.6938591620953 -0.41528684588832 12.8892691204226
5.67159118186102 17.377714012709 -4.52834400525354 -0.31146513441624 5.80156224294771
8.75794279391041 16.6560132136058 -0.730378065363474 -0.31146513441624 5.80156224294771
