VERSION .7
FIELDS x y z velocity SNR
SIZE 4 4 4 4 4
TYPE F F F F F
COUNT 1 1 1 1 1
WIDTH 264
HEIGHT 1
VIEWPOINT 0 0 0 1 0 0 0
POINTS 264
DATA ascii
5.41832695555806 4.74370618909644 -0.503960865100797 -1.23771765833382 8.01513113904914
6.0109185186043 5.01411256149889 0.547783549022606 -2.16600590208418 5.66328683088568
5.32792490215719 6.4638823075934 -2.65857615792304 -3.24900885312627 7.36999781160885
-2.66627611844133 10.4057656018648 -2.30069090589494 4.02258238958491 7.85566170733982
-2.67071848118061 10.4231029605366 -2.21548013160254 4.17729709687663 34.1118453894249
-2.6790802367711 10.4557366656855 -2.04505858301773 4.33201180416836 8.15994345069168
-2.35403645930279 10.5801054225837 -1.78942626014051 4.33201180416836 8.15994345069168
-2.74702472350005 10.7209059022662 -2.27877956393404 4.02258238958491 14.6801979344272
-2.75562538639313 10.7544719989908 -2.1034888282468 4.17729709687663 83.6274594062461
-2.41117221309399 10.8368993631026 -2.1034888282468 4.33201180416836 16.576758228676
-3.54021317001895 10.8471873306687 -2.16191907347588 4.02258238958491 12.1871694170764
-2.9329372620497 11.0764572503006 -1.8916791892914 4.17729709687663 36.5765440802118
-2.47436227429827 11.1209041016693 -2.25199903487071 4.33201180416836 9.93960400422509
-2.11031477916404 11.137924345411 -2.5222389190552 4.33201180416836 9.93960400422509
-3.64630366365122 11.1722478293353 -2.03532020881288 4.02258238958491 12.1003735539687
-2.47608136522928 11.5608246635522 -1.57274743408268 4.17729709687663 14.8274883458115
-3.30628189189592 11.721255216307 -1.23433893046427 4.02258238958491 5.49658315211577
-3.18515545411785 11.6499757866655 -1.99393211844228 4.17729709687663 10.4308347858143
-3.28855973209633 12.0281856894598 -1.46075613072695 4.17729709687663 5.66023473977229
5.44657130447903 11.2942850180512 -2.89473173239057 4.17729709687663 8.99443116966964
-1.97219802298651 12.5590779819074 -1.9963667119935 4.33201180416836 6.19310084304974
5.08322558213109 11.8016135007656 0.698728349197723 4.48672651146009 5.89368707419573
-3.26016155754042 12.7235423058164 -1.12478222065975 4.02258238958491 8.05042110895557
-3.25274360735357 12.6945920218016 -1.43154100811241 4.17729709687663 17.2275993064322
-2.02030041379106 12.8653969570759 -2.04505858301773 4.33201180416836 12.0799338614837
5.21238873534071 12.1014887646293 0.409011716603546 4.48672651146009 9.96654896173571
-3.343544786441 13.0489648414138 -0.837500181616785 4.02258238958491 5.37441930601371
-3.44803056101729 13.0217456748963 -0.837500181616785 4.17729709687663 9.78731381950265
-3.4509448800294 13.0327518189313 -0.628125136212587 4.33201180416836 11.4828843932074
5.44227711930853 12.3466257003914 0.314062568106295 4.33201180416836 11.4828843932074
5.86179579082576 12.1553154596094 -0.209375045404195 4.33201180416836 11.4828843932074
5.43965557977324 12.3406783429357 0.52343761351049 4.48672651146009 9.77653244923983
-2.13314128963989 13.5839745759633 -1.28546539503971 4.33201180416836 7.75146345535093
5.99865804657597 12.4391199373705 0.107122116253309 4.33201180416836 7.75146345535093
-4.74489655588348 12.7388260718686 3.83448484315824 3.55843826770973 15.2049069110301
3.79692704719246 13.4606643997683 1.97202077648138 3.55843826770973 15.2049069110301
4.71359528081593 12.9817979565609 2.95803116472207 3.55843826770973 15.2049069110301
-2.84847445491755 13.8340594298076 -0 3.71315297500145 7.67017238833713
4.64081473405407 13.468175878624 2.35181737047039 3.403723560418 14.0764971348513
-3.13235870717257 14.0782379186468 -0.671947820134396 3.55843826770973 33.0245298511933
3.5403359632148 13.8169883945109 2.23982606711465 3.55843826770973 33.0245298511933
4.24776348162482 13.3838942919092 3.35973910067198 3.55843826770973 33.0245298511933
4.5993263043113 13.3477717037701 3.02376519060478 3.55843826770973 33.0245298511933
4.30145938804934 13.1796401901937 4.03168692080638 3.71315297500145 16.4547564938791
-1.23097751492185 14.3746690707815 -0.559956516778664 3.86786768229318 8.70242135733296
-4.92628304538483 13.5675651730853 0.335973910067199 4.02258238958491 5.59131186141174
-1.27757448361833 13.6660341003713 4.47965213422931 4.02258238958491 5.59131186141174
4.70137023187594 13.6439148688271 -0.447965213422931 4.02258238958491 5.59131186141174
5.90043818060119 13.0838279917216 1.56787824698026 4.02258238958491 5.59131186141174
9.16088268774765 11.1140582149151 1.00792173020159 4.02258238958491 5.59131186141174
4.60240936541772 13.7206590624876 2.86064742267361 3.24900885312627 6.72945838550258
4.75881523248121 13.8106268398572 2.059666144325 3.403723560418 32.2570344407417
4.25175816744305 13.7840308991841 3.0894992164875 3.55843826770973 38.9142048935728
4.79416289120198 13.9132097938923 1.0298330721625 3.55843826770973 38.9142048935728
4.79140848010961 13.9052161774348 -1.14425896906944 3.86786768229318 17.8857648328329
4.74435074849191 14.1438133648086 2.1034888282468 3.403723560418 30.0741495226032
4.78608845940653 14.2682414319447 0.701162942748935 3.55843826770973 37.6663013543289
-3.47857150511816 14.0421460274189 4.20697765649361 3.71315297500145 57.3427244819726
4.43588686481581 14.3809688138207 0.701162942748935 3.71315297500145 57.3427244819726
4.8748061911075 14.1472458864323 1.75290735687234 3.71315297500145 57.3427244819726
4.42731968982772 14.3531943732002 1.16860490458156 3.86786768229318 21.3965502157909
4.90090041777919 14.2229743208497 0.81802343320709 3.86786768229318 21.3965502157909
-5.00305143251346 13.7789943755904 4.65250827636533 3.403723560418 18.8654175083677
-2.0219064153654 15.1995330731309 -1.19295084009367 3.55843826770973 36.3684580663731
4.52652608030994 14.674817546003 0.835065588065571 3.71315297500145 46.0195432878054
4.51955551669913 14.6522192559752 1.19295084009367 3.86786768229318 13.4618542960309
5.1109824417691 14.4462075305313 1.31224592410304 3.86786768229318 13.4618542960309
-5.34820482098919 14.7295875611044 0.852107742924052 3.24900885312627 7.3277084613439
-4.4548168881607 14.8692770277496 2.312863873651 3.24900885312627 7.3277084613439
-1.21671072253518 15.6388189234458 -0.486918710242317 3.24900885312627 7.3277084613439
1.33866387102849 15.632170295383 0.365189032681738 3.24900885312627 7.3277084613439
2.16187021772705 15.3323729684869 -2.55632322877216 3.24900885312627 7.3277084613439
11.1059696674584 10.6623753628898 3.04324193901448 3.24900885312627 7.3277084613439
-5.19882604706405 14.69449775003 1.82594516340869 3.403723560418 44.7913871075808
4.5038625755542 15.0329816044312 -0.121729677560579 3.403723560418 44.7913871075808
5.33657397811676 14.6975548465332 1.33902645316637 3.403723560418 44.7913871075808
5.473714246194 14.6955139965937 0.608648387802895 3.55843826770973 47.7633101301737
4.8686011551709 14.9173584279294 0.243459355121157 3.71315297500145 18.2884820202572
5.3535271791548 14.7442459639247 0.486918710242317 3.71315297500145 18.2884820202572
-5.26075258841259 14.8695333088803 2.73161396445939 3.24900885312627 7.90334364006628
-1.31745442603875 15.3844982224112 4.22158521780088 3.24900885312627 7.90334364006628
5.4433054576791 14.9915059434639 1.3658069822297 3.403723560418 73.5701154738944
5.45516891740898 15.0241793123265 0.869149897782533 3.55843826770973 74.4996618526772
5.46059772273789 15.0391308832032 0.496657084447163 3.71315297500145 16.1573582042248
5.04548812476494 15.4593388125543 1.39258751129302 3.24900885312627 8.1047263338133
5.1828966719768 15.4512023043046 0.886192052641014 3.403723560418 36.6713682815513
5.5596151681519 15.3118366192623 1.01279091730402 3.403723560418 36.6713682815513
5.56431422516369 15.3247783771094 0.759593187978013 3.55843826770973 33.808874855631
4.64296811719425 15.965839952661 -0.516133832856856 3.403723560418 14.9786605996894
6.03366167964302 15.4114480554571 1.67743495678478 3.403723560418 14.9786605996894
5.40618368582351 15.6893642356657 1.16130112392792 3.55843826770973 14.459045608069
4.93238904035287 19.9108533680474 2.89229713883936 2.93957943854282 7.46721856235672
-8.7987111908564 18.2454513905522 -4.33844570825904 3.09429414583454 11.8265026762201
-3.98200219554416 20.1449216899065 2.73161396445939 3.09429414583454 11.8265026762201
4.75611447899951 19.8778541572287 3.37434666197925 3.09429414583454 11.8265026762201
4.85080267457198 20.2735969742512 2.77300205482999 2.93957943854282 23.9975826842942
4.83429027585717 20.2045845367062 3.26235535862352 3.09429414583454 44.4368448017918
5.85454774773271 20.1321159172633 1.63117767931176 3.09429414583454 44.4368448017918
4.82817681959042 20.1790337656716 3.42547312655469 3.24900885312627 7.59492075815875
5.84674635296751 20.1052891510472 1.95741321517411 3.24900885312627 7.59492075815875
4.92817408590146 20.596965479601 2.6488377837182 2.93957943854282 23.2663316791832
5.93401122390732 20.4053680936001 1.98662833778865 3.09429414583454 45.0599301502365
5.92950774458696 20.3898819157406 2.15218069927104 3.24900885312627 12.3878392886926
6.00645762832889 20.6544905663255 2.51980432550399 3.09429414583454 10.3347976522272
-16.4753463090983 15.4643873017423 -0.350581471374466 -2.93957943854282 5.03027731171663
0 22.5007233826053 2.1034888282468 2.78486473125109 6.21562075935546
5.16584465115238 20.8532568152508 7.01162942748935 2.78486473125109 6.21562075935546
5.43335888917072 21.9331466462174 0.350581471374466 2.93957943854282 5.91981746935661
2.93839157229454 22.0891429719453 5.33175987715336 2.78486473125109 5.57014166272366
5.50135795904479 22.2076423314421 -1.24407730466912 2.78486473125109 5.57014166272366
5.4988676247936 22.1975894585427 1.42180263390756 2.93957943854282 8.66379937397477
16.2833291519096 22.3121811205396 -5.91606232944414 -4.17729709687663 12.1416322693497
16.3104592957815 22.349356115791 -5.6969489098351 -4.02258238958491 11.4889871561274
0.241042625229093 31.0747624767309 -7.69818480893102 4.79615592604354 7.67851570500631
16.3891907343951 27.5007958774216 0.24832854222358 4.79615592604354 7.67851570500631
-5.71705139102809 33.0110416154352 -2.34451358981675 4.64144121875182 7.26579213292847
2.44860336836825 31.4727765474619 -11.4620664391041 4.64144121875182 7.26579213292847
15.5445154329536 28.3398757779847 -9.11755284928737 4.64144121875182 7.26579213292847
-5.72827408169563 33.0758429760185 -1.04200603991856 4.79615592604354 6.86864423133556
14.3258588990904 30.3711806121039 -0.521003019959276 4.79615592604354 6.86864423133556
15.7589370415245 28.7307970503283 -8.67689141651807 4.64144121875182 11.1903678908375
-12.9748220785304 38.680416277963 -0.632994323315009 3.86786768229318 6.00594566892843
-9.80403040540526 39.576483164827 1.58248580828753 3.86786768229318 6.00594566892843
-3.16459075086108 40.6756189477873 0.632994323315009 3.86786768229318 6.00594566892843
14.821121366497 37.8567699335949 3.48146877823256 3.86786768229318 6.00594566892843
-13.0746284022114 38.9779579416396 0.637863510417432 3.71315297500145 8.1332964065445
-9.83649140145737 39.7075203006422 4.14611281771332 3.71315297500145 8.1332964065445
-2.85991850918167 40.8674324607353 3.50824930729589 3.71315297500145 8.1332964065445
-1.26458736391827 40.7386604416274 5.42183983854819 3.71315297500145 8.1332964065445
14.3514972339957 38.5300764688081 0.318931755208716 3.71315297500145 8.1332964065445
-9.83649140145737 39.7075203006422 4.14611281771332 3.86786768229318 51.9634497902909
-2.85991850918167 40.8674324607353 3.50824930729589 3.86786768229318 51.9634497902909
14.3450194186898 38.5126852018889 1.27572702083487 3.86786768229318 51.9634497902909
-9.83649140145737 39.7075203006422 4.14611281771332 4.02258238958491 19.3086642994336
-2.85991850918167 40.8674324607353 3.50824930729589 4.02258238958491 19.3086642994336
14.3363777785577 38.4894846222088 1.9135905312523 4.02258238958491 19.3086642994336
14.4610506479956 38.824199189944 -0.321366348759928 3.71315297500145 32.0001869941787
14.4614856941968 38.8253671770275 -0 3.86786768229318 190.443627525074
14.4597454308576 38.8206950178483 0.642732697519855 4.02258238958491 66.4186814069323
15.4237284595814 38.447876404284 0.642732697519855 4.02258238958491 66.4186814069323
14.2472414616902 39.2385852147202 -0 3.71315297500145 14.976066055635
14.2468128606179 39.2374047967606 0.323800942311139 3.86786768229318 98.7587110924428
15.5405748873055 38.7391481952256 0.647601884622278 3.86786768229318 98.7587110924428
14.24552698003 39.2338633297925 0.647601884622278 4.02258238958491 35.3372186460784
15.5382366411743 38.7333194749851 0.971402826933423 4.02258238958491 35.3372186460784
-14.2306486107715 40.2229718977694 -1.3244188918591 3.71315297500145 13.951402203757
-12.9115302635132 40.6817745246838 0.662209445929548 3.71315297500145 13.951402203757
-3.96559963043003 42.4194600571458 2.6488377837182 3.71315297500145 13.951402203757
14.5330652183144 40.0257775888264 2.97994250668298 3.71315297500145 13.951402203757
-5.62810293537755 42.3088507238335 -0.662209445929548 3.86786768229318 7.0085317589122
-3.96739557629744 42.438671036843 2.31773306075342 3.86786768229318 7.0085317589122
-0.650633771787265 41.9354565353478 7.94651335115459 3.86786768229318 7.0085317589122
14.4824536803599 39.8863874373915 4.63546612150685 3.86786768229318 7.0085317589122
-14.3383070258706 40.5272687378875 1.00061794954796 3.55843826770973 12.5117904850908
-12.6607604266618 41.0456818227799 2.00123589909592 3.55843826770973 12.5117904850908
-11.318482278519 41.3983073623853 2.6683145321279 3.55843826770973 12.5117904850908
-3.99656760259374 42.7507200885845 2.3347752156119 3.55843826770973 12.5117904850908
14.3145511169506 40.4601225885424 2.6683145321279 3.55843826770973 12.5117904850908
-12.6363082813833 40.9664089401755 3.33539316515987 3.71315297500145 94.0514398349117
-11.2989825409399 41.3269854209871 3.66893248167585 3.71315297500145 94.0514398349117
-3.98787619091998 42.657749283487 3.66893248167585 3.71315297500145 94.0514398349117
14.0048580252689 40.6437019895228 1.00061794954796 3.71315297500145 94.0514398349117
-12.6282746045799 40.9403640794542 3.66893248167585 3.86786768229318 43.8737941745652
-11.2825355695613 41.2668292304698 4.33601111470782 3.86786768229318 43.8737941745652
-3.98509577291815 42.6280075441884 4.00247179819184 3.86786768229318 43.8737941745652
14.0019069949349 40.6351377615069 1.33415726606395 3.86786768229318 43.8737941745652
14.1104797231958 40.9502282539391 0.335973910067197 3.55843826770973 19.0592700309016
15.4529400665124 40.4585570672567 0.671947820134394 3.55843826770973 19.0592700309016
14.1092061476853 40.9465321919428 0.671947820134394 3.71315297500145 251.047859045223
15.4506150059797 40.4524696435144 1.0079217302016 3.71315297500145 251.047859045223
14.1070832663293 40.9403713471106 1.0079217302016 3.86786768229318 103.826478106151
15.4506150059797 40.4524696435144 1.0079217302016 3.86786768229318 103.826478106151
14.2127295762624 41.2469690383879 0.338408503618409 3.55843826770973 5.32248090872369
15.2169256044193 40.8535289105305 1.69204251809205 3.55843826770973 5.32248090872369
16.5740334623742 40.334820526686 1.35363401447364 3.55843826770973 5.32248090872369
14.2114467719438 41.2432461933337 0.676817007236817 3.71315297500145 79.3140620372039
15.2118817650345 40.8399874999009 2.03045102171046 3.71315297500145 79.3140620372039
16.5695412137011 40.3238881218248 1.69204251809205 3.71315297500145 79.3140620372039
14.2063143963208 41.2283514514559 1.35363401447364 3.86786768229318 41.6011281322733
15.2059187069488 40.8239782236364 2.36885952532887 3.86786768229318 41.6011281322733
16.5695412137011 40.3238881218248 1.69204251809205 3.86786768229318 41.6011281322733
-18.3692321584598 44.703643443614 -0.749854813773164 3.403723560418 6.5773566125352
-16.0733064616443 45.4312499587398 3.74927406886583 3.403723560418 6.5773566125352
14.2197849493116 46.0999773274827 2.99941925509267 3.403723560418 6.5773566125352
17.6168165427349 44.9976593760455 1.12478222065975 3.403723560418 6.5773566125352
-15.0722135864241 46.1811524922713 2.64153400306456 -0.773573536458636 6.23731269694778
-16.1561212448294 45.6653261971379 4.52834400525354 3.24900885312627 6.28365752750457
-15.0490033316512 46.1100364409426 3.77362000437795 3.24900885312627 6.28365752750457
13.9607138124525 46.5980367754678 -0.754724000875587 3.24900885312627 6.28365752750457
16.603928019263 45.7291782577566 -0 3.24900885312627 6.28365752750457
13.9417975674423 46.5348981786537 2.64153400306456 3.403723560418 37.1566122500019
16.603928019263 45.7291782577566 -0 3.403723560418 37.1566122500019
13.9607138124525 46.5980367754678 0.754724000875587 3.55843826770973 16.3971896754755
16.6034285217728 45.7278025826909 -0.377362000437794 3.55843826770973 16.3971896754755
16.7090391645465 46.0186667627641 0.75959318797801 3.24900885312627 8.40935359610401
13.6689750903563 47.0036974411574 -1.13938978196702 3.403723560418 57.832509622992
16.7090391645465 46.0186667627641 0.75959318797801 3.403723560418 57.832509622992
13.6689750903563 47.0036974411574 -1.13938978196702 3.55843826770973 26.3289425418507
16.7065251104355 46.0117427608979 1.13938978196702 3.55843826770973 26.3289425418507
16.8136182201178 46.306689829878 1.14669356262066 3.403723560418 10.6842576244708
16.8100753425461 46.2969323267236 1.52892475016087 3.55843826770973 5.88804426309698
13.708613234357 48.5990486096765 1.95984780872532 3.24900885312627 8.59103386605052
16.4503358812284 47.7407588122524 1.95984780872532 3.24900885312627 8.59103386605052
-10.6938778051357 48.0631275303497 -11.3671172906069 3.403723560418 12.5345534146629
13.718521953107 48.6341764738855 0.391969561745063 3.403723560418 12.5345534146629
16.4503358812284 47.7407588122524 1.95984780872532 3.403723560418 12.5345534146629
13.733786320183 48.6882908985062 -5.12725401885158 3.24900885312627 10.7375986300687
16.5470253444116 48.0213627084186 2.36642493177765 3.24900885312627 10.7375986300687
13.783782425004 48.8655344378014 -2.76082908707393 3.403723560418 14.9151424692317
16.5525118804907 48.0372852645024 1.97202077648138 3.403723560418 14.9151424692317
6.71187334977552 50.4560152672259 5.15890373501733 2.32072060937591 5.93044183912031
6.7671969820393 50.8719066121115 3.99273342398699 2.32072060937591 9.1122825691134
6.36912657133111 50.9232762502913 3.99273342398699 2.47543531666763 16.7727267864222
4.38877640717268 51.2496838602009 6.02561903924866 2.47543531666763 6.78423744546384
13.4051166679741 54.1131914319771 6.97267593066997 3.09429414583454 13.7741385776199
16.0932391864817 53.7159748077618 3.48633796533499 3.09429414583454 13.7741385776199
13.4664074249312 54.3606072916354 7.44985626670743 3.09429414583454 18.2839070806293
16.183145550652 54.0160640524979 3.50581471374468 3.09429414583454 18.2839070806293
13.4366909383442 54.2406490721587 8.32630994514361 3.24900885312627 9.35165415753638
16.183145550652 54.0160640524979 3.50581471374468 3.24900885312627 9.35165415753638
13.5358202014854 58.6325058858792 3.27209373282836 3.09429414583454 5.38468728923289
14.075502687967 58.8275977915371 3.28913588768684 2.93957943854282 7.20601242740592
16.4412262705408 58.2865634229252 -1.40962966615151 2.93957943854282 7.20601242740592
14.075502687967 58.8275977915371 3.28913588768684 3.09429414583454 8.06129621142482
16.4412262705408 58.2865634229252 -1.40962966615151 3.09429414583454 8.06129621142482
15.9057199739433 60.0691428372089 0.964099046279782 2.93957943854282 12.733612243827
15.9071557127952 60.0745650125214 0.482049523139891 3.09429414583454 7.2474579398845
15.9802786297771 60.3507191854889 1.93793646676442 2.93957943854282 15.5764080204508
15.9836466200801 60.3634386531345 1.45345235007332 3.09429414583454 8.06634187725216
13.3413924253207 62.2909653788755 6.45654209781311 2.93957943854282 7.6050821765687
16.4680434073655 62.1927994021607 0.998183355996745 2.93957943854282 12.9895007631005
5.15382157851844 4.0885708824414 -0.409011716603546 2.28407765238576 7.98748560654535
5.50531862758063 3.47728054161424 1.02252929150886 2.595542786802 8.21605557927899
5.40820492439073 6.29670958568656 -1.70908467295053 1.45350396060912 5.37493940483453
-9.53450569628328 5.23668234961291 -1.53379393726329 1.66114738355328 34.5796529005687
-9.450129539679 5.38745696841209 -1.53379393726329 1.76496909502536 28.6922155352136
-9.4393957846432 5.38133772495389 -1.6190047115557 1.86879080649744 7.43939207818695
-2.36506797068683 10.6296860282503 -1.44858316297089 1.86879080649744 7.43939207818695
-2.43264134127788 10.9333913433432 -1.48997125334149 1.66114738355328 134.025622036876
-2.4350977836219 10.9444317071665 -1.40232588549787 1.76496909502536 111.840951761169
-2.4350977836219 10.9444317071665 -1.40232588549787 1.86879080649744 28.5109872314844
-2.50732319733504 11.2690454098367 -1.2611194595276 1.76496909502536 74.7378232250908
-2.50732319733504 11.2690454098367 -1.2611194595276 1.86879080649744 19.5645307374674
-3.14300677994798 11.142420948635 -2.86795120332724 1.66114738355328 22.5344865314881
-3.14300677994798 11.142420948635 -2.86795120332724 1.76496909502536 17.2382941592877
-2.11138438778327 11.64509110787 -1.48023287913664 1.76496909502536 17.2382941592877
-3.21922238458356 11.4126164681364 -3.03837275191205 1.66114738355328 8.12876670108257
-3.13965126902704 11.4835403764833 -2.84847445491755 1.76496909502536 7.17396469894618
-2.56169826721879 11.9605700055417 -0.474745742486258 1.76496909502536 7.17396469894618
-3.34566179864896 12.2370413331762 4.60625099889231 0.10382171147208 5.23976890748634
-2.20080644630783 12.7077593356251 3.97812586267972 0.10382171147208 5.23976890748634
5.03945704399848 13.1941986136634 -0.109556709804521 0 66.814290411559
-1.26661074632095 27.1861752438632 -4.71337311514562 0.830573691776641 14.117372766455
16.2084354324652 21.7659411378743 -5.14186158015886 0.830573691776641 14.117372766455
-1.26990311724009 27.2568417631831 -4.28488465013238 0.934395403248721 15.3189614869659
16.2084354324652 21.7659411378743 -5.14186158015886 0.934395403248721 15.3189614869659
16.4166139565288 22.0454993666632 -4.9836129993301 0.830573691776641 24.0315165564935
16.4395519782907 22.0763023169892 -4.76693417327227 0.934395403248721 26.6656911364475
16.6242660454625 22.3243506576295 -4.82049523139893 0.830573691776641 5.70774423179262
16.6464006764983 22.3540747527306 -4.60138181178989 0.934395403248721 6.63965010729668
16.4798259581641 26.0102014394985 -6.08648387802895 0.5191085573604 106.150110451273
16.4798259581641 26.0102014394985 -6.08648387802895 0.62293026883248 55.3065088093009
7.30231717987804 49.0078655229876 -8.18023433207091 -0.62293026883248 6.05022538793618
8.58214453481336 49.5544837734015 -7.49367895062925 -0.5191085573604 5.28094377832585
