VERSION .7
FIELDS x y z velocity intensity
SIZE 4 4 4 4 4
TYPE F F F F F
COUNT 1 1 1 1 1
WIDTH 842
HEIGHT 1
VIEWPOINT 0 0 0 1 0 0 0
POINTS 842
DATA ascii
7.605520 0.022988 6.354330 -9.146400 8.840000
7.936220 0.000000 6.630620 -9.146400 11.170000
8.266890 0.000000 6.906900 -9.146400 9.150000
8.056190 0.959683 10.611800 -11.188800 6.430000
7.944590 1.796550 12.177700 -11.721600 3.400000
8.023720 1.955070 13.637700 -11.988000 5.880000
8.495920 0.714730 13.472100 -11.810400 7.080000
8.724290 0.784633 13.834200 -11.810400 7.480000
7.812290 2.060750 14.735400 -12.254400 7.820000
9.057390 0.999899 14.120000 -11.899200 6.840000
-0.347794 1.300220 18.047700 1.332000 7.330000
-0.356074 1.331170 18.477400 1.332000 6.310000
7.911100 1.716660 16.666700 -12.432000 11.060000
-0.364355 1.362130 18.907100 1.332000 6.190000
8.213460 2.048280 16.965000 -12.520800 11.670000
-0.372551 1.452900 19.332400 1.332000 6.710000
-0.760955 1.668510 19.736400 1.332000 13.170000
-0.622656 1.455000 20.190400 1.332000 9.190000
-6.271460 1.704780 19.181200 -12.787200 6.950000
1.469520 1.485960 20.577300 1.332000 3.440000
-6.288580 1.852570 19.616700 -12.876000 4.200000
-0.933926 1.191090 21.059800 1.332000 4.600000
-6.715030 0.375456 20.014300 -12.787200 5.690000
-0.952635 1.348430 21.481600 1.332000 9.340000
-7.009280 0.383118 20.369300 -12.787200 4.400000
-6.990200 0.050974 20.834500 -12.787200 10.260000
-6.664830 1.264020 21.355300 -12.876000 8.300000
-1.007420 2.115880 22.717100 1.332000 6.530000
-6.793000 1.288330 21.765900 -12.876000 4.630000
-11.453800 1.815230 20.172800 -12.609600 6.880000
-7.346050 1.702660 22.467800 -12.876000 8.550000
-11.665900 1.848840 20.546400 -12.609600 5.590000
-11.875800 1.938250 20.916100 -12.609600 11.880000
-6.029310 1.613020 23.755100 -13.053600 11.310000
-11.758300 1.972870 21.473400 -12.609600 7.330000
18.507500 1.641310 16.714900 -9.679200 7.610000
-11.834300 2.103770 21.911900 -12.698400 9.490000
18.628800 1.669610 17.219600 -9.679200 6.380000
-6.412570 2.511950 24.472500 -13.053600 8.860000
-6.665010 2.554520 24.849200 -13.053600 5.240000
-10.735100 1.969480 23.911800 -13.764000 9.570000
-10.924000 1.807320 23.839000 -13.231200 5.260000
18.538600 1.672050 19.164000 -10.212000 9.190000
-10.911100 2.001770 24.303800 -13.764000 10.420000
-14.039800 1.919370 22.648100 -13.053600 4.490000
18.837600 1.699020 19.473100 -10.212000 7.950000
-10.621900 2.014720 27.233700 -12.698400 5.790000
-10.778100 2.044340 27.634200 -12.698400 8.260000
-10.934300 2.073970 28.034700 -12.698400 7.120000
-10.926000 2.103600 28.498800 -12.787200 9.030000
9.571450 -2.526650 29.857400 -13.142400 6.320000
9.706650 -2.389210 30.279200 -13.142400 7.080000
18.658000 1.823100 26.324400 -11.366400 5.460000
9.571720 -3.491390 30.669400 -13.142400 8.440000
18.910000 1.746280 26.679900 -11.366400 12.240000
9.699350 -3.537940 31.078300 -13.142400 12.080000
19.158800 1.769260 27.031000 -11.366400 12.560000
9.861430 -2.281370 31.597700 -13.142400 7.690000
10.235900 -2.311000 31.930100 -13.142400 13.130000
18.771700 1.714380 27.826800 -11.632800 8.210000
19.012300 1.736360 28.183600 -11.632800 10.710000
19.247400 1.944640 28.532000 -11.632800 4.820000
9.414910 0.628313 34.050600 -13.320000 6.290000
9.993720 0.635976 34.334200 -13.231200 6.210000
-5.142980 0.531710 35.824400 -13.408800 4.770000
-18.197700 -4.378930 31.482800 0.000000 5.630000
-19.346300 -1.515520 34.073400 -11.632800 8.280000
9.752550 -0.091953 38.424400 -13.320000 7.140000
-19.558900 -1.532170 34.447800 -11.632800 8.520000
10.381500 -0.092953 38.705500 -13.320000 7.220000
-17.912200 -2.508080 35.759800 -11.988000 6.210000
-18.104800 -2.535050 36.144300 -11.988000 7.350000
-18.074600 -2.940960 36.611100 -11.988000 10.510000
-17.979200 -2.971920 37.136200 -12.076800 11.230000
-4.760950 2.723830 43.173900 -13.497600 14.080000
11.137500 1.053360 42.504200 -13.320000 6.310000
11.246600 1.063690 42.920900 -13.320000 8.260000
11.354200 1.316470 43.331400 -13.320000 6.670000
-20.018400 1.468990 40.548400 -12.076800 8.970000
-20.209100 1.482980 40.934500 -12.076800 8.680000
-20.401700 1.354450 41.324700 -12.076800 10.680000
10.577100 -0.395794 45.317500 -13.408800 10.000000
-19.947000 1.367110 42.023300 -12.076800 11.010000
10.675000 -0.399458 45.737200 -13.408800 7.350000
19.762900 0.858184 44.020400 -12.698400 5.870000
-8.486650 2.032370 47.903300 -13.320000 7.120000
-8.561760 2.050360 48.327200 -13.320000 7.200000
-6.752190 2.068350 49.047700 -13.408800 8.920000
-7.384180 1.777390 49.404000 -13.408800 9.870000
20.341400 -0.120938 48.007100 -12.787200 10.420000
-29.386400 1.544320 43.561900 -11.100000 8.200000
20.135800 -0.121938 48.560400 -12.787200 7.080000
-29.627300 1.556980 43.919000 -11.100000 7.280000
20.300900 -0.122937 48.958500 -12.787200 5.660000
8.304930 -0.619670 52.778600 -13.408800 8.150000
20.465700 -0.289185 49.355900 -12.787200 8.040000
-30.113400 1.290890 44.639500 -11.100000 9.880000
12.241100 -0.791235 52.447100 -13.408800 13.110000
-30.354300 1.301210 44.996600 -11.100000 13.890000
12.643800 -0.965457 52.791800 -13.408800 5.020000
10.994600 -0.973120 53.599600 -13.408800 13.720000
10.661600 -1.620270 54.090700 -13.497600 9.110000
10.748400 -0.816555 54.530900 -13.497600 10.020000
-2.911950 1.472410 55.921900 -13.586400 19.390000
20.277200 -1.049740 55.431600 -12.964800 9.090000
24.171100 -1.414810 53.839400 -12.698400 6.880000
20.425200 -1.057410 55.836200 -12.964800 10.850000
24.347500 -1.425140 54.232400 -12.609600 7.020000
24.944300 -1.435460 54.434800 -12.609600 7.260000
23.270300 0.704625 56.119500 -12.698400 6.840000
-15.328900 -1.134030 61.893100 -13.142400 8.280000
-15.430500 -1.538740 62.303300 -13.142400 6.900000
-15.636700 -1.710270 63.135900 -13.142400 7.930000
-1.780250 1.703970 71.055800 -13.675200 8.230000
-1.378030 1.050760 71.508400 -13.675200 7.130000
16.022600 1.139380 75.880400 -13.408800 5.920000
16.109900 1.628050 76.293600 -13.497600 6.080000
15.602500 2.700150 81.642300 -13.497600 6.330000
15.689100 1.486500 82.095700 -13.497600 8.040000
16.881500 1.494160 82.298600 -13.497600 6.360000
16.968900 1.240660 82.724800 -13.497600 6.890000
17.055500 1.246990 83.146900 -13.497600 6.310000
16.914800 1.014460 85.815700 -13.497600 14.460000
16.998100 1.019460 86.238400 -13.497600 10.160000
17.081400 1.024460 86.661200 -13.497600 9.600000
17.164700 1.029450 87.083900 -13.497600 11.250000
17.249000 0.482752 87.511300 -13.408800 8.750000
17.283800 6.715610 87.688100 -13.497600 6.070000
17.370900 6.470120 88.129700 -13.497600 5.880000
17.464900 5.663410 88.606800 -13.497600 10.470000
17.537100 6.532040 88.973100 -13.497600 16.620000
17.103200 6.562990 89.495100 -13.497600 17.680000
17.175900 7.160070 89.875500 -13.497600 13.800000
17.630000 1.670390 92.251800 -13.408800 10.400000
18.223200 5.032050 92.454000 -13.497600 8.490000
17.850000 5.078000 93.403100 -13.497600 8.230000
17.410900 2.338640 110.648000 -13.586400 13.270000
17.477900 2.347630 111.074000 -13.586400 14.610000
18.187800 2.705700 111.388000 -13.586400 11.740000
-10.580900 1.449230 124.504000 -13.586400 8.810000
-10.617400 1.454230 124.933000 -13.586400 9.980000
-10.653900 1.459220 125.362000 -13.586400 12.060000
-10.690400 1.464220 125.792000 -13.586400 9.880000
-9.391800 1.529190 131.512000 -13.586400 6.760000
-9.422490 1.534180 131.941000 -13.586400 6.850000
-52.900000 -15.104600 120.304000 -12.165600 9.350000
-9.453480 1.128740 132.375000 -13.586400 6.120000
30.910800 1.128740 129.062000 -13.408800 8.000000
-53.072300 -15.153800 120.696000 -12.165600 8.840000
17.033100 3.149230 176.251000 -13.586400 6.610000
7.685760 1.236400 6.808020 -9.057600 7.480000
7.910530 0.058303 7.312110 -9.146400 14.190000
8.226950 0.060636 7.604590 -9.235200 16.330000
8.543370 0.062968 7.897080 -9.235200 14.080000
8.684460 -0.871738 7.692670 -8.968800 6.590000
8.796410 0.065300 8.257600 -9.324000 6.210000
6.789740 0.656317 9.424740 -10.833600 8.160000
7.695590 0.728153 8.695100 -10.123200 5.800000
6.965670 0.680625 9.827780 -10.922400 8.320000
7.214440 0.704933 10.178800 -11.011200 9.290000
7.319400 4.651380 10.160000 -11.277600 9.030000
8.751000 -1.000880 10.042500 -10.123200 5.320000
7.474450 4.801430 10.545600 -11.366400 6.450000
8.347080 3.850140 10.277800 -10.744800 7.650000
8.525980 3.970460 10.665000 -10.833600 10.020000
8.434750 4.003680 11.290100 -11.011200 9.920000
8.549630 1.210150 12.887000 -11.277600 5.420000
7.551880 1.280630 13.982800 -11.632800 3.670000
7.755980 1.315240 14.360700 -11.721600 5.210000
8.063120 0.753364 14.725100 -11.810400 8.970000
8.269870 0.772681 15.102700 -11.810400 11.650000
8.391000 0.573607 15.536500 -11.810400 11.630000
8.661250 1.523420 15.817500 -11.810400 7.770000
8.904030 1.523420 15.682100 -11.632800 7.000000
8.009840 0.377780 16.224400 -11.988000 9.260000
8.003130 -3.325170 17.826400 -12.254400 7.240000
17.913100 1.348430 11.894900 -7.636800 6.210000
8.317250 -3.397450 18.150400 -12.254400 6.290000
18.271400 1.375400 12.132800 -7.636800 8.590000
18.629600 1.402370 12.370700 -7.636800 6.080000
8.901940 0.685530 19.133500 -12.165600 6.600000
18.231200 1.358840 13.687200 -8.347200 8.710000
8.970600 0.699521 19.576200 -12.165600 4.210000
18.575200 1.384480 13.945400 -8.347200 10.480000
-5.692500 0.322824 21.223400 -12.698400 8.640000
9.150010 0.713511 19.967700 -12.165600 6.680000
18.788000 1.263760 14.390300 -8.347200 10.490000
-6.508950 0.194232 21.889600 -12.698400 8.160000
-6.619000 1.456310 22.259700 -12.698400 6.130000
16.104300 1.537210 18.481000 -10.123200 7.860000
-6.560060 -3.269530 22.537600 -12.698400 5.430000
-11.144800 1.613020 21.827700 -12.254400 10.980000
18.461500 1.777690 18.012300 -9.501600 8.790000
-10.862400 1.795540 22.436400 -12.343200 10.270000
18.776800 1.645090 18.320000 -9.501600 5.030000
-11.049700 1.826490 22.823300 -12.343200 10.010000
-11.231800 2.016920 23.199300 -12.343200 5.400000
-10.345700 1.701560 28.282100 -12.343200 10.080000
-10.493500 1.725870 28.686100 -12.343200 7.440000
-10.248000 1.750180 29.231000 -12.520800 8.980000
-10.218900 1.774490 29.696600 -12.520800 6.130000
-9.901970 1.232400 30.285100 -12.609600 10.080000
-11.573300 1.527970 29.672900 -12.254400 10.940000
8.360320 -1.723300 31.169800 -12.876000 7.080000
18.709000 1.569270 26.832200 -11.100000 6.430000
-10.169600 1.265710 31.103600 -12.609600 7.040000
19.164100 1.589910 27.038400 -11.100000 8.900000
10.300700 -1.487410 31.504700 -12.787200 7.570000
18.988500 1.610560 27.685500 -11.100000 6.260000
10.434500 -1.506730 31.913900 -12.698400 7.370000
19.231900 1.631210 28.040500 -11.100000 7.360000
10.390100 -0.605326 32.411100 -12.787200 5.780000
10.521600 -0.612989 32.821300 -12.787200 6.030000
10.653100 -0.620651 33.231600 -12.609600 9.340000
-4.420500 1.482210 38.065600 -13.142400 7.120000
-4.766720 1.498860 38.457700 -13.142400 7.400000
19.621700 0.454758 33.946400 -11.721600 5.050000
-4.819680 1.515520 38.885000 -13.142400 7.330000
19.246700 -0.092953 35.149100 -11.810400 8.350000
19.453700 -0.093952 35.527000 -11.810400 8.850000
19.660600 -0.094951 35.904900 -11.810400 7.170000
-17.449700 -0.095951 37.505700 -11.899200 7.870000
9.402160 0.095951 40.283600 -13.053600 8.860000
11.138200 -0.484742 40.283000 -12.876000 7.940000
-17.219800 -4.658360 40.639900 -12.254400 8.790000
11.119500 2.028290 43.809900 -13.053600 5.250000
11.225400 2.047600 44.227100 -12.964800 9.890000
11.331300 2.066920 44.644400 -12.964800 8.090000
-19.380000 1.223240 42.292200 -11.899200 8.620000
-17.301600 -5.074150 43.369500 -12.254400 6.100000
-19.559500 1.234560 42.683800 -11.899200 7.410000
-19.738900 1.245890 43.075400 -11.899200 8.700000
19.919500 1.146310 43.469500 -12.254400 6.180000
-18.827200 0.559702 44.433400 -12.076800 7.210000
-18.995300 0.564700 44.830100 -12.076800 12.640000
-28.946800 1.556980 44.370400 -11.011200 7.580000
-16.721100 -0.447100 49.837600 -12.432000 7.720000
-29.184600 1.404460 44.735000 -11.011200 7.870000
-16.858700 -0.122937 50.247800 -12.432000 8.860000
-29.657100 1.301210 45.459200 -11.011200 8.240000
-29.894500 1.142340 45.823200 -11.011200 6.050000
-30.127800 1.321870 46.180800 -11.011200 9.170000
-19.195600 0.126935 51.247100 -12.343200 9.480000
11.809900 0.639660 53.872200 -13.142400 9.800000
11.658100 1.483740 55.211000 -13.142400 14.710000
12.179300 0.483748 55.557400 -13.142400 16.220000
21.844700 -2.607800 53.851000 -12.432000 11.270000
20.419600 -1.746860 55.821000 -12.609600 7.230000
20.567600 -1.759520 56.225500 -12.609600 6.800000
20.387900 -1.772180 56.748800 -12.609600 7.180000
18.862400 -2.723700 57.690500 -12.698400 4.940000
-14.774800 -1.493130 69.970900 -12.876000 7.070000
35.801100 -0.419784 68.803800 -11.988000 6.940000
36.000000 -0.422116 69.186100 -11.988000 4.980000
35.660900 -0.666986 69.843700 -11.988000 7.470000
-17.095700 6.392740 83.343000 -12.964800 5.000000
-17.182100 6.425030 83.764000 -12.876000 5.890000
-17.268400 6.457320 84.184900 -12.876000 10.560000
17.165700 0.480420 87.088500 -13.053600 9.680000
17.248600 0.758604 87.509400 -13.053600 7.350000
17.331900 0.762269 87.932100 -13.053600 6.760000
17.415300 0.765934 88.354900 -13.053600 9.310000
17.498600 0.769599 88.777600 -13.053600 6.930000
-17.264500 6.624910 90.339400 -12.964800 7.320000
-17.345200 6.655870 90.761600 -12.964800 7.680000
17.615700 0.000000 111.949000 -13.142400 8.620000
17.682600 0.000000 112.375000 -13.142400 9.270000
17.749600 0.000000 112.801000 -13.142400 7.640000
-11.418100 -0.292851 125.736000 -13.142400 6.500000
-11.457100 0.293850 126.165000 -13.142400 6.400000
-10.764100 0.294850 126.659000 -13.142400 5.900000
-9.483020 2.367670 132.789000 -13.231200 7.060000
-9.513710 2.375330 133.219000 -13.231200 8.150000
-9.544400 2.382990 133.648000 -13.231200 7.890000
17.116900 2.614240 177.117000 -13.231200 9.070000
17.158300 2.620570 177.546000 -13.231200 10.360000
17.199700 2.626900 177.975000 -13.231200 6.350000
7.354280 0.145587 6.641930 -9.146400 3.530000
7.674030 0.151917 6.930710 -9.146400 7.440000
7.910530 0.058303 7.312110 -9.235200 13.970000
8.227050 0.025987 7.604680 -9.235200 15.620000
8.482250 0.062968 7.962690 -9.324000 12.790000
6.440520 -1.210350 9.086850 -11.011200 5.840000
6.751790 -1.390950 9.372060 -11.011200 8.700000
6.926740 -1.442470 9.772850 -11.100000 8.360000
9.090140 -1.072960 9.728900 -9.945600 3.840000
6.951530 -1.157860 10.837100 -11.366400 5.680000
7.397120 1.862540 10.436500 -11.100000 7.470000
9.385100 -1.075690 10.044600 -9.945600 5.000000
7.096730 -1.196450 11.253400 -11.455200 7.590000
7.726590 1.924630 10.725200 -11.100000 7.550000
7.143710 -1.277510 11.724600 -11.632800 4.250000
8.057610 -0.330467 11.184700 -11.011200 8.500000
8.692240 0.159915 10.702800 -10.656000 7.750000
6.243310 -1.277510 12.227800 -11.810400 2.610000
9.250640 -2.858740 10.995100 -10.833600 6.430000
8.878540 0.164912 11.106000 -10.656000 8.180000
7.943650 -2.858740 11.973600 -11.277600 6.100000
8.331920 1.580450 12.989100 -11.455200 5.730000
8.460220 1.624350 13.415500 -11.544000 6.010000
7.978930 0.701439 14.773500 -11.899200 7.400000
8.270970 0.719424 15.104700 -11.810400 10.880000
8.389150 0.682815 15.533000 -11.899200 11.760000
8.467470 0.867226 15.971200 -11.988000 11.360000
8.552600 0.042978 16.436700 -12.076800 12.430000
8.880890 0.000000 16.751000 -12.076800 9.980000
7.250980 -1.975560 17.874900 -12.343200 9.070000
7.306360 -2.019460 18.314700 -12.432000 8.560000
8.106990 2.125660 18.436800 -12.254400 6.440000
8.827270 -4.694680 18.596900 -12.254400 7.750000
8.860900 -4.790490 19.045300 -12.343200 9.060000
18.571600 1.456310 13.942800 -8.347200 9.250000
18.781400 1.410110 14.385300 -8.436000 9.290000
-6.949130 1.834420 21.677300 -12.609600 8.120000
19.122900 1.435750 14.646800 -8.436000 4.700000
-7.080250 1.869030 22.086300 -12.698400 7.620000
18.173200 1.659180 15.787900 -9.057600 5.320000
-6.005140 0.622944 22.917600 -12.787200 6.970000
18.497700 1.688810 16.069800 -9.057600 7.530000
-6.111110 1.007190 23.322000 -12.787200 7.240000
-7.359860 1.007190 22.958500 -12.609600 6.550000
18.822200 1.718430 16.351800 -9.057600 5.540000
-6.220230 1.025180 23.738500 -12.787200 5.180000
-11.159200 1.025180 21.855900 -12.432000 5.820000
-11.168800 1.641310 22.297400 -12.432000 9.490000
18.641800 1.618120 17.840900 -9.590400 10.050000
-11.535900 1.669610 22.593600 -12.432000 8.210000
18.776800 1.645090 18.320000 -9.679200 10.010000
-11.062500 1.697910 23.306000 -12.609600 7.250000
-12.280700 0.759504 22.738500 -12.254400 5.140000
19.084600 1.672050 18.620300 -9.590400 5.330000
18.500600 1.615220 19.800600 -10.034400 11.190000
18.797600 1.555710 20.118500 -10.034400 14.200000
19.091300 1.580020 20.432800 -10.034400 12.730000
-10.934500 1.725870 28.521000 -12.432000 6.170000
-10.078900 1.750180 29.289800 -12.520800 11.170000
-10.390400 1.774490 29.637000 -12.520800 13.000000
18.802000 1.604490 25.166900 -11.011200 10.270000
8.537750 -2.162860 30.197500 -12.876000 5.740000
-10.363400 1.527970 30.116800 -12.520800 11.390000
19.057300 1.700330 25.508500 -11.011200 11.590000
8.477610 -2.192480 30.660700 -12.964800 9.320000
-10.267900 1.548620 30.603800 -12.609600 9.260000
19.115000 1.723300 26.001300 -11.011200 8.680000
8.590300 -2.321810 31.068300 -12.964800 8.440000
-10.404800 1.569270 31.011800 -12.609600 6.080000
8.993110 -2.869610 31.808100 -12.876000 7.150000
9.674300 -2.486070 31.640100 -12.876000 10.880000
-21.782800 -1.133220 27.247700 -10.212000 7.560000
9.626820 -1.332320 33.073700 -12.964800 8.410000
11.796800 -0.917427 32.836000 -12.609600 5.680000
-5.886540 1.934170 37.409500 -13.053600 7.540000
-4.931530 1.837690 37.987300 -13.142400 8.700000
-4.764800 1.858340 38.442300 -13.142400 8.440000
19.448200 0.970746 35.516900 -11.899200 8.030000
-19.233700 -1.565480 35.612300 -11.544000 7.650000
-18.846200 -0.373805 39.704400 -11.899200 11.940000
-19.031000 -0.377470 40.093700 -11.899200 7.360000
-19.216400 -0.103947 40.484300 -11.899200 5.340000
10.871200 1.468990 43.894500 -13.053600 7.610000
10.630600 1.765330 44.386000 -13.053600 6.970000
-19.764000 1.211910 41.637800 -11.899200 9.110000
-19.948700 1.223240 42.027000 -11.899200 5.060000
-20.133400 1.234560 42.416100 -11.988000 13.260000
-19.254700 0.414117 44.721000 -12.165600 8.970000
-18.814800 0.417782 45.374600 -12.165600 5.960000
19.940700 1.187610 45.348700 -12.343200 7.960000
-7.162640 1.052390 49.892800 -13.142400 7.910000
-7.514610 1.061380 50.276600 -13.142400 7.650000
-7.578290 1.070380 50.702700 -13.142400 7.240000
-30.310500 0.778575 43.471100 -10.744800 8.190000
-29.188400 1.115350 44.740700 -11.011200 10.010000
20.465300 0.454430 49.354900 -12.432000 5.710000
-29.420000 1.415780 45.095800 -11.011200 5.680000
20.630300 0.458094 49.752900 -12.520800 8.920000
-29.890700 1.438430 45.817300 -11.011200 8.850000
20.794700 -0.629665 50.149400 -12.432000 10.560000
20.959700 -0.634663 50.547400 -12.432000 14.210000
12.438100 -0.296181 53.291200 -13.053600 16.870000
-3.504600 0.469089 55.041700 -13.231200 6.670000
12.846300 -0.298513 53.637500 -13.053600 14.230000
-3.531980 0.472753 55.471800 -13.231200 15.540000
20.396400 -0.326499 56.772400 -12.698400 4.540000
20.542000 -0.328831 57.177900 -12.698400 7.570000
17.164700 1.029450 87.083900 -13.142400 7.670000
17.248100 1.034450 87.506700 -13.142400 8.860000
17.331400 1.039450 87.929400 -13.142400 6.690000
17.414000 1.322950 88.348500 -13.142400 6.480000
18.181000 1.329280 88.633800 -13.142400 5.550000
-16.738200 6.909330 90.417100 -12.964800 5.730000
-17.341300 6.941620 90.740900 -12.964800 6.670000
18.736200 7.006190 91.340600 -13.142400 6.240000
18.851100 4.791480 91.900400 -13.142400 7.330000
17.953500 1.701040 93.944500 -13.142400 14.640000
-10.691000 0.683315 125.798000 -13.231200 6.190000
-10.727200 1.077440 126.225000 -13.231200 6.900000
-10.764100 0.294850 126.659000 -13.231200 4.880000
-10.800500 0.295849 127.088000 -13.231200 9.280000
-10.837000 0.296849 127.517000 -13.231200 11.760000
-9.484170 1.132410 132.805000 -13.231200 11.540000
-9.514570 1.549180 133.231000 -13.231200 8.300000
17.115000 3.714840 177.098000 -13.231200 5.910000
17.156400 3.723830 177.527000 -13.231200 6.420000
7.674750 0.055971 6.931360 -9.324000 5.390000
7.910530 0.058303 7.312110 -9.412800 13.080000
8.226950 0.060636 7.604590 -9.412800 14.470000
6.666090 -1.210350 8.922690 -10.922400 3.730000
8.482070 0.098948 7.962520 -9.501600 11.370000
6.922480 -1.256900 9.265870 -10.922400 7.840000
7.097770 -1.405420 9.654820 -11.011200 8.330000
6.816380 -0.578151 9.938400 -11.277600 6.660000
7.580490 -1.455610 9.827000 -10.833600 7.540000
7.548590 -0.579510 10.478100 -11.188800 5.220000
7.896600 0.836027 10.741400 -11.100000 6.600000
7.176120 3.024320 11.379300 -11.544000 5.730000
8.044130 0.862996 11.165900 -11.100000 8.750000
8.297080 0.846069 11.517100 -11.100000 10.350000
8.287950 0.805281 14.597000 -11.810400 8.580000
8.499160 0.879170 14.969000 -11.810400 9.550000
7.687560 0.942073 15.878700 -12.165600 6.960000
8.100990 0.587597 16.172800 -12.165600 7.060000
8.420350 0.658859 16.491700 -12.076800 9.890000
8.609360 1.011010 16.861900 -12.076800 8.020000
6.880770 -2.556230 17.947500 -12.432000 6.630000
8.901940 0.685530 19.133500 -12.343200 5.570000
-6.136150 0.832702 20.635900 -12.698400 10.270000
-6.825120 0.781437 20.874600 -12.609600 7.180000
18.268300 1.528120 14.330400 -8.524800 6.720000
-7.122780 0.796759 21.229600 -12.609600 7.260000
18.777900 1.483270 14.382500 -8.524800 7.080000
-5.785110 0.812082 22.077900 -12.876000 8.500000
19.119300 1.510240 14.644000 -8.524800 7.720000
-6.476830 2.084140 22.251600 -12.698400 4.840000
18.177000 1.584720 15.791200 -9.146400 6.510000
18.501600 1.613020 16.073200 -9.146400 7.830000
18.826200 1.641310 16.355200 -9.146400 5.930000
-11.305300 1.840340 21.726900 -12.343200 7.420000
-5.807300 1.718430 24.247300 -12.876000 6.520000
-11.508800 1.718430 22.118000 -12.432000 4.930000
18.314500 1.079140 18.216600 -9.768000 6.520000
-10.871000 1.904910 22.902500 -12.698400 10.000000
18.792100 1.259540 18.334900 -9.679200 7.270000
-10.884700 1.618120 23.395200 -12.698400 9.610000
-10.930500 1.563950 23.853200 -12.787200 7.100000
-6.563830 1.362710 25.861000 -12.964800 7.050000
18.638600 1.640860 20.259100 -10.123200 7.400000
-6.516900 1.447580 26.313100 -12.876000 8.570000
-12.327000 1.447580 24.143200 -12.520800 7.460000
18.929900 1.666500 20.575700 -10.123200 9.130000
-6.615460 1.811110 26.711000 -12.964800 8.370000
-12.522700 1.470550 24.526400 -12.520800 5.780000
18.619300 1.794690 23.662300 -10.833600 5.150000
18.885300 1.820330 24.000400 -10.833600 4.270000
19.151300 1.845970 24.338400 -10.833600 5.280000
-9.940580 1.631390 28.887900 -12.698400 7.700000
-10.080600 1.654370 29.294800 -12.698400 5.730000
-10.220600 1.677350 29.701600 -12.698400 6.810000
-10.360600 1.700330 30.108500 -12.698400 7.970000
8.290070 -1.670420 31.637700 -13.053600 5.580000
9.383730 -1.506730 32.238500 -12.964800 5.550000
11.107000 -1.610560 31.681000 -12.698400 7.750000
9.504030 -1.526040 32.651800 -12.964800 5.810000
10.379800 -1.631210 32.378900 -12.698400 5.100000
10.258100 -1.651860 32.868800 -12.787200 6.900000
10.434800 1.075960 35.092100 -12.964800 5.680000
-5.046680 1.976060 36.658900 -13.142400 7.690000
-22.407000 -2.607280 30.479400 -10.656000 7.440000
-5.319650 1.999030 37.055100 -13.142400 6.170000
-5.381450 1.934170 37.485500 -13.142400 8.080000
-5.443430 1.837690 37.917300 -13.142400 6.860000
-10.043200 1.019360 37.444100 -12.876000 5.290000
-9.935780 1.030690 37.918200 -12.876000 4.840000
-10.045500 0.950092 38.337100 -12.876000 7.930000
-17.910100 -1.940930 36.277900 -11.810400 7.900000
-18.505000 -1.982230 36.943400 -11.721600 7.570000
-17.608600 -2.131990 37.847200 -11.988000 10.810000
-8.560810 2.175950 41.734600 -13.053600 8.560000
-8.649850 1.931700 42.168700 -13.053600 8.520000
-8.736350 1.951020 42.590400 -13.053600 7.040000
-19.488100 -0.773898 38.906100 -11.810400 7.620000
-8.824030 1.834530 43.017800 -13.053600 8.090000
-19.453600 -0.781561 39.404400 -11.810400 8.670000
-14.842800 -6.530530 41.314300 -12.432000 6.010000
-19.644400 -0.789223 39.790700 -11.810400 10.020000
-14.491300 -4.979160 42.112600 -12.432000 4.290000
11.455100 2.168060 43.716600 -13.053600 5.870000
11.223800 2.188710 44.220800 -13.142400 4.910000
-15.362800 -4.653540 42.761800 -12.432000 8.670000
-19.894900 1.341790 41.093000 -11.899200 7.490000
11.329600 2.209360 44.638000 -13.142400 9.630000
-19.762300 1.354450 41.634200 -11.899200 5.940000
-19.947000 1.367110 42.023300 -11.899200 9.250000
-20.131700 1.379770 42.412400 -11.899200 14.530000
-17.740700 -13.375600 41.869200 -12.254400 16.370000
-16.722800 1.166960 45.715100 -12.432000 7.210000
-16.870800 1.177290 46.119600 -12.432000 5.700000
-7.830770 1.948520 49.765300 -13.142400 8.640000
-7.220040 1.965180 50.292600 -13.142400 8.430000
-7.283520 1.506350 50.734800 -13.142400 5.030000
20.084300 0.454430 49.511100 -12.609600 15.030000
20.244800 0.791235 49.906800 -12.609600 11.440000
11.624900 0.797565 53.028300 -13.142400 9.260000
20.406700 0.797565 50.306100 -12.609600 7.090000
11.304800 0.803895 53.537900 -13.231200 6.720000
11.341900 0.654652 55.292800 -13.231200 8.100000
21.437700 -1.065070 55.917000 -12.698400 10.320000
19.295100 -3.427430 57.509600 -12.787200 9.890000
20.211400 -3.451740 57.650100 -12.787200 8.130000
20.955300 -2.973350 58.328300 -12.698400 6.190000
-4.571260 1.724620 71.794300 -13.320000 8.240000
17.835400 1.029450 86.949000 -13.231200 6.110000
17.248100 1.034450 87.506700 -13.231200 6.520000
18.008600 1.039450 87.793200 -13.231200 5.330000
17.414700 1.044440 88.352100 -13.231200 6.190000
-16.734300 7.193680 90.395700 -13.053600 9.040000
-16.812500 7.227300 90.818100 -13.053600 7.000000
-17.417800 7.260910 91.141300 -13.053600 5.520000
17.071900 5.299150 92.219700 -13.231200 7.450000
17.708600 2.261630 92.663000 -13.231200 8.120000
14.011100 1.685720 93.741700 -13.231200 6.340000
16.607500 2.282290 93.741800 -13.231200 7.490000
17.403700 3.105870 94.012000 -13.231200 9.820000
18.116900 1.119400 94.799500 -13.231200 7.580000
18.197000 1.424220 95.218800 -13.231200 6.990000
27.681200 1.569810 103.204000 -13.053600 7.260000
27.792800 1.576140 103.620000 -13.053600 9.420000
27.904400 1.582470 104.036000 -13.053600 7.390000
28.014600 1.923250 104.447000 -13.053600 7.090000
17.547500 1.309300 111.516000 -13.231200 6.120000
17.614500 1.314300 111.942000 -13.231200 14.070000
17.680700 1.671090 112.363000 -13.231200 19.100000
17.746800 2.030530 112.783000 -13.231200 19.470000
16.940700 2.038190 113.342000 -13.231200 14.980000
-9.237500 2.306370 129.351000 -13.320000 6.150000
-10.018200 2.314030 129.725000 -13.320000 7.710000
-10.052300 1.514190 130.166000 -13.320000 8.580000
17.116000 3.164550 177.108000 -13.320000 8.000000
17.157400 3.172220 177.537000 -13.320000 5.700000
17.198900 3.179880 177.966000 -13.320000 5.410000
7.539870 0.023988 7.078030 -9.501600 5.270000
7.854030 0.024987 7.372950 -9.501600 10.950000
8.168190 0.025987 7.667870 -9.501600 12.040000
7.145520 1.355220 9.080850 -10.833600 6.820000
8.405240 0.026986 8.044130 -9.590400 8.800000
7.319100 1.405420 9.488130 -10.922400 6.900000
7.504530 1.455610 9.885130 -11.011200 8.210000
7.340580 1.545510 10.527800 -11.277600 5.890000
7.934450 1.362410 11.194600 -11.188800 7.880000
-7.529360 0.490313 11.541200 -11.100000 8.530000
8.093180 1.404990 11.607200 -11.277600 9.510000
-7.766210 0.417727 11.904300 -11.100000 9.110000
7.779030 1.402470 12.335300 -11.544000 8.930000
8.338430 1.447560 11.958900 -11.277600 7.330000
8.007820 1.443720 12.698100 -11.544000 7.550000
-8.041300 0.443044 12.751200 -11.277600 6.880000
8.034320 1.484970 13.186300 -11.632800 6.310000
8.466020 1.918830 14.389400 -11.899200 5.960000
8.367340 1.384470 15.005000 -11.988000 9.300000
8.457730 1.419080 15.445800 -11.988000 9.590000
8.572400 1.453690 15.872300 -11.988000 8.710000
8.249680 -2.001730 16.469600 -12.254400 8.860000
8.332890 -2.266740 16.878700 -12.343200 8.770000
8.886220 -2.318260 17.077800 -12.343200 5.700000
9.125670 1.424050 17.538000 -12.343200 5.810000
8.130950 1.455000 18.491200 -12.432000 7.260000
7.234650 1.549760 19.314600 -12.520800 8.500000
7.537110 1.582040 19.659500 -12.609600 7.490000
-6.277360 1.813590 20.530300 -12.698400 5.670000
-6.688140 1.714380 20.863100 -12.698400 10.600000
-6.840120 0.000000 21.337200 -12.698400 11.760000
-6.971640 0.052973 21.747500 -12.787200 8.870000
-7.567950 0.683553 21.992900 -12.698400 4.270000
-6.626220 0.971223 22.284000 -12.876000 6.150000
-6.617620 0.989209 22.735300 -12.876000 8.330000
-6.676450 1.025180 23.614200 -12.787200 7.640000
18.294500 1.618120 18.196700 -9.768000 10.350000
18.780400 1.563950 18.323400 -9.768000 10.670000
19.088200 1.589580 18.623800 -9.768000 6.470000
-5.964790 1.482790 25.556200 -13.053600 4.350000
18.509300 1.384690 19.809900 -10.300800 8.950000
-5.862200 1.507100 26.021100 -13.053600 6.670000
18.800800 1.470550 20.121900 -10.300800 7.460000
-7.570410 1.782810 26.008700 -13.053600 9.060000
19.094600 1.493530 20.436300 -10.300800 5.680000
18.729500 1.539480 21.916400 -10.567200 9.480000
19.009100 1.562460 22.243500 -10.567200 8.380000
19.288600 1.585440 22.570600 -10.567200 7.000000
19.076400 1.631390 23.862400 -10.833600 4.610000
-10.487600 2.009200 28.669800 -12.609600 4.560000
-10.467100 2.037490 29.134600 -12.698400 5.800000
-10.384500 2.065790 29.620200 -12.698400 9.660000
-11.630400 2.065790 29.153500 -12.520800 4.720000
-5.696070 3.204790 30.769200 -13.142400 9.600000
-10.120800 2.094090 30.165200 -12.787200 9.470000
-11.789700 2.094090 29.552900 -12.520800 5.640000
-5.533530 3.248700 31.234300 -13.142400 6.590000
-11.949000 2.122390 29.952300 -12.520800 6.750000
8.724890 0.784858 31.555000 -13.053600 10.020000
-11.211100 1.179820 31.205500 -12.698400 6.200000
8.591780 0.974697 32.032800 -13.053600 7.950000
10.644900 -3.113940 31.727500 -12.876000 6.140000
8.730150 -1.438850 33.317200 -13.053600 8.670000
19.299500 0.928753 29.582800 -11.544000 9.980000
-19.739500 -1.333040 31.842500 -11.188800 4.950000
-20.458200 -1.465550 31.893300 -11.100000 9.200000
-20.441400 -1.482210 32.414200 -11.100000 6.160000
-5.888290 1.699900 37.420600 -13.231200 9.480000
-5.499030 2.546870 38.304600 -13.231200 6.220000
-10.041400 1.259140 37.437300 -12.964800 7.860000
-10.153900 1.151910 37.856900 -12.876000 7.170000
-10.266400 1.042020 38.276200 -12.876000 5.780000
11.537300 1.440300 38.800000 -12.964800 7.830000
-18.298500 -1.598790 37.064600 -11.988000 6.940000
10.469000 10.674300 39.031700 -13.142400 9.300000
-18.486800 -1.744600 37.446100 -11.988000 10.350000
10.357200 10.658000 39.526600 -13.142400 7.140000
-18.092100 -1.762590 38.115500 -12.076800 5.490000
9.923410 10.766700 40.067500 -13.142400 10.350000
-8.241340 1.912380 41.811700 -13.142400 9.080000
-8.079150 2.064820 42.275400 -13.142400 12.650000
-7.991340 2.106120 43.167900 -13.142400 8.690000
10.855600 2.831700 43.831500 -13.142400 7.600000
-16.732500 -6.860430 41.942800 -12.343200 12.070000
11.214600 2.858670 44.184900 -13.231200 4.770000
-19.438900 1.496970 41.781300 -12.076800 11.360000
-19.945000 1.510960 42.019300 -12.076800 6.400000
-20.127600 1.670130 42.403900 -12.076800 6.530000
-19.979500 1.831940 42.943300 -12.076800 9.120000
23.797200 -0.727936 43.459300 -12.076800 7.490000
11.528500 2.374550 48.135300 -13.231200 7.090000
11.628800 2.395200 48.553800 -13.231200 7.670000
20.450700 2.065100 49.319800 -12.609600 5.800000
-16.442400 0.291517 51.290700 -12.698400 8.430000
20.615600 2.081750 49.717500 -12.698400 7.720000
-16.166600 1.762790 51.800600 -12.698400 6.420000
11.931700 -0.629665 52.962400 -13.231200 8.890000
12.026800 -0.465424 53.384400 -13.231200 8.330000
13.258700 -0.639660 53.534100 -13.231200 7.670000
11.167800 -0.988444 54.443700 -13.320000 8.440000
12.311100 -0.303177 54.646600 -13.231200 8.930000
11.662100 0.130933 55.229900 -13.231200 10.110000
11.751200 0.131933 55.651500 -13.231200 7.960000
19.503000 -3.147900 55.629600 -12.876000 8.500000
22.002400 -3.170880 55.152800 -12.698400 6.960000
19.658700 -2.298260 56.073600 -12.876000 6.570000
22.176800 -2.314910 55.590000 -12.698400 8.110000
19.435300 -3.262790 57.927300 -12.876000 7.090000
20.021200 -3.285770 58.182600 -12.876000 9.010000
20.157800 -3.500360 58.579600 -12.876000 9.860000
22.634900 -3.768850 59.039800 -12.698400 8.810000
22.788900 -3.794490 59.441500 -12.698400 7.410000
-15.789500 -1.687610 62.209400 -12.964800 6.250000
-15.049300 -1.698940 62.835600 -12.964800 6.130000
-15.636700 -1.710270 63.135900 -12.964800 8.880000
16.415300 0.721957 83.281900 -13.231200 8.430000
16.498700 0.725622 83.704600 -13.231200 5.760000
16.582000 0.729286 84.127400 -13.231200 5.610000
16.749000 0.468759 84.974700 -13.231200 6.430000
16.832300 0.471091 85.397500 -13.231200 7.050000
16.999200 0.203896 86.244000 -13.231200 5.410000
17.082500 0.204895 86.666800 -13.231200 5.670000
17.164700 1.029450 87.083900 -13.320000 10.580000
17.247400 1.310290 87.503100 -13.320000 8.330000
17.330700 1.316620 87.925800 -13.320000 10.580000
17.414700 1.044440 88.352100 -13.231200 7.880000
14.072200 2.503100 94.150200 -13.320000 8.480000
18.037200 0.222886 94.382400 -13.320000 9.250000
18.116200 1.417890 94.795600 -13.320000 8.640000
16.908100 2.323590 95.438500 -13.320000 10.610000
16.428800 2.333920 95.959200 -13.320000 12.840000
27.085300 1.239340 103.366000 -13.142400 10.120000
27.193400 1.576140 103.779000 -13.142400 7.810000
27.302600 1.582470 104.196000 -13.142400 8.610000
17.544900 2.356630 111.499000 -13.320000 5.880000
17.611800 2.365620 111.925000 -13.320000 6.740000
17.678800 2.374620 112.350000 -13.320000 6.780000
17.745800 2.383610 112.776000 -13.320000 8.420000
-10.653900 1.459220 125.362000 -13.408800 11.730000
-10.690400 1.464220 125.792000 -13.408800 10.380000
-10.726900 1.469220 126.221000 -13.408800 13.790000
-9.919620 1.494210 128.448000 -13.408800 13.560000
-9.952790 1.499200 128.878000 -13.408800 10.450000
-9.986280 1.103090 129.311000 -13.408800 7.530000
-10.019500 1.106760 129.741000 -13.408800 6.850000
17.073500 3.705840 176.669000 -13.408800 5.850000
17.115000 3.714840 177.098000 -13.408800 5.260000
17.156400 3.723830 177.527000 -13.408800 5.030000
-0.436239 0.271805 0.691749 0.000000 0.780000
7.539870 -0.023988 7.078030 -9.768000 5.080000
7.854030 -0.024987 7.372950 -9.768000 11.610000
8.168190 -0.025987 7.667870 -9.768000 13.030000
6.796980 0.377741 9.434790 -11.188800 4.750000
8.482370 0.000000 7.962810 -9.768000 10.080000
7.365380 0.391732 9.548130 -11.100000 5.790000
6.819910 -0.429024 9.943530 -11.455200 2.870000
7.625800 0.521583 9.885730 -11.100000 6.320000
7.063470 -0.444347 10.298700 -11.455200 6.840000
7.305290 -0.539568 10.651200 -11.544000 8.300000
7.963080 0.703336 11.235000 -11.366400 7.490000
8.526230 0.159915 10.835500 -11.011200 8.170000
8.211930 0.725316 11.586100 -11.366400 7.580000
8.792680 0.164912 11.174100 -11.011200 8.170000
8.563100 0.169910 11.886300 -11.277600 5.700000
9.147590 0.169910 11.442600 -11.011200 6.550000
7.944340 1.712150 14.709400 -12.165600 7.150000
8.248810 1.450870 15.064300 -12.165600 9.300000
8.365630 1.487150 15.489500 -12.165600 10.710000
-0.347293 1.621000 18.021700 1.332000 9.150000
8.011570 0.041979 16.227900 -12.432000 9.220000
-0.355730 1.559690 18.459500 1.332000 8.670000
8.298220 -0.042978 16.566500 -12.432000 15.710000
-0.364003 1.595960 18.888800 1.332000 10.690000
8.490920 -0.161249 16.951200 -12.432000 17.040000
-0.372276 1.632230 19.318100 1.332000 8.770000
7.288640 -0.164914 17.967700 -12.520800 14.430000
-1.029400 1.011050 19.768800 1.332000 6.270000
8.325370 1.836430 17.894200 -12.520800 8.440000
-0.896068 1.033030 20.206100 1.332000 5.450000
8.647020 1.876350 18.217100 -12.520800 6.640000
-0.636645 1.102910 20.644000 1.332000 6.330000
8.712450 1.102910 18.726200 -12.520800 7.270000
-0.649908 1.125890 21.074000 1.332000 7.700000
8.893960 1.125890 19.116400 -12.520800 6.490000
9.077960 1.032410 19.511800 -12.520800 10.000000
-0.672540 2.627360 21.807900 1.332000 10.980000
9.258100 1.120940 19.899000 -12.520800 6.360000
-0.862629 0.866010 22.373400 1.332000 9.870000
-6.951010 1.333200 21.259600 -12.787200 7.460000
-0.879218 0.882664 22.803700 1.332000 7.460000
-7.417840 1.358840 21.556700 -12.698400 6.890000
-6.491440 1.384480 22.301800 -12.964800 6.990000
-6.919930 1.384480 22.172600 -12.787200 4.590000
-7.226430 1.135650 22.542300 -12.787200 5.380000
-7.178730 1.286730 23.001900 -12.787200 4.330000
-11.467600 1.972870 21.630100 -12.698400 8.260000
-11.498800 2.007480 22.098800 -12.698400 8.830000
-12.134900 1.949690 21.761300 -12.520800 9.440000
-11.349200 2.042090 22.657500 -12.787200 10.230000
-12.344100 1.983300 22.136500 -12.520800 8.960000
18.465300 1.697910 18.016000 -9.945600 9.400000
-11.229700 2.076700 23.195000 -12.964800 9.690000
-11.541500 2.076700 23.041500 -12.787200 8.750000
-12.726400 2.016920 22.414300 -12.432000 8.060000
18.776800 1.645090 18.320000 -9.945600 8.080000
-9.394400 1.482790 24.503900 -13.053600 7.450000
-11.733900 2.111310 23.425500 -12.787200 8.980000
-6.217110 1.115110 25.958400 -13.142400 7.660000
18.503900 1.531410 19.804100 -10.389600 4.650000
-6.160360 1.531410 26.394100 -13.142400 8.810000
18.800800 1.470550 20.121900 -10.389600 8.620000
-5.895930 1.555710 26.895000 -13.231200 8.370000
-10.718800 2.385130 25.297100 -12.964800 11.020000
19.087900 1.666500 20.429200 -10.389600 6.440000
-14.551200 2.547280 24.301700 -13.053600 8.790000
-10.708200 2.009200 28.588200 -12.698400 9.490000
-11.251300 1.941740 28.847500 -12.609600 4.900000
-10.616600 1.871610 29.550800 -12.787200 7.030000
-11.632700 1.968710 29.159300 -12.609600 8.300000
8.258800 0.665613 30.791300 -13.231200 6.150000
-10.120800 2.094090 30.165200 -12.964800 7.950000
8.354160 2.122390 31.146800 -13.142400 8.780000
9.844260 2.122390 30.708400 -13.142400 8.000000
9.941880 -3.437240 31.012900 -13.053600 7.110000
18.754700 1.179820 27.344700 -11.455200 7.150000
9.389120 -0.987355 32.257000 -13.142400 6.780000
19.000300 1.091250 27.702800 -11.455200 9.300000
19.243900 1.105240 28.057900 -11.544000 10.670000
19.062500 1.025330 29.219500 -11.721600 6.230000
19.296000 1.147210 29.577400 -11.721600 7.000000
-18.653100 -4.993470 30.614500 0.177600 7.390000
-19.356000 -4.993470 30.175000 0.355200 9.260000
-18.875200 -5.052920 30.978900 0.177600 7.730000
-20.394900 -3.393400 30.233000 0.621600 8.580000
-20.870000 -3.433320 30.428700 0.710400 7.720000
-21.106500 -3.588670 30.773600 0.621600 7.820000
-4.815830 2.461970 37.096100 -13.408800 6.890000
-4.654210 2.490270 37.550000 -13.497600 5.090000
-4.929340 2.163410 37.970400 -13.408800 8.930000
-4.762690 2.187720 38.425200 -13.408800 7.510000
-10.041400 1.259140 37.437300 -13.053600 7.300000
-10.152900 1.273130 37.853300 -13.053600 5.970000
-10.265500 1.164570 38.272900 -13.053600 9.540000
-19.273100 -2.358740 34.562100 -11.632800 6.480000
-19.212700 -2.384380 35.086900 -11.721600 8.830000
-19.394500 -3.159840 35.418800 -11.721600 5.420000
8.996400 -0.348152 39.933200 -13.320000 6.280000
9.091100 -0.351817 40.353500 -13.320000 7.590000
-18.455100 -3.002880 37.381900 -11.988000 9.790000
-8.560810 2.175950 41.734600 -13.231200 8.190000
-19.684100 -1.121300 37.829600 -11.810400 8.450000
-8.646240 2.297740 42.151100 -13.231200 4.930000
-19.882900 -1.132630 38.211700 -11.810400 8.900000
-8.729650 2.589480 42.557700 -13.231200 12.520000
10.530300 1.748670 43.967300 -13.320000 7.080000
10.629300 1.906470 44.380500 -13.320000 6.540000
-20.082600 1.354450 41.480700 -12.076800 4.280000
-19.947000 1.367110 42.023300 -12.076800 10.970000
-20.133400 1.234560 42.416100 -12.076800 13.600000
11.039200 0.549708 46.092300 -13.320000 9.320000
11.139900 0.406788 46.512700 -13.320000 7.490000
-17.978100 -0.554705 44.319100 -12.432000 14.330000
11.240300 0.410453 46.931800 -13.320000 8.250000
-18.140100 -0.559702 44.718300 -12.432000 9.540000
11.932300 -0.293849 52.965100 -13.408800 9.190000
-17.962600 -0.125936 51.235800 -12.787200 11.720000
12.027000 -0.296181 53.385500 -13.408800 16.610000
12.120600 -0.810225 53.800800 -13.320000 7.910000
11.482900 -0.816555 54.381000 -13.408800 17.710000
19.314400 -3.538110 56.128700 -13.053600 6.580000
21.282200 -1.241280 55.511400 -12.876000 5.640000
19.811600 -1.250270 56.509800 -12.964800 7.290000
22.509700 -1.250270 55.490300 -12.787200 7.640000
19.941100 -2.517990 56.879200 -12.964800 5.970000
22.656800 -2.517990 55.853000 -12.787200 6.270000
20.086000 -2.348220 57.292600 -12.964800 7.950000
22.821500 -2.348220 56.258900 -12.787200 7.660000
20.234900 -1.797490 57.717100 -13.053600 8.940000
20.041000 -1.810150 58.240400 -13.053600 5.650000
-14.110000 -2.140530 64.364500 -13.142400 5.960000
17.227800 1.524810 83.986800 -13.408800 7.030000
17.315200 1.265980 84.413100 -13.408800 5.720000
16.747400 1.272310 84.966800 -13.408800 4.320000
17.164700 1.029450 87.083900 -13.408800 5.910000
17.247400 1.310290 87.503100 -13.408800 5.750000
17.330700 1.316620 87.925800 -13.408800 7.380000
17.414700 1.044440 88.352100 -13.408800 7.040000
17.499000 0.489748 88.779500 -13.408800 10.250000
17.529000 7.092840 88.931700 -13.408800 12.810000
17.616200 6.844760 89.374400 -13.408800 9.870000
17.699300 6.877040 89.796000 -13.408800 9.220000
17.436800 5.825220 91.240700 -13.408800 18.510000
17.510400 6.429310 91.625800 -13.408800 18.250000
15.971800 5.347770 93.289700 -13.497600 8.860000
18.189100 2.356630 111.396000 -13.497600 6.960000
17.611800 2.365620 111.925000 -13.497600 11.130000
17.678800 2.374620 112.350000 -13.497600 11.040000
17.744500 2.736680 112.768000 -13.497600 7.010000
-10.726400 1.860990 126.216000 -13.497600 7.000000
-11.494800 1.867310 126.581000 -13.497600 12.780000
-10.799400 1.873640 127.075000 -13.497600 9.420000
17.113800 4.265090 177.086000 -13.586400 5.030000
17.156400 3.723830 177.527000 -13.586400 4.660000
