VERSION .7
FIELDS x y z velocity SNR
SIZE 4 4 4 4 4
TYPE F F F F F
COUNT 1 1 1 1 1
WIDTH 218
HEIGHT 1
VIEWPOINT 0 0 0 1 0 0 0
POINTS 218
DATA ascii
6.57395361079929 3.6106441107132 -0.701162942748935 1.39243236562554 14.0163697840909
-4.51200425746669 7.41752106483791 1.36337238867849 3.86786768229318 5.15337116723086
3.5060612914389 7.95402834127029 1.29520376924456 3.86786768229318 5.15337116723086
-1.41421028965374 8.56608489470826 1.36337238867849 4.02258238958491 9.88295276146535
4.32005921813897 7.55434037688428 1.22703514981064 4.02258238958491 9.88295276146535
4.30997421608758 7.53670507737777 1.36337238867849 4.17729709687663 11.9116170594025
-1.71984503299098 8.70068418022145 2.04749317656894 3.86786768229318 8.9697856934478
0.0665603117080165 8.58083036034799 -3.03593815836084 3.86786768229318 8.9697856934478
0.404799494352603 8.68850199168333 2.68292209343516 3.86786768229318 8.9697856934478
4.14225039829278 7.87780635150999 1.90628675059867 3.86786768229318 8.9697856934478
4.47434704735822 7.82413824748729 1.27085783373244 4.02258238958491 8.60728002980032
4.92520197099258 7.46479291826664 1.69447711164326 4.02258238958491 8.60728002980032
4.45825680455712 7.79600178807121 1.48266747268785 4.17729709687663 9.86007667085995
5.39952491306699 7.25089981201397 1.05904819477704 4.64144121875182 8.64342786663014
4.59270897732188 8.03111372200304 1.75290735687234 3.55843826770973 5.41035726635327
4.35650472923896 8.11150098126974 1.97202077648138 3.71315297500145 9.152375681283
4.68405213840861 8.0231900943814 1.5337939372633 3.71315297500145 9.152375681283
4.4116676167379 8.21421034207319 1.31468051765425 3.86786768229318 34.674260321111
4.38995770031693 8.17378802663989 1.60683174379964 4.02258238958491 15.5623943631014
5.57480307376182 7.48627688738529 1.24164271111791 4.64144121875182 6.10233813914502
4.47889697944805 8.51804687785096 1.43397560166362 3.71315297500145 16.9810036356812
4.7657227910783 8.33365708380026 1.58492040183874 3.71315297500145 16.9810036356812
4.58035095793053 8.52828668828363 0.981141201138266 3.86786768229318 59.467262214272
4.55354526243885 8.47837639579042 1.43397560166362 4.02258238958491 20.962167484649
4.8401872096889 8.29062976419411 1.58492040183874 4.02258238958491 20.962167484649
4.63360255481502 8.81226872516908 1.3244188918591 3.71315297500145 8.46774383381458
4.73169522429211 8.81007891425373 0.934883923665247 3.86786768229318 16.9752516212958
4.7487512038092 8.84183593121754 0.389534968193853 4.02258238958491 6.16360785148886
4.99632228096918 8.55806943400682 1.63604686641418 4.02258238958491 6.16360785148886
4.88359950844454 8.53978408357734 2.02558183460803 4.17729709687663 7.47547869153484
5.36600251898796 8.29913789311376 1.79186085369172 4.17729709687663 7.47547869153484
6.97266548158099 7.62516106176874 -0.72307428470984 -4.33201180416836 5.70234308958711
7.61921602356724 6.35570198702557 2.97263872602934 -2.63015002395936 6.25524053809133
4.83262546467491 9.5934726360635 2.30069090589494 3.09429414583454 12.3737116262388
4.83262546467491 9.5934726360635 2.30069090589494 3.24900885312627 10.7352133797828
-1.70992889855841 10.3572970838394 3.2380094231114 3.403723560418 7.23033598572897
5.12806369359934 9.34919384814719 2.64153400306457 3.403723560418 7.23033598572897
5.4935107035009 8.84861414270043 3.49364174598862 3.403723560418 7.23033598572897
4.97898231134384 9.88401251213755 2.27877956393404 3.09429414583454 10.7633184915476
4.97898231134384 9.88401251213755 2.27877956393404 3.24900885312627 10.0502720987339
5.31911724146772 9.90381679929712 1.13938978196702 3.24900885312627 10.0502720987339
5.24163686081728 9.55625398228591 2.97994250668297 3.403723560418 8.22970500071576
5.63475042266655 9.07611452341759 3.68110544943191 3.403723560418 8.22970500071576
3.57656197199784 11.5950716840777 1.61413552445328 2.32072060937591 5.25099601963551
3.87839274409223 11.2555399422684 2.84847445491755 2.32072060937591 5.25099601963551
4.61552379372415 10.7157605022683 3.70301679139281 2.32072060937591 5.25099601963551
4.55861185146533 10.8341170706323 3.41816934590106 2.47543531666763 5.11164615779571
4.3292151724094 11.622828539989 1.94767484096926 2.32072060937591 5.23874216070871
5.07111616245958 11.2448617483694 2.33720980916312 2.32072060937591 5.23874216070871
4.3237404354541 11.6081302802817 2.04505858301773 2.47543531666763 7.35949510230615
4.76120735435952 11.315610882314 2.62936103530851 2.47543531666763 7.35949510230615
3.58491825953465 11.9657314904513 3.09436840358992 1.701861780209 9.56209731735911
3.57023708064406 11.9167286870817 3.29400507478927 1.85657648750073 9.27853714093235
4.43744555171964 11.9133992534888 1.9963667119935 2.47543531666763 5.45557065546102
5.20550155078609 11.5428523808694 2.29582171879252 2.47543531666763 5.45557065546102
-3.37272212286752 12.7373377175404 0.409011716603546 1.701861780209 15.3154121124081
3.63286298316776 12.125761272958 3.68110544943191 1.701861780209 15.3154121124081
3.596649904969 12.0048893481891 4.09011716603546 1.85657648750073 7.39680237298609
3.00109969951068 12.5428902945005 -3.97812586267972 1.701861780209 14.8880644018993
3.62720981160871 12.4729375401919 3.66406329457343 1.701861780209 14.8880644018993
3.61020704146988 12.4144698746951 3.87343833997762 1.85657648750073 5.17669652880795
-9.94112157458174 8.9109339700878 3.53502983635921 1.701861780209 5.1463687491648
-7.61449220668728 12.2649626197391 -0.223982606711465 3.86786768229318 8.96957382002232
-11.1158194622281 9.50139772958342 -1.94524024741805 3.71315297500145 28.7929752829583
-1.69560927586035 14.4744449145102 -2.28851793813889 3.71315297500145 28.7929752829583
-11.1375780338498 9.51999616433739 -1.71638845360416 3.86786768229318 52.502888299658
-1.69764643575854 14.4918349814013 -2.17409204123194 3.86786768229318 52.502888299658
-1.58447000670797 14.5046454402323 -2.17409204123194 4.02258238958491 11.8502580628652
-1.72719647225584 14.7440867127354 -2.57093079007943 3.71315297500145 73.2248046555145
-1.73168606896376 14.7824118275849 -2.33720980916312 3.86786768229318 114.959063914157
-1.73573807871655 14.8170015133072 -2.1034888282468 4.02258238958491 31.5078672626229
-2.61309807980886 15.0883879744646 -1.43154100811241 3.71315297500145 62.3713807935316
-2.11863281337251 15.0257255091172 -2.50519676419672 3.71315297500145 62.3713807935316
-2.61492124927721 15.0989152059123 -1.31224592410304 3.86786768229318 67.2060832278447
-1.99548218674865 15.0008908739964 -2.74378693221545 3.86786768229318 67.2060832278447
-1.77380097801513 15.1419226770607 -2.02801642815925 4.02258238958491 16.870943224787
-1.31031018114235 15.3010717138833 -0.835065588065571 4.02258238958491 16.870943224787
-2.79134739216112 15.3953467135177 -1.21729677560579 3.71315297500145 21.3600762742351
-1.32993224459778 15.5302072303639 -1.82594516340869 3.86786768229318 25.1827577749969
-1.32591103235292 15.4832497558507 -2.19113419609042 4.02258238958491 5.06451078982748
-1.73809061239601 15.9109279248395 -0.24832854222358 3.86786768229318 5.91737452078124
3.65061853363936 17.7297969664909 -6.23742867820407 1.39243236562554 5.40520562036448
5.66791181467871 19.4903283018109 2.05723155077378 1.39243236562554 6.03068475290927
5.67221661108788 19.5051312659413 1.89898296994503 1.54714707291727 6.07795650379762
6.46864417400816 19.2842605386227 1.58248580828753 1.54714707291727 6.07795650379762
4.37562258307841 23.0938785889113 5.62391110329875 1.23771765833382 5.41922872643535
-19.6806621950163 18.4730188263428 0.209375045404195 2.16600590208418 5.90057349716952
-17.0903325839949 22.4911660344423 0.219113419609042 -2.78486473125109 6.11469389045351
15.0965236083377 23.8269276074776 1.53379393726329 4.48672651146009 7.26402436471239
3.05195251559623 27.9383572751386 2.84847445491755 4.64144121875182 7.01691449387732
15.0896897702025 23.8161417225446 1.75290735687234 4.64144121875182 7.01691449387732
-17.2802251682615 22.7410678792695 -0.221548013160253 -2.78486473125109 9.93858428784185
-17.2807450264998 22.7417520214823 -0 -2.63015002395936 8.99670539704269
15.4784740476956 23.9392341025282 1.77238410528203 4.48672651146009 26.4274188963442
-2.53487263960546 29.6008293321427 2.5441502610161 4.02258238958491 25.3852770675687
2.53924731237707 29.6519143216105 1.8502910989208 4.02258238958491 25.3852770675687
15.0223046534435 25.7313117635869 1.1564319368255 4.02258238958491 25.3852770675687
2.5364852389638 29.6196603683224 2.312863873651 4.17729709687663 25.5502210721379
15.0263774233095 25.7382879043043 0.925145549460402 4.17729709687663 25.5502210721379
15.1877501003959 26.0146989317749 0.701162942748937 4.02258238958491 75.0215251567712
15.1877501003959 26.0146989317749 0.701162942748937 4.17729709687663 74.0058979884256
15.3459558306084 26.2856853789809 0.708466723402572 4.02258238958491 35.3450980828507
15.3459558306084 26.2856853789809 0.708466723402572 4.17729709687663 36.3350860573221
-5.83440525926093 30.7931143826128 1.7042154858481 3.71315297500145 13.5878500469146
1.69800081121897 31.2266769671087 2.67805290633274 3.71315297500145 13.5878500469146
14.99546928983 27.9204939323697 -0.737681846017111 3.55843826770973 16.6674136835382
14.999079636751 27.9272161407484 -0.245893948672369 3.71315297500145 51.4460810575352
14.999079636751 27.9272161407484 -0.245893948672369 3.86786768229318 11.4583168829784
15.1439392827986 28.1969344663536 -0.744985626670746 3.55843826770973 14.4948733116026
15.1439392827986 28.1969344663536 -0.744985626670746 3.71315297500145 46.8022878813835
15.1439392827986 28.1969344663536 -0.744985626670746 3.86786768229318 11.2477037590153
15.2924092757672 28.4733750003374 -0.75228940732438 3.71315297500145 5.05732182023829
0.510279364209745 32.8891598109348 2.04505858301773 3.403723560418 5.66529395495466
2.95238007921639 31.5811933919945 8.94713130070256 3.403723560418 5.66529395495466
-7.22239484896883 32.4607117292684 1.03226766571371 3.24900885312627 12.2678128904188
3.04266969747575 32.5470087067676 6.19360599428226 3.24900885312627 12.2678128904188
14.6654964725543 29.7521382380622 2.58066916428428 3.24900885312627 12.2678128904188
16.5142951183397 28.8779852564149 -0.516133832856853 3.24900885312627 12.2678128904188
16.5157857905728 28.880591944164 -0.258066916428427 3.403723560418 27.9567024415721
16.6700903553051 29.1504190795886 -0.521003019959276 3.24900885312627 21.7443424072511
16.6720966386969 29.1539273990047 -0 3.403723560418 52.7198730293996
14.7729034862075 29.9700366449743 3.38651962973531 3.55843826770973 8.29941896684461
16.6715950904839 29.1530503587316 0.260501509979638 3.55843826770973 8.29941896684461
16.5604890517778 29.5671984519165 -0.788808310592554 3.24900885312627 6.43918669032516
16.564476196795 29.5743171250191 -0.26293610353085 3.403723560418 14.3131409277685
5.01222619853366 33.6384330422409 3.71518975914887 0.928288243750363 12.9364892428734
4.76698044335884 31.9925211085864 -11.1455692774466 1.08300295104209 8.24857134938467
6.08513731491124 33.5618558354685 2.65370697082062 1.08300295104209 8.24857134938467
5.06236568063184 33.9749329415922 3.48146877823256 0.773573536458636 11.8097398794421
5.06236568063184 33.9749329415922 3.48146877823256 0.928288243750363 59.2692372957639
5.05820992512571 33.9470425196927 3.74927406886584 1.08300295104209 38.0615434956772
5.10419365171777 34.2556519971444 3.7833583785828 0.773573536458636 8.17372987228152
5.09968564337586 34.2253975092668 4.05359826276728 0.928288243750363 44.1327002641805
5.08972280630462 34.1585341606355 4.59407803113625 1.08300295104209 34.7013201033643
5.11162202591463 34.3055058660913 5.72616403244964 0.928288243750363 7.44149658672876
5.65684115861495 34.2643395788331 5.45348955471394 1.08300295104209 6.24399729803018
14.7324942152557 37.6303945068342 2.51250054485035 2.47543531666763 5.93953457687136
-3.24306282280787 41.6842486088841 4.56729750207293 2.32072060937591 7.21960396338187
14.4506056099522 39.7986740910585 1.64335064706782 2.16600590208418 30.9778653709105
14.4458157768673 39.7854823251878 1.97202077648138 2.32072060937591 44.8209994300325
14.5576471329889 40.0934790843256 1.65552361482388 2.16600590208418 64.1802056534844
14.5528218196589 40.0801896016706 1.98662833778865 2.32072060937591 92.0790537079116
14.5528218196589 40.0801896016706 1.98662833778865 2.47543531666763 6.8028362597579
14.6598278624505 40.3748968781535 2.00123589909592 2.16600590208418 16.8464449392196
14.6598278624505 40.3748968781535 2.00123589909592 2.32072060937591 23.9453278899744
15.6461372673646 39.964062383227 2.6683145321279 2.32072060937591 23.9453278899744
14.417663010275 41.8417093352669 -0 2.01129119479245 9.21407708453401
15.7902987378619 41.3418223228119 0.343277690720832 2.01129119479245 9.21407708453401
14.4172292823957 41.8404506072856 0.343277690720832 2.16600590208418 18.7685072715629
14.1737772512846 42.2547300450464 0.345712284272043 2.01129119479245 10.8404100801906
14.5199159394259 42.1384590468646 -0 2.16600590208418 20.4338152697276
-14.5453917817121 43.3625837516232 2.84360526781513 2.01129119479245 5.68310539393853
-4.96671914497487 45.4666228417614 2.84360526781513 2.01129119479245 5.68310539393853
-3.17732903527543 45.4031397530298 5.33175987715336 2.01129119479245 5.68310539393853
14.4307335266629 43.0207656512928 6.39811185258403 2.01129119479245 5.68310539393853
-14.2632068142393 43.7023616431823 3.93673777230913 1.85657648750073 11.6857359003835
15.742687123295 43.3572191400768 1.07365575608431 1.85657648750073 11.6857359003835
17.17384049814 42.8105109986677 1.07365575608431 1.85657648750073 11.6857359003835
-14.2722805790499 43.7301635923779 3.57885252028102 2.01129119479245 30.9907167194844
14.314979429329 43.8609925581882 0.357885252028101 2.01129119479245 30.9907167194844
15.7450561358227 43.3637436802969 0.715770504056202 2.01129119479245 30.9907167194844
17.17384049814 42.8105109986677 1.07365575608431 2.01129119479245 30.9907167194844
-8.53845196930311 45.0646666554155 5.01039352839343 2.16600590208418 5.53004202852855
-3.51091944326105 45.1271057376395 8.94713130070256 2.16600590208418 5.53004202852855
14.3046398967203 43.8293123056916 1.78942626014051 2.16600590208418 5.53004202852855
15.7450561358227 43.3637436802969 0.715770504056202 2.16600590208418 5.53004202852855
16.8185826905379 42.9587748309032 0.715770504056202 2.16600590208418 5.53004202852855
15.8368943331582 43.6166769194651 2.16191907347588 1.85657648750073 12.1084990886079
17.2766119998089 43.0666971733923 2.16191907347588 1.85657648750073 12.1084990886079
15.4769649164955 43.7456887543239 2.16191907347588 2.01129119479245 30.6071139545115
16.9100512430913 43.1924078917592 2.52223891905519 2.01129119479245 30.6071139545115
15.4769649164955 43.7456887543239 2.16191907347588 2.16600590208418 5.31958386293486
16.9100512430913 43.1924078917592 2.52223891905519 2.16600590208418 5.31958386293486
-15.854476145896 44.8127254008317 4.07064041762576 1.85657648750073 9.70967470205099
-14.3970605972874 45.3623978787537 3.33052397805744 1.85657648750073 9.70967470205099
13.9667066269032 45.2795074704004 5.5508732967624 1.85657648750073 9.70967470205099
17.0180687022385 44.5563433754652 1.11017465935248 1.85657648750073 9.70967470205099
16.3852457813887 45.1269015539575 1.11747844000612 1.701861780209 8.48429613361593
16.7576377309657 44.9899444415617 1.11747844000612 1.85657648750073 35.1949814774015
16.7576377309657 44.9899444415617 1.11747844000612 2.01129119479245 9.71291317592451
16.4923388910709 45.4218486229376 1.12478222065975 1.701861780209 5.69697752669011
16.8671647749589 45.2839963660163 1.12478222065975 1.85657648750073 24.9799675278916
16.8671647749589 45.2839963660163 1.12478222065975 2.01129119479245 8.87332342136824
13.9356134871351 47.9205906570377 -0 1.701861780209 7.33062119146874
13.9356134871351 47.9205906570377 -0 1.85657648750073 7.74084734392724
16.7419395420841 47.3211434091404 1.55813987277541 1.701861780209 6.02852837823722
-59.5544231337046 31.4525682040071 20.1779113524416 1.23771765833382 6.25832593424012
-22.1864464729995 66.1420233826871 8.7255832875423 1.23771765833382 6.25832593424012
-25.7334317816191 65.7294804130507 -2.19113419609042 1.39243236562554 6.9786317571344
-0.850832491663181 8.39476432368806 -0.788808310592552 0.10382171147208 10.9542280611363
6.5068854438859 5.42783202591111 -0.131468051765425 0.830573691776641 8.73339483847062
4.51148318154675 6.9775258013076 -2.86308201622482 0.10382171147208 8.12316800127622
6.0555692397979 7.19739438875612 -0.438226839218084 0.62293026883248 6.4500936201391
6.05757709912137 7.19978084572753 -0.365189032681737 0.726751980304561 10.4567564517814
5.80047837627439 6.75342896655664 -3.06758787452659 0.830573691776641 15.6027870036437
0.214254330946179 9.20487244380346 -1.97202077648138 0.934395403248721 7.04325586290554
7.26700514224161 6.21157139102414 1.81133760210141 1.14203882619288 6.65563690647276
-11.6557785142954 8.53895349100626 -2.97507331958055 1.5573256720812 11.3595039065504
-11.0378468117339 9.20741250764219 3.31835101030138 1.5573256720812 11.3595039065504
-11.6162372078309 8.50998576684612 -3.20392511339444 1.66114738355328 6.26281976931694
-11.0577642651467 9.22402699892854 3.20392511339444 1.66114738355328 6.26281976931694
-7.67704135095073 12.3657129909345 -2.40294383504583 1.66114738355328 6.26281976931694
-11.918734807187 8.9721837430585 2.1034888282468 1.45350396060912 10.774784000862
-3.1948949619848 13.8391833575614 5.0250010897007 1.45350396060912 10.774784000862
-11.918734807187 8.9721837430585 2.1034888282468 1.5573256720812 65.7469551026303
-1.50592083031488 14.8582130848273 -1.98662833778865 1.66114738355328 35.9364895469455
-2.77235943128338 15.2906208589299 -2.19113419609042 1.45350396060912 12.2687603148384
-1.09395098611143 15.6322524214356 -0.852107742924052 1.5573256720812 80.5277770944757
-1.0947428492388 15.6435679231788 -0.608648387802895 1.66114738355328 46.8553366039397
-1.22505979004533 15.7461324800312 -2.6074496933476 1.5573256720812 15.2814597164386
-1.226610965516 15.7660702942174 -2.48328542223581 1.66114738355328 9.70121619614651
-2.50132432183655 15.9285867087606 -2.53197729326004 1.5573256720812 16.5571418821087
-1.76335034234449 16.1421619811912 -1.64578524061903 1.5573256720812 16.5571418821087
-1.76468961233845 16.1544220027308 -1.51918637595603 1.66114738355328 7.69016000400314
-2.26646262024238 17.0379663932978 -1.60683174379964 1.5573256720812 5.12959199265426
5.04204923418579 16.8293397310917 -0.545348955471395 -0.934395403248721 5.4783877230543
18.9403851853087 17.3761800774867 -4.24349655976178 0.726751980304561 5.43524125349148
8.27160199516009 32.2818596762101 4.16802415967422 -1.34968224913704 5.26221153973
