VERSION .7
FIELDS x y z velocity SNR
SIZE 4 4 4 4 4
TYPE F F F F F
COUNT 1 1 1 1 1
WIDTH 251
HEIGHT 1
VIEWPOINT 0 0 0 1 0 0 0
POINTS 251
DATA ascii
5.98420332518828 6.40698776220232 -0.613517574905319 -3.86786768229318 12.3192554945981
6.98950781319789 5.83041989612392 0.0706032129851356 -3.86786768229318 7.28775089321361
4.68405213840861 8.0231900943814 1.5337939372633 4.17729709687663 5.75996338014117
5.15925306207934 7.81952820375279 0.949491484972516 4.17729709687663 5.75996338014117
4.73623113286319 7.94731892037912 1.75290735687234 4.33201180416836 5.46482454675532
3.99413660040238 8.85673142494985 0.528306800612912 3.86786768229318 11.6764583579988
4.28896594952061 8.7010970318861 0.75472400087559 3.86786768229318 11.6764583579988
4.49333519596898 8.54550573786095 1.20755840140094 3.86786768229318 11.6764583579988
4.78292270579672 8.36373398869331 1.35850320157606 3.86786768229318 11.6764583579988
-1.78714604665436 9.4322883289107 1.58492040183874 4.02258238958491 9.98472363955751
4.90126837225418 8.22424872772706 1.73586520201386 4.33201180416836 8.84327427198192
4.98248204566026 8.19096424115784 1.6603928019263 4.48672651146009 5.54520978046789
5.39200223516277 8.00887266693307 1.20755840140094 4.48672651146009 5.54520978046789
3.73942319786554 9.32153864816866 -0.0779069936387703 3.86786768229318 14.0482306872369
4.72422285829923 8.79616590190765 1.09069791094279 3.86786768229318 14.0482306872369
5.28161532392017 8.33600299237683 1.86976784733049 3.86786768229318 14.0482306872369
4.8156810661284 8.77967562186918 0.779069936387706 4.02258238958491 14.4403025932273
5.05937380361722 8.48954707378278 -1.79186085369172 4.17729709687663 5.30048622008845
5.07318877759948 8.51272837575766 -1.63604686641418 4.33201180416836 6.67170949611906
5.54139542068404 8.2307700156294 1.55813987277541 4.33201180416836 6.67170949611906
5.56593779113576 8.26722339812446 -1.24651189822033 4.48672651146009 5.75991111886108
4.49040250567553 9.31152516137336 2.6488377837182 2.93957943854282 6.2993259175639
4.90412260974303 8.94091721029067 3.14549486816536 2.93957943854282 6.2993259175639
4.57980987935277 9.29113698193225 2.56606160297701 3.55843826770973 11.3121405419982
4.86293978283284 9.65365101815721 1.95984780872532 3.24900885312627 5.11991520081179
6.07508327550793 9.02346962641586 1.53379393726329 3.24900885312627 5.11991520081179
4.73253909078209 9.60098129030184 2.47111245447975 3.403723560418 5.44995619159557
5.29658203343128 9.45654996115623 1.78942626014051 3.55843826770973 5.29269551075451
5.39710685444045 9.83969802565211 1.31468051765425 4.33201180416836 5.09361548488634
5.75511045798146 9.6569818804299 1.13938978196702 4.33201180416836 5.09361548488634
3.24952401935037 11.5200402166812 2.56362700942579 2.32072060937591 5.61285039173339
4.55536494517172 11.3554973978791 -0.379796593989007 2.78486473125109 5.01216583387672
3.37121278022972 11.9514447580541 1.8502910989208 2.32072060937591 8.66276045541819
3.84332483151476 11.7759192505993 2.04505858301773 2.32072060937591 8.66276045541819
3.31486559324122 11.7516856990845 -2.9215122614539 2.47543531666763 5.43247845250992
3.73157604407403 11.7574859175077 2.33720980916312 2.47543531666763 5.43247845250992
3.36418852156882 12.3048043910652 1.69691170519447 2.16600590208418 5.45793043743972
4.01486774430056 11.9690855651488 2.49545838999187 2.16600590208418 5.45793043743972
4.27144109300511 11.7640531164028 2.99455006799024 2.16600590208418 5.45793043743972
4.61133650468084 11.4950218719906 3.49364174598862 2.16600590208418 5.45793043743972
4.5446458132546 11.6081372473585 3.19418673918959 2.32072060937591 6.38345021688414
3.7115434114474 12.3883806160473 2.55632322877216 2.16600590208418 7.82678040368679
4.10622966481518 12.2414528543548 2.65857615792305 2.16600590208418 7.82678040368679
4.98322136151308 11.5694358920583 3.88561130773368 2.16600590208418 7.82678040368679
4.10622966481518 12.2414528543548 2.65857615792305 2.32072060937591 5.6506265695643
3.72796563970895 12.4431946897936 3.66406329457343 2.01129119479245 8.63430035481007
4.53235569907376 12.482642748755 2.40781302214825 2.01129119479245 8.63430035481007
4.22923247303757 12.608147657305 2.30312549944615 2.16600590208418 13.595653211489
4.5447316132662 12.5167274777151 2.19843797674406 2.16600590208418 13.595653211489
4.19700428286792 12.5120692830427 2.82656311295664 2.32072060937591 6.72201244638661
4.62858951620721 12.4265716039535 2.51250054485035 2.32072060937591 6.72201244638661
4.09846106437821 12.9134707905539 2.67805290633274 2.01129119479245 5.34034458245921
4.52573197140261 12.791995282968 2.57093079007943 2.01129119479245 5.34034458245921
4.35365573379495 12.9790770998536 1.82107597630626 2.16600590208418 10.1101695652836
4.65631142988034 12.8240314673491 2.14244232506619 2.16600590208418 10.1101695652836
4.37562258307841 12.6985578835848 3.21366348759929 2.32072060937591 5.64659897416332
4.77327971647052 12.8150275531506 1.92819809255957 2.32072060937591 5.64659897416332
-7.59232202813524 11.9830043015417 -2.68779128053758 3.86786768229318 8.43989587162072
-1.66341565877003 14.1996264502527 -2.01584346040319 3.86786768229318 8.43989587162072
-7.6241956345174 12.0333105926826 -2.35181737047039 4.02258238958491 8.96121213534549
-1.66341565877003 14.1996264502527 -2.01584346040319 4.02258238958491 8.96121213534549
-1.69957686874329 14.5083139817799 -2.059666144325 3.86786768229318 46.6788604847781
-1.70140093809614 14.5238850167725 -1.94524024741805 4.02258238958491 48.5465969324171
-1.85531259704526 14.8338386514802 -1.86976784733049 3.71315297500145 6.82267065380913
-1.85531259704526 14.8338386514802 -1.86976784733049 3.86786768229318 65.0757874765484
-1.85706902518381 14.8478818761377 -1.75290735687234 4.02258238958491 63.6943133428028
-1.85871063277347 14.8610070724808 -1.63604686641418 4.17729709687663 6.62761991100056
-1.38859046297324 14.8535563771574 -2.1034888282468 4.17729709687663 6.62761991100056
-2.49908491137124 15.1373340064808 -1.07365575608431 3.86786768229318 18.4541712247889
-1.89575796320847 15.1572127485572 -1.78942626014051 3.86786768229318 18.4541712247889
-1.42047370711277 15.1946069438588 -1.90872134414988 3.86786768229318 18.4541712247889
-1.89575796320847 15.1572127485572 -1.78942626014051 4.02258238958491 18.5487326873638
-1.4190407824121 15.1792791503926 -2.02801642815925 4.02258238958491 18.5487326873638
-10.310503689381 13.8457420730072 -0 3.403723560418 6.14386505221883
-10.6330249228932 13.9932402025411 0.272674477735696 3.403723560418 7.53888983310236
5.85810279870545 20.7678353607094 1.84785650536959 1.54714707291727 6.35081097151975
14.8502035623527 22.9675417908709 3.85639618511914 4.79615592604354 8.95138969254457
17.827303162718 21.1887812142799 -3.68354004298312 4.64144121875182 5.25791324430879
15.2498617416021 23.113175988256 3.68354004298312 4.79615592604354 24.5526820157209
15.6690198999884 23.2735781109815 3.28670129413563 4.79615592604354 9.95819586776387
1.58320304221222 29.1155161092143 1.35850320157606 4.17729709687663 7.32578630918808
10.6086094303922 26.4448706595105 6.33968160735495 4.17729709687663 7.32578630918808
15.1535148326027 24.9116598884313 1.35850320157606 4.17729709687663 7.32578630918808
15.1475746543562 24.9018945170447 1.58492040183874 4.33201180416836 27.4485701843322
2.71037780475248 28.9925291868168 2.03775480236409 4.48672651146009 8.04478717365563
15.1407177066235 24.8906220200908 1.81133760210142 4.48672651146009 8.04478717365563
15.3256882610531 25.1947048412864 0.915407175255555 4.17729709687663 17.3458004376243
15.3164558523081 25.1795271990596 1.37311076288333 4.33201180416836 72.7693072732955
15.3104518011772 25.1696568236795 1.60196255669722 4.48672651146009 20.0099789933386
15.491991889266 25.4681001208645 0.693859162095302 4.17729709687663 7.14926345069369
16.8839062776523 24.5772473195787 -0 4.17729709687663 7.14926345069369
15.484529412011 25.455832162087 1.1564319368255 4.33201180416836 29.75272504122
15.4733289479983 25.4374191303144 1.6190047115557 4.48672651146009 8.69689908684034
-5.4869135018776 30.2624230813085 0.477180336037468 3.86786768229318 32.2422675189582
-3.33211321516166 30.5030202831351 2.14731151216861 3.86786768229318 32.2422675189582
1.90504295971639 30.6410797093432 1.90872134414988 3.86786768229318 32.2422675189582
-5.48344529374279 30.2432945891474 1.19295084009367 4.02258238958491 20.986734661956
1.90297074387332 30.6077497886196 2.38590168018735 4.02258238958491 20.986734661956
14.7908103094092 26.9657634959642 0.477180336037468 4.02258238958491 20.986734661956
14.9363408298419 27.2310864575423 -0.964099046279787 3.71315297500145 9.20987222418261
14.9417369452195 27.2409243479638 -0.482049523139891 3.86786768229318 116.63699232156
14.9435352173367 27.2442028553342 -0 4.02258238958491 75.0337008624442
15.0903927279575 27.511945109894 -0.730378065363476 3.71315297500145 7.51628037764785
15.0940259288843 27.5185689550301 -0.243459355121157 3.86786768229318 82.4104565069672
15.0944800175118 27.5193968235699 -0 4.02258238958491 53.0650633178054
15.2449661881732 27.7937546445804 -0.245893948672369 3.86786768229318 5.88689866187757
-5.50865096561887 31.8077088753002 1.75534195042355 3.55843826770973 19.458008818839
1.00278093611589 32.3045708184086 0.75228940732438 3.55843826770973 19.458008818839
3.25952847338691 32.1602355440676 0.501526271549584 3.55843826770973 19.458008818839
-5.50016799185834 31.7587270172273 2.50763135774793 3.71315297500145 8.0946487785199
1.00196567341234 32.2783071442664 1.50457881464876 3.71315297500145 8.0946487785199
1.01169349548431 32.5916887670262 1.51918637595603 3.403723560418 15.069462011472
3.26282846568224 32.1927950171257 4.30436139854207 3.403723560418 15.069462011472
16.7065251104355 28.0332778066277 -0.759593187978015 3.403723560418 15.069462011472
16.7090391645465 28.0374963485955 -0.506395458652007 3.55843826770973 92.8591641184585
16.7105474154616 28.0400271691358 -0.253197729326004 3.71315297500145 34.8109374746441
16.8671647749589 28.3028285547684 -0.76689696863165 3.403723560418 17.5917833737084
16.8712257559949 28.3096428149929 -0.255632322877215 3.55843826770973 113.801882930686
14.796017653743 28.7467374928808 -6.3908080719304 3.71315297500145 43.3402063002643
16.6156011233283 28.4604275114179 -0.255632322877215 3.71315297500145 43.3402063002643
16.7738449435505 28.7314792020028 -0.258066916428427 3.55843826770973 18.043010427558
14.121335845973 29.9375866035827 -3.35486991356956 3.71315297500145 7.39966486185883
16.7738449435505 28.7314792020028 -0.258066916428427 3.71315297500145 7.39966486185883
-4.16577138891972 33.3067218648763 4.73284986355531 3.24900885312627 5.9143392223839
0.26179461281944 33.7500697369186 -3.15523324237021 3.24900885312627 5.9143392223839
17.0504320783075 28.6103481133648 -6.31046648474041 3.24900885312627 5.9143392223839
-5.54438040333315 33.5831478323759 3.44981906206681 3.24900885312627 28.0205642260026
-4.19956792051473 33.576936327635 5.04204324455918 3.24900885312627 28.0205642260026
-5.52970121697472 33.4942337879431 4.245931153313 3.403723560418 11.740676182134
14.551415318266 30.8493658848513 2.65370697082062 3.403723560418 11.740676182134
16.4485280734736 29.9880201697844 0.796112091246189 3.403723560418 11.740676182134
16.5859366326995 30.2385356339742 1.60683174379964 3.09429414583454 10.1925290561672
16.5859366326995 30.2385356339742 1.60683174379964 3.24900885312627 66.2459673753101
14.9084082003705 30.914827323011 3.74927406886584 3.403723560418 25.8436241692119
16.5914360706858 30.2485618962951 1.33902645316637 3.403723560418 25.8436241692119
16.7225837356737 30.4876628544665 2.16191907347589 3.09429414583454 5.17349031164724
16.4667708123179 30.6599523939445 1.62143930510691 3.24900885312627 30.12586377735
15.0439391840103 31.1958712077656 3.7833583785828 3.403723560418 12.2414627983507
16.4722307382132 30.6701183864108 1.35119942092243 3.403723560418 12.2414627983507
-18.2246192176189 29.9604098825112 2.45407029962127 1.08300295104209 5.13863230825207
-7.07224029340433 34.3474354674061 -2.45407029962127 1.08300295104209 5.13863230825207
4.31515235869404 34.5010721898635 5.18081507697824 1.08300295104209 5.13863230825207
5.38065476412066 34.2643395788331 5.72616403244964 1.08300295104209 5.13863230825207
5.19157187118443 34.8420713382626 4.12663606930363 0.928288243750363 15.6175989174615
-18.078372429698 30.3352153283414 3.3013088554429 1.08300295104209 24.0828325447385
-15.5276235625185 31.5011499000536 4.95196328316435 1.08300295104209 24.0828325447385
5.20437994188277 34.9280298348509 3.3013088554429 1.08300295104209 24.0828325447385
5.2325613088542 35.1171627646825 4.44069863740992 0.928288243750363 32.9711163190237
5.23751498508872 35.1504082527605 4.1631549725718 1.08300295104209 56.9062510943003
5.27846096945818 35.425208052092 4.47965213422931 0.928288243750363 11.1773730419356
6.69923374118668 35.3575491762039 2.79978258389332 0.928288243750363 11.1773730419356
5.27313624076605 35.3894723285864 4.75963039261864 1.08300295104209 20.7685820137355
6.96906955422122 35.2564748905452 3.35973910067198 1.08300295104209 20.7685820137355
15.1725639346784 32.8929532672262 3.67136707522706 2.93957943854282 5.06447155968563
15.1601085985586 32.8659510551624 3.95377992716761 3.09429414583454 5.29974507437619
17.8182489630134 30.520411463191 8.75479841015684 3.09429414583454 5.29974507437619
14.7965684370558 36.8845079168939 3.09193381003871 2.63015002395936 5.31586451634312
16.3694925915982 36.2982576589609 1.85516028602322 2.63015002395936 5.31586451634312
14.4336163019328 38.7505450314658 2.57093079007943 2.32072060937591 6.31442561843194
14.4336163019328 38.7505450314658 2.57093079007943 2.47543531666763 8.96220412358224
14.549548115282 39.0617921132636 2.26660659617798 2.32072060937591 9.7585973331409
14.549548115282 39.0617921132636 2.26660659617798 2.47543531666763 13.1156845030028
-14.4190368915268 40.7554519505026 2.68779128053759 2.16600590208418 14.8818638052313
-11.0014239152918 41.5477014346376 5.37558256107517 2.16600590208418 14.8818638052313
-3.6796687246288 42.9691197162132 4.03168692080638 2.16600590208418 14.8818638052313
14.4399228550475 40.8144861903836 1.34389564026879 2.16600590208418 14.8818638052313
-14.0764782762952 40.85155216079 3.02376519060478 2.32072060937591 23.371944588553
-11.0014239152918 41.5477014346376 5.37558256107517 2.32072060937591 23.371944588553
-3.67385773509131 42.9012622203916 4.70363474094078 2.32072060937591 23.371944588553
14.4312240437593 40.7898989736264 2.01584346040319 2.32072060937591 23.371944588553
14.5498145522282 41.1250954091476 0.676817007236817 2.16600590208418 59.9498541906004
14.5445599771856 41.1102433366908 1.35363401447364 2.32072060937591 92.885481773418
14.5357981310329 41.0854779516961 2.03045102171046 2.47543531666763 7.7502458951655
14.6544894770644 41.4209594048969 0.68168619433924 2.16600590208418 40.4400635997356
17.0236886259379 40.4589470560246 2.04505858301773 2.16600590208418 40.4400635997356
14.6522845519845 41.4147271774033 1.02252929150887 2.32072060937591 63.385147135532
14.645226560928 41.3947777440579 1.70421548584811 2.47543531666763 5.25159509783599
15.6617935358628 41.0053727523003 2.04505858301773 2.47543531666763 5.25159509783599
-12.4523724541078 42.8201487959716 7.36221089886382 2.16600590208418 8.22735872320199
-4.86006662040635 44.4902982362953 6.31046648474041 2.16600590208418 8.22735872320199
14.3114388341294 42.6651254475954 4.20697765649361 2.16600590208418 8.22735872320199
14.1053420043485 43.2186650171406 2.11809638955407 2.01129119479245 11.9979755949518
14.1053420043485 43.2186650171406 2.11809638955407 2.16600590208418 27.8117070697309
14.1970527975349 43.4996662185265 2.48815460933823 2.16600590208418 14.2917349649179
-14.9565264356454 44.5882544748273 2.19113419609042 2.01129119479245 6.02279164673974
14.2355154536616 44.8533998766258 -1.46075613072695 2.01129119479245 6.02279164673974
16.9101780809727 44.2738664591815 -0.367623626232947 1.85657648750073 7.90715861020833
16.9101780809727 44.2738664591815 -0.367623626232947 2.01129119479245 14.6895514964009
17.0226781100714 44.5684116284351 -0 2.01129119479245 5.2794007007754
14.025392810565 46.8139221788315 3.03837275191206 1.85657648750073 10.0791161340739
16.703004798963 46.0020474074451 -1.51918637595603 1.85657648750073 10.0791161340739
14.1272296040104 47.153832781528 -2.29338712524131 1.85657648750073 20.7316382906803
16.8161483899603 46.3136582163716 -0.764462375080434 1.85657648750073 20.7316382906803
16.8176663091505 46.3178387450482 -0.382231187540217 2.01129119479245 9.945186833853
16.9252943680229 46.6142591272616 -0 1.85657648750073 6.66273250253407
-16.1467165550046 48.1364379480259 2.76082908707393 1.701861780209 10.0436492873136
14.1878673261349 48.7880194911923 1.97202077648138 1.701861780209 10.0436492873136
16.9593786777399 47.9357357922548 -0 1.701861780209 10.0436492873136
14.171186914625 48.7306603248596 3.15523324237021 1.85657648750073 13.6020855297434
16.9588684871949 47.9342937371163 0.394404155296275 1.85657648750073 13.6020855297434
16.6667260498616 48.3687478651599 0.396838748847486 1.701861780209 19.7012080161959
14.2340982289042 48.946994348622 4.36522623732236 1.85657648750073 28.6356371716209
16.6667260498616 48.3687478651599 0.396838748847486 1.85657648750073 28.6356371716209
16.7674623784086 48.661096228106 0.798546684797396 1.701861780209 6.26334486016527
16.7674623784086 48.661096228106 0.798546684797396 1.85657648750073 8.93626473135111
13.3476836185086 55.7857279249844 6.71947820134396 1.54714707291727 8.79763724896237
16.566733198039 55.2964019735871 1.79186085369173 1.54714707291727 8.79763724896237
16.6602803585272 55.6086434594618 1.35119942092243 1.39243236562554 5.10877013849145
13.4431241758405 56.1846151863624 5.85519749066385 1.54714707291727 15.9163119869078
16.6522551178658 55.5818568306046 2.25199903487071 1.54714707291727 15.9163119869078
16.6402099998505 55.5416526648447 3.15279864881899 1.701861780209 5.20185556579676
19.217463163405 54.318218509237 7.20639691158628 1.701861780209 5.20185556579676
-22.1071006380861 67.735995106188 6.66104795611488 1.39243236562554 5.19745784124515
-25.8191883762356 65.9485237359145 12.2654823110039 1.39243236562554 5.04841450734202
-22.7591631459419 67.8494008854121 6.69026307872942 1.39243236562554 5.04841450734202
4.04128016765962 7.06684894889111 0.56969489098351 0.10382171147208 5.79875659738683
5.76786613223972 6.715458913185 -2.11809638955408 0.726751980304561 7.3927801997333
1.23625233831402 9.29343621452606 0.876453678436169 0 5.6301473597949
5.66325895923166 7.45294434278054 -1.02252929150886 0.31146513441624 5.56903632590079
-1.04626434189303 9.57777253698023 -1.35850320157606 0 11.1130665564526
5.34818345590197 8.44106784722985 -1.01279091730402 0 10.4167006126909
5.44666580279267 8.5965030858886 -1.92819809255957 0.20764342294416 9.06924009941354
5.70878468783504 8.14422348697257 -2.89229713883936 0.31146513441624 5.13354190445255
4.99920450111521 9.50757708602411 3.50581471374468 -0.41528684588832 6.83848255112544
5.22993042604046 9.53491147670515 3.06758787452659 -0.31146513441624 9.98995024875427
-8.71270609112563 7.08942464580599 1.22703514981064 1.24586053766496 5.94920456109239
8.15101920945637 7.82545144671175 -0 1.24586053766496 5.94920456109239
5.02477948230437 9.7624928624545 3.7833583785828 -0.41528684588832 6.92102732019357
5.56071149822034 10.1379727001778 -1.08095953673794 -0.31146513441624 7.7738519574728
6.52496445074429 10.510017334212 2.14244232506619 -0.62293026883248 5.20149356917562
3.43336607997978 12.5578271687844 -3.55937577187133 -0.934395403248721 7.39205267404468
-11.0818012608504 9.24407787829511 -0.447965213422931 1.5573256720812 6.52174362857461
-7.54891082888614 12.15932811051 -1.90385215704746 1.5573256720812 6.52174362857461
-7.57659322919445 12.2039172434148 -1.45588694362452 1.66114738355328 5.35030042179985
-1.58957771986429 14.5514027584708 -1.83081435051111 1.5573256720812 37.2871275738583
-1.58957771986429 14.5514027584708 -1.83081435051111 1.66114738355328 33.888857635085
-1.63008077877021 14.9221781636145 -1.28546539503971 1.45350396060912 6.11231964452866
-1.62493539703584 14.8750760175367 -1.75290735687234 1.5573256720812 93.9313200023122
-1.62493539703584 14.8750760175367 -1.75290735687234 1.66114738355328 79.9667938783088
-2.7370929981685 15.096113014196 -1.07365575608431 1.45350396060912 7.21148047998048
-1.53729418094644 15.1677591907612 -2.02801642815925 1.66114738355328 48.2825519493622
-2.53901755203823 14.6606368108197 -4.99091677998374 1.5573256720812 20.6316584346172
-1.3286743859048 15.5155186578838 -1.94767484096926 1.5573256720812 20.6316584346172
-1.32993224459778 15.5302072303639 -1.82594516340869 1.66114738355328 17.8148626866993
-2.58468142510775 15.6558049925302 -2.11079260890044 1.5573256720812 10.750909712132
-1.73494983831314 15.8821764721221 -0.993314168894326 1.66114738355328 9.60152604887232
-2.62954596857918 15.927556294971 -2.40537842859704 1.5573256720812 12.5242962398753
-2.63253608605344 15.9456678872264 -2.27877956393404 1.66114738355328 8.76487899746491
8.60112474237538 23.6885131099685 -3.35243532001834 0.62293026883248 5.15456221266679
20.8787559987037 35.0342134764372 -1.26598864663002 -0.62293026883248 5.66582922362412
-21.7109011660787 64.7243322329052 18.076857117746 -1.0382171147208 6.02143078340556
