VERSION .7
FIELDS x y z velocity SNR
SIZE 4 4 4 4 4
TYPE F F F F F
COUNT 1 1 1 1 1
WIDTH 162
HEIGHT 1
VIEWPOINT 0 0 0 1 0 0 0
POINTS 162
DATA ascii
5.65040459545338 6.3104671018186 -0.262936103530851 -2.32072060937591 9.24358900287442
-7.92257207653382 7.10156455864735 -0.827761807411938 3.55843826770973 5.7506371718237
6.42363338996921 8.45360992292721 -1.07609034963552 3.55843826770973 5.7506371718237
-8.16446982735594 7.31839470893946 0.681686194339243 2.78486473125109 5.50537798564126
-8.16538083907218 7.14873206071537 1.70421548584811 2.93957943854282 9.56604013013438
-7.69423258019419 7.7215390614086 1.36337238867848 2.93957943854282 9.56604013013438
-8.15132848258181 6.96745878256349 -2.38590168018735 3.09429414583454 5.19265512213289
-8.0098127834861 7.51831523139952 -0 3.55843826770973 9.46319190433423
6.71522816320844 8.66023928657558 -0.766896968631648 3.55843826770973 9.46319190433423
-8.0098127834861 7.51831523139952 -0 3.71315297500145 8.09523811572968
6.60130005045808 8.6874222457829 -1.27816161438608 3.71315297500145 8.09523811572968
-8.47059833253806 7.41594777594447 0.964099046279786 2.78486473125109 5.80328286742973
-8.34048459866704 7.47616926115132 1.48997125334149 2.93957943854282 8.3137111731438
-8.02227518385295 7.87538546974408 1.13938978196702 2.93957943854282 8.3137111731438
-8.44386072388264 7.39253919231696 1.31468051765425 3.403723560418 5.18377711774922
-8.14218707423428 7.81697208436758 0.525872207061701 3.403723560418 5.18377711774922
7.33216660163563 7.85018475047054 3.50581471374468 3.403723560418 5.18377711774922
-8.23554913330828 7.21016389647874 2.80465177099574 3.55843826770973 5.85936267276476
6.54874765661978 8.61826240880982 3.24287861021383 3.55843826770973 5.85936267276476
7.79949905058377 8.17397652404843 0.175290735687233 3.55843826770973 5.85936267276476
-8.62162255387504 7.72817319617506 0.900799613948285 2.78486473125109 11.3538235856759
-8.69982282786085 7.61663216912968 1.08095953673794 2.93957943854282 5.90215925818598
-8.67020431093154 7.59070137107673 1.44127938231726 3.403723560418 5.65256411164867
-8.36129186783685 8.02732540093068 0.720639691158629 3.403723560418 5.65256411164867
-8.84900994189543 7.93199667676313 1.01766010440644 2.63015002395936 6.45339483250716
-8.85463937965544 7.93704274201763 0.925145549460401 2.78486473125109 12.7667401878869
-8.96418803931528 7.84808200596017 0.55508732967624 2.93957943854282 6.58928060905427
-8.32605946399749 8.5396343703432 0.0925145549460397 2.93957943854282 6.58928060905427
-7.68578062217546 10.3210608647527 0.0998183355996745 0.928288243750363 6.08429164070724
9.5476159899398 8.55820694071812 1.09800169159642 0.928288243750363 6.08429164070724
-8.85188192031119 9.0789448977363 -2.19600338319285 1.701861780209 5.57267435908336
-8.44131310861338 9.62631043172882 1.29763836279577 1.701861780209 5.57267435908336
-4.39848222235929 11.5160120492721 3.69327841718797 1.701861780209 5.57267435908336
8.05749115271419 9.5767944042091 -2.99455006799024 1.701861780209 5.57267435908336
-8.81312431675734 9.03919310820707 -2.49545838999187 1.85657648750073 5.06465078107471
-8.14705759095214 9.29074712270219 -3.59346008158829 1.85657648750073 5.06465078107471
-8.28024452588892 10.2530857243506 0.30675878745266 0.928288243750363 5.80704116737299
-7.86968495335755 10.5680218292571 0.409011716603546 0.928288243750363 5.80704116737299
-13.3936183596387 9.27214369546095 -1.01279091730402 1.85657648750073 5.23773136247893
6.82208893687252 15.1275270517574 1.16130112392792 -0.154714707291727 5.59139813330977
7.48033752214629 14.8495706633572 0.516133832856856 -0.154714707291727 5.59139813330977
8.4129427961353 14.7114264513812 0.26293610353085 0.309429414583454 5.52076303634983
0 19.3096586711571 -2.41511680280189 1.39243236562554 6.56326980342429
0 19.3279391635603 -2.26417200262677 1.54714707291727 22.2594088819397
-0.150175441243624 19.3603357997306 -1.96228240227653 1.701861780209 7.50152496937135
-0.609889426378795 19.6475775079708 -2.14731151216861 1.39243236562554 23.7721837824178
0.152193611476368 19.6205145152609 -2.45407029962127 1.39243236562554 23.7721837824178
-3.11366094772056 18.8599136964578 -5.06151999296887 1.54714707291727 88.045131814526
-0.610390503119247 19.6637196866505 -1.99393211844228 1.54714707291727 88.045131814526
0.152337693472109 19.6390892955122 -2.30069090589494 1.54714707291727 88.045131814526
0 19.6731911107849 -1.99393211844228 1.701861780209 26.8914743554272
-3.24987079407167 19.684957267329 2.33720980916312 1.39243236562554 38.2236138775224
-0.463360255481503 19.9070517193271 -2.6488377837182 1.39243236562554 38.2236138775224
0.15475575209865 19.9508208716314 -2.33720980916312 1.39243236562554 38.2236138775224
-3.24987079407167 19.684957267329 2.33720980916312 1.54714707291727 141.924222313152
-0.45856907014022 19.7012110731831 3.89534968193853 1.54714707291727 141.924222313152
0.15475575209865 19.9508208716314 -2.33720980916312 1.54714707291727 141.924222313152
-3.16308413736692 19.1592774059254 -5.14186158015886 1.701861780209 48.0408532410891
0.15475575209865 19.9508208716314 -2.33720980916312 1.701861780209 48.0408532410891
0.312270142560573 20.1268233505061 -3.32322019740381 1.54714707291727 47.6673361344729
0.312270142560573 20.1268233505061 -3.32322019740381 1.701861780209 18.0110843155537
0.15910932388235 20.5120751683571 -2.89229713883936 1.54714707291727 9.64735215525897
-17.6082375765291 11.4787983781911 0.652471071724704 -1.701861780209 5.36738553790462
-8.95418789101388 18.9831031834303 1.30494214344941 -1.701861780209 5.36738553790462
-7.66630445968658 19.5816171391248 -0.163117767931175 -1.701861780209 5.36738553790462
5.92079544207085 19.7624166970279 4.0779441982794 -1.701861780209 5.36738553790462
-0.648612564561575 20.8950427465721 -2.28364875103646 1.54714707291727 5.69743215196938
0 20.8668892091536 -2.60988428689881 1.54714707291727 5.69743215196938
-8.91801729305656 19.3335765345742 1.48997125334149 -1.85657648750073 5.00607750166236
-9.06692830433217 19.6564041697683 0.671947820134397 -1.701861780209 11.5799159864768
-9.03125514284201 20.0262057192262 0.34084309716962 -1.701861780209 7.64948454717711
-6.40383897697734 29.8995261731236 3.34026235226229 -2.16600590208418 7.75378151159012
6.68259160305872 30.0345915956519 4.33844570825903 -2.32072060937591 13.0252477232358
6.69651890496022 30.097187194708 3.85639618511914 -2.16600590208418 54.3729619606762
-13.4104800662417 27.2060654418546 -6.7486933239585 -2.01129119479245 16.3415848028369
8.18275337611346 29.9291133739589 1.68717333098962 -2.01129119479245 16.3415848028369
-12.5272535992222 28.419962426156 0.964099046279787 -1.85657648750073 7.04220726635085
6.77056415431598 30.42998006252 3.65189032681737 -2.32072060937591 37.9954271387255
8.26166589672923 30.2177426002812 1.94767484096927 -2.32072060937591 37.9954271387255
6.77056415431598 30.42998006252 3.65189032681737 -2.16600590208418 142.286408900056
8.02230723148379 30.2968441391781 1.7042154858481 -2.16600590208418 142.286408900056
6.77056415431598 30.42998006252 3.65189032681737 -2.01129119479245 38.6316687691533
8.02811422775121 30.3187746955324 1.21729677560579 -2.01129119479245 38.6316687691533
8.34428255569652 30.519920026284 1.96715158937896 -2.32072060937591 14.155286177107
6.83826979585914 30.7342798631452 3.68840923008555 -2.16600590208418 54.587290754936
8.09886248052898 30.5859607712682 1.96715158937896 -2.16600590208418 54.587290754936
6.83826979585914 30.7342798631452 3.68840923008555 -2.01129119479245 18.5742040950488
8.10253030379862 30.5998125805699 1.72125764070659 -2.01129119479245 18.5742040950488
-12.5371956357595 29.107332516746 0.737681846017111 -1.85657648750073 5.78215593997857
-27.0980288375318 21.4970988011073 9.15894093965796 1.23771765833382 5.86142989938632
32.5865904152057 13.5815427589712 5.82841696160052 1.23771765833382 5.86142989938632
25.255199742178 24.7927711935591 5.27332963192428 1.39243236562554 7.16754003261246
30.0467964934037 18.9782186740154 4.1631549725718 1.39243236562554 7.16754003261246
31.3636972929042 16.5641572250678 4.71824230224804 1.39243236562554 7.16754003261246
32.4978527556208 13.5445583950771 6.38350429127676 1.39243236562554 7.16754003261246
-23.7766884747029 26.0016889687359 7.83939123490129 1.23771765833382 17.7970348753248
-23.4160737021833 27.2630600728006 3.35973910067198 1.23771765833382 17.7970348753248
-22.6099138765051 27.9969250269338 2.79978258389332 1.23771765833382 17.7970348753248
-23.4160737021833 27.2630600728006 3.35973910067198 1.39243236562554 22.5329739477659
-22.5955393664353 27.9791256632157 3.07976084228265 1.39243236562554 22.5329739477659
-22.7920223174478 28.2224224081133 3.10654137134598 1.23771765833382 14.4650065581472
-22.7761313152913 28.2027452347102 3.38895422328652 1.39243236562554 17.7672443707465
14.3877761449537 39.6256343259244 4.27271168237632 -1.08300295104209 7.55788641509884
15.4177265043373 39.3806454141288 2.62936103530851 -1.08300295104209 7.55788641509884
16.7495655933537 38.8870995875832 1.64335064706782 -1.08300295104209 7.55788641509884
15.0636929109569 39.4394384925047 3.6153714235492 -0.928288243750363 7.79945515250046
16.421142738582 39.0269206197438 1.64335064706782 -0.928288243750363 7.79945515250046
15.1849298133565 39.7568583565099 3.31104722964775 -1.08300295104209 5.24258591656958
16.5427808329419 39.3160089206308 1.65552361482388 -1.08300295104209 5.24258591656958
15.1752758214084 39.7315824813381 3.64215195261252 -0.928288243750363 9.28025767743569
16.5427808329419 39.3160089206308 1.65552361482388 -0.928288243750363 9.28025767743569
-33.8156453114938 61.6507598203101 9.35370842375489 -2.78486473125109 10.7053676462664
-21.8965482071349 67.0908639935201 7.15283585345962 -2.78486473125109 10.7053676462664
-16.9078226557469 68.2527624883867 9.35370842375489 -2.78486473125109 10.7053676462664
7.6913833215548 70.4088985918118 7.73713830575041 -2.93957943854282 10.0246159989323
11.0410780516797 70.3102622754836 3.31591641675017 -2.93957943854282 10.0246159989323
7.6913833215548 70.4088985918118 7.73713830575041 -2.78486473125109 56.8296674248803
11.0410780516797 70.3102622754836 3.31591641675017 -2.78486473125109 56.8296674248803
7.6913833215548 70.4088985918118 7.73713830575041 -2.63015002395936 19.4278088451384
9.93307495389174 70.4471566647174 3.8685691528752 -2.63015002395936 19.4278088451384
7.72526606746473 70.7190699512471 7.77122261546737 -2.93957943854282 12.5817123037989
11.0803519085545 70.5603606050589 4.44069863740993 -2.93957943854282 12.5817123037989
7.72526606746473 70.7190699512471 7.77122261546737 -2.78486473125109 70.9725608671815
11.0803519085545 70.5603606050589 4.44069863740993 -2.78486473125109 70.9725608671815
7.71844313592022 70.6566110832994 8.32630994514361 -2.63015002395936 25.7709230611727
11.0803519085545 70.5603606050589 4.44069863740993 -2.63015002395936 25.7709230611727
11.1232350768516 70.8334432511611 5.01769730904707 -2.78486473125109 7.63138776715345
11.1232350768516 70.8334432511611 5.01769730904707 -2.63015002395936 5.16784389100559
7.9215600605497 72.5159955854915 8.54542336475265 -2.78486473125109 5.80874213274941
11.3719401166744 72.4172121999289 4.55755912786808 -2.78486473125109 5.80874213274941
7.91406779677117 72.4474094783439 9.11511825573616 -2.63015002395936 5.09799161818295
7.94788859932147 72.7570137923539 9.15407175255554 -2.93957943854282 5.14161747539209
11.4146735504809 72.6893413276107 5.1491653608125 -2.93957943854282 5.14161747539209
7.93987104444866 72.683619035599 9.72620123709026 -2.78486473125109 5.81879077036184
11.4146735504809 72.6893413276107 5.1491653608125 -2.78486473125109 5.81879077036184
-0.966746396045732 2.80560876443254 -1.02252929150886 0 5.40596359854588
-0.831768212508348 2.94874055461475 -0.681686194339242 0 5.40596359854588
-0.600519504924181 3.03802404064368 -0.511264645754432 0 5.40596359854588
0.072771463337956 3.12643405907661 -0.267805290633274 0 5.40596359854588
7.0596673354223 6.7776903162235 -2.25930281552435 0.20764342294416 5.90800874871132
-7.85830220883009 6.71699059336759 0.642732697519858 0.10382171147208 6.94116825107759
-8.01381591982735 7.01603806654174 0.662209445929551 0.10382171147208 6.83378840790571
-8.33154277783945 7.46815407147989 -1.5776166211851 0.10382171147208 9.0674754624651
-8.5431094314727 8.76225196878193 -0.284847445491756 -0.934395403248721 8.89583842002112
7.35517545131766 10.7066435440474 -3.66406329457343 -1.34968224913704 5.35927729282172
-12.8055821399303 14.6032385426135 -1.20755840140095 0.62293026883248 12.5235738964084
-12.8113815484605 14.6098520760903 -1.05661360122582 0.726751980304561 6.77724639540628
0 19.6881329597796 -1.84055272471595 0.5191085573604 13.720762342979
0 19.6881329597796 -1.84055272471595 0.62293026883248 56.814732980039
0 19.6881329597796 -1.84055272471595 0.726751980304561 28.3521853515532
-0.154609383087104 19.9319512535983 -2.49302379644066 0.5191085573604 26.7204133073817
-0.154609383087104 19.9319512535983 -2.49302379644066 0.62293026883248 108.278928023793
-0.154609383087104 19.9319512535983 -2.49302379644066 0.726751980304561 52.0702400368921
0.459888912083367 19.757914602484 -5.06395458652009 0.5191085573604 12.2114373638165
-0.156332770114784 20.1541270720442 -3.16497161657506 0.62293026883248 78.3400336926554
-0.156520593367808 20.1783408930221 -3.0067230357463 0.726751980304561 25.641873084359
0.470543160219009 20.2156462835198 -4.499128882639 0.62293026883248 22.0920202101861
0.471359528081594 20.2507193763676 -4.33844570825904 0.726751980304561 8.94800935442982
-0.649638483663057 20.9280927129946 -1.95741321517411 0.62293026883248 6.14893436440025
-10.9737914735653 21.320649256754 -4.93735572185709 -1.97261251796952 5.53677095869592
-27.7851803107027 22.0422219611219 -0.275109071286908 -1.0382171147208 11.4292441911201
-9.83542435590132 49.7573440964806 -8.78401353277138 -2.80318620974616 6.61585303298337
