VERSION .7
FIELDS x y z velocity intensity
SIZE 4 4 4 4 4
TYPE F F F F F
COUNT 1 1 1 1 1
WIDTH 971
HEIGHT 1
VIEWPOINT 0 0 0 1 0 0 0
POINTS 971
DATA ascii
5.506240 -0.782622 7.138030 -9.945600 4.440000
5.803780 -0.782622 6.898270 -9.768000 4.600000
5.768440 -0.819890 7.477930 -9.945600 5.480000
6.080160 -0.819890 7.226760 -9.768000 3.540000
6.030640 -0.857157 7.817840 -9.945600 2.670000
6.872310 1.273140 10.358700 -10.656000 7.040000
6.332050 -1.624860 11.152200 -11.100000 5.230000
7.109290 1.317040 10.715900 -10.656000 8.830000
6.454110 -1.679020 11.574100 -11.100000 6.410000
6.263070 -0.660744 12.266600 -11.188800 4.490000
6.862290 1.447260 11.872000 -10.922400 8.700000
6.361100 -0.681392 12.699300 -11.277600 5.300000
7.076730 1.492480 12.243000 -10.922400 8.040000
8.035820 -0.593525 11.716400 -10.478400 8.340000
7.113550 -1.142920 12.756600 -11.011200 8.670000
7.484750 1.537710 12.500200 -10.833600 8.630000
8.279330 -0.611511 12.071400 -10.478400 8.380000
7.427210 -1.083510 13.081100 -11.011200 8.280000
-7.990000 1.756770 12.669900 -10.389600 6.980000
-8.218290 1.806970 13.031900 -10.389600 8.970000
-1.100240 1.437200 15.406400 2.131200 8.310000
-1.131120 1.428020 15.838900 2.131200 9.810000
-1.255700 1.466620 16.260000 2.131200 5.360000
-1.415190 1.763850 16.652300 2.131200 6.400000
-7.626060 0.559617 15.447000 -10.922400 6.770000
-0.757842 2.113590 17.089100 2.131200 6.090000
7.413710 1.799950 15.934800 -11.366400 11.180000
-7.816710 0.573607 15.833200 -10.922400 7.640000
-0.989397 -4.339890 17.097000 2.131200 7.510000
-8.007370 0.587597 16.219300 -10.922400 7.900000
-8.812260 0.377780 15.802900 -10.656000 10.100000
-1.822080 -4.445740 17.448400 2.131200 5.030000
7.373680 1.843850 16.424400 -11.455200 7.480000
7.585460 -0.544311 16.896100 -11.455200 9.650000
8.251060 -0.967087 17.042600 -11.366400 10.910000
-7.393070 1.856210 17.829400 -11.277600 5.930000
-7.697600 1.897460 18.166900 -11.277600 4.900000
7.804770 1.836430 18.127400 -11.544000 7.500000
-7.864940 1.938700 18.561800 -11.277600 4.720000
7.974440 1.876350 18.521400 -11.544000 7.460000
-8.139270 2.043620 18.904300 -11.277600 5.590000
7.519030 2.151160 19.612300 -11.721600 4.710000
17.662100 1.743480 15.047800 -8.436000 6.990000
-6.915810 1.599920 22.159400 -11.721600 7.260000
17.989200 1.775760 15.326500 -8.436000 4.330000
-7.043880 1.629550 22.569800 -11.721600 6.510000
18.320500 1.733620 15.608700 -8.436000 6.320000
-7.030650 2.031220 22.993900 -11.721600 5.240000
18.651700 1.688810 15.890900 -8.436000 5.250000
-7.156200 2.067500 23.404500 -11.721600 3.320000
18.162500 2.007480 17.050000 -8.880000 4.050000
8.101570 2.161530 23.543600 -11.899200 5.830000
-7.281740 2.103770 23.815100 -11.721600 11.330000
18.479100 1.983300 17.347200 -8.880000 5.180000
-6.561470 2.198790 24.463200 -11.899200 8.270000
18.801000 1.857450 17.649400 -8.880000 12.470000
7.879880 1.458480 24.580700 -11.899200 6.630000
18.100400 1.482790 19.001900 -9.324000 9.270000
-6.991150 1.645090 25.284600 -11.810400 5.790000
18.390300 1.672050 19.306300 -9.324000 8.750000
-7.107100 1.589580 25.704000 -11.810400 5.300000
18.686900 1.699020 19.617700 -9.324000 5.520000
-6.996080 2.765780 26.083500 -11.810400 11.380000
18.979800 1.811110 19.925200 -9.324000 4.670000
18.379500 1.342140 21.091900 -9.679200 4.310000
8.703240 0.411442 26.618800 -11.899200 7.720000
18.452200 1.450630 21.591900 -9.679200 7.160000
8.837140 0.417772 27.028300 -11.899200 12.230000
8.971040 0.424102 27.437800 -11.899200 10.760000
6.648080 -1.743410 28.483700 -11.988000 12.120000
6.126790 -2.136070 29.015500 -11.988000 7.380000
-12.906200 1.980900 27.190300 -14.119200 7.380000
-12.292900 1.820330 27.956300 -14.385600 15.170000
-12.466100 1.845970 28.350100 -14.296800 16.910000
-12.639200 1.871610 28.743800 -14.296800 8.780000
19.030800 2.389210 25.473100 -10.300800 9.760000
-15.299800 1.487410 29.403600 -12.876000 8.160000
-17.035900 1.077260 28.451400 -12.520800 9.710000
9.140610 1.884150 34.079000 -12.076800 8.800000
9.518820 1.824280 34.426400 -12.076800 10.900000
18.808700 1.846260 30.869800 -10.833600 10.900000
6.786490 1.734450 35.511400 -12.165600 6.650000
19.032600 1.868240 31.237300 -10.833600 10.460000
9.477630 1.755100 35.335500 -12.076800 7.710000
19.256500 1.890220 31.604800 -10.833600 7.650000
9.106060 1.775750 35.877300 -12.076800 5.090000
19.480500 1.912200 31.972300 -10.833600 8.430000
9.211950 1.796400 36.294400 -12.076800 7.660000
19.454500 1.934170 32.490700 -10.833600 5.200000
19.172400 1.719210 33.169100 -11.011200 6.890000
19.385100 1.858340 33.537000 -11.011200 10.560000
19.600500 1.878990 33.909600 -11.011200 6.590000
19.230000 1.672660 35.118500 -11.100000 8.090000
19.436800 1.690650 35.496100 -11.100000 8.450000
19.282900 1.357070 37.058600 -11.188800 11.570000
19.481700 1.371060 37.440700 -11.188800 13.950000
19.678500 1.516910 37.818700 -11.188800 11.970000
-5.544490 1.399040 42.708900 -12.254400 5.970000
19.478900 1.547550 38.887600 -11.366400 6.000000
19.671800 1.562870 39.272600 -11.277600 11.940000
19.864600 1.578200 39.657700 -11.277600 10.220000
20.055200 1.732020 40.038100 -11.277600 15.210000
10.318100 1.379770 45.799900 -12.165600 10.720000
10.412800 1.392420 46.220100 -12.165600 13.990000
-22.066000 -1.552940 42.407300 -10.833600 8.730000
-21.016800 -1.716100 43.410300 -11.011200 7.350000
-22.276300 -0.261199 42.811300 -10.833600 10.440000
-20.858400 -2.182820 43.943600 -11.011200 4.740000
-24.039800 -0.564700 42.339700 -10.567200 7.770000
-21.996500 -0.873509 43.913800 -10.922400 13.710000
-23.591200 -0.569697 43.083200 -10.656000 14.400000
-21.935700 -0.421447 44.431900 -10.922400 10.600000
-8.636860 2.068350 48.751200 -12.076800 7.040000
-22.126400 -0.425112 44.818300 -10.922400 7.980000
-9.090710 2.086330 49.106500 -12.076800 6.380000
-9.169080 2.104320 49.529800 -12.076800 7.200000
-8.863270 1.965180 50.029200 -12.165600 7.440000
9.490680 0.282188 51.267100 -12.254400 7.130000
19.962200 1.531670 48.141800 -11.632800 4.870000
8.858580 -2.803240 51.742200 -12.254400 5.760000
20.127200 1.544320 48.539600 -11.632800 4.490000
20.292200 1.556980 48.937500 -11.632800 7.630000
20.110800 1.427110 50.411200 -11.721600 7.470000
20.271600 1.311540 50.814300 -11.721600 8.070000
20.431200 1.321870 51.214400 -11.721600 6.140000
-18.242500 1.321870 52.034200 -11.544000 10.100000
-19.096100 0.000000 52.203000 -11.366400 8.690000
11.168300 0.816555 54.446500 -12.254400 5.870000
-18.081600 1.332190 52.546100 -11.632800 8.140000
11.254900 0.822885 54.868500 -12.254400 9.150000
-29.733000 -1.352850 47.963400 -10.300800 7.000000
-29.960000 -1.363180 48.329500 -10.300800 5.960000
-21.394800 -0.312506 53.629700 -11.366400 11.530000
20.398900 1.394160 54.459700 -11.810400 8.470000
20.550000 1.404480 54.863100 -11.810400 7.300000
20.701100 1.414810 55.266500 -11.810400 7.120000
20.246600 1.250270 56.355400 -11.810400 7.250000
21.114000 2.028610 58.769900 -11.810400 11.120000
20.599700 2.056590 59.863800 -11.899200 7.630000
20.741800 1.873440 60.276800 -11.899200 5.800000
20.881900 1.886100 60.684100 -11.899200 7.790000
-18.769100 1.340220 61.384800 -11.721600 9.220000
-18.895100 1.349210 61.796800 -11.721600 7.040000
-19.021000 1.358210 62.208700 -11.721600 5.650000
-17.819400 -0.151922 63.026000 -11.810400 6.780000
-16.570800 -1.439160 66.907500 -11.899200 8.180000
-28.610600 1.703970 65.065600 -11.188800 9.240000
-28.786000 1.493130 65.464400 -11.188800 7.230000
21.309400 -0.608349 68.278800 -11.988000 12.140000
-28.959400 1.502130 65.858800 -11.188800 16.180000
21.438500 0.166915 68.692400 -11.988000 15.600000
21.566800 0.167914 69.103800 -11.988000 14.740000
21.695300 0.000000 69.515300 -11.988000 16.170000
22.360400 -0.849548 69.751600 -11.988000 12.950000
-17.565800 6.204500 102.600000 -12.165600 5.310000
-17.638400 6.230140 103.024000 -12.165600 5.850000
-17.704100 6.904840 103.408000 -12.165600 6.360000
-16.401600 6.957900 109.735000 -12.165600 7.600000
-16.465200 6.984870 110.161000 -12.165600 7.650000
-17.383900 6.666000 110.476000 -12.165600 5.610000
29.301500 2.237410 122.343000 -12.165600 7.030000
29.401800 2.245070 122.762000 -12.165600 5.240000
29.504900 1.469220 123.192000 -12.165600 7.050000
30.558700 0.687980 123.386000 -12.165600 7.630000
19.553700 1.534180 130.824000 -12.343200 8.110000
19.617400 1.539180 131.250000 -12.343200 6.200000
19.681100 1.544180 131.676000 -12.343200 5.150000
-62.071000 -13.254200 128.208000 -10.922400 6.020000
-62.239800 -13.735900 128.557000 -10.922400 5.710000
-62.388400 -14.663000 128.864000 -10.922400 6.150000
-62.575100 -14.706900 129.249000 -10.922400 5.810000
-8.513590 1.253350 147.116000 -12.343200 7.170000
-8.538480 1.257010 147.546000 -12.343200 7.700000
-8.563380 1.260680 147.977000 -12.343200 10.320000
-7.730260 1.264340 148.454000 -12.343200 8.630000
-8.613160 1.268010 148.837000 -12.343200 12.250000
-7.775070 1.271670 149.315000 -12.343200 9.910000
-7.909680 0.823243 151.900000 -12.343200 5.000000
-7.932090 0.825575 152.330000 -12.343200 8.590000
-7.954500 0.827908 152.760000 -12.343200 9.270000
-7.976900 0.830240 153.191000 -12.343200 5.760000
4.560200 -1.423340 6.648850 -9.856800 5.310000
4.639630 -1.471990 7.111750 -10.034400 7.000000
4.813910 -1.545590 7.504660 -10.034400 6.800000
5.609830 -1.081850 7.017260 -9.412800 4.750000
6.861990 1.133370 6.441670 -8.436000 7.080000
5.163730 -1.619190 7.783360 -10.034400 7.900000
6.065240 -1.053280 7.209030 -9.324000 5.260000
5.916320 -0.712023 7.919100 -9.768000 11.370000
6.340930 -1.101160 7.536710 -9.412800 9.380000
6.111010 -0.711076 8.312560 -9.856800 11.950000
6.894130 1.106960 8.761380 -9.590400 7.200000
6.253030 -0.474991 11.794400 -10.567200 7.650000
6.161940 -0.474991 11.842200 -10.656000 8.090000
6.265590 -0.532929 12.271500 -10.833600 9.770000
6.363660 -0.549583 12.704400 -10.833600 10.520000
6.655470 -0.656779 13.035100 -10.833600 8.300000
8.333960 -0.443044 12.561900 -10.212000 7.110000
6.852990 -0.582891 13.421900 -10.833600 10.410000
7.131550 -1.389430 13.705700 -10.833600 4.780000
7.383300 2.394680 13.926300 -10.833600 7.610000
7.250140 2.459400 14.474200 -10.922400 9.310000
-7.843760 1.414600 14.794800 -10.567200 5.430000
-8.069790 0.601588 16.668200 -10.744800 3.880000
6.940230 -1.559690 17.108900 -11.188800 10.310000
7.101630 -1.595960 17.506700 -11.188800 9.670000
7.404540 -1.512690 17.857100 -11.188800 5.840000
7.569090 -1.546310 18.253900 -11.188800 5.610000
17.759200 1.614330 12.090900 -7.015200 7.470000
7.867240 1.876350 18.567200 -11.100000 10.160000
-7.659870 0.671540 19.200800 -11.100000 9.420000
18.114400 1.646620 12.332700 -7.015200 6.060000
-7.932620 0.685530 19.555300 -11.100000 5.730000
18.469600 1.678900 12.574600 -7.015200 6.330000
-8.248070 0.699521 19.891400 -11.011200 10.500000
18.824800 1.711190 12.816400 -7.015200 8.110000
18.420700 1.743480 14.109000 -7.636800 4.430000
18.761900 1.775760 14.370300 -7.636800 6.850000
-7.571910 0.727502 21.076100 -11.188800 7.510000
-7.551730 0.741492 21.540200 -11.188800 10.620000
18.027600 1.510240 15.968800 -8.169600 6.950000
-7.695610 0.611618 21.950700 -11.188800 8.990000
18.349500 1.537210 16.253900 -8.169600 8.110000
-7.838120 0.622944 22.357100 -11.188800 10.700000
18.667700 1.641310 16.535800 -8.169600 10.420000
18.628800 1.669610 17.219600 -8.436000 12.190000
-6.661910 1.916070 23.562800 -11.455200 14.390000
18.353800 1.447580 19.949600 -9.057600 11.340000
18.449000 1.470550 20.444900 -9.146400 6.140000
18.737300 1.493530 20.764400 -9.146400 7.630000
-6.871200 1.447580 26.222800 -11.544000 8.640000
19.025600 1.516510 21.083800 -9.146400 6.810000
-7.134140 1.470550 26.598200 -11.544000 5.070000
-7.246490 1.428650 27.017100 -11.544000 12.270000
18.565100 1.383430 22.066200 -9.412800 13.680000
18.842200 1.404080 22.395500 -9.412800 10.590000
8.971040 0.424102 27.437800 -11.544000 10.600000
18.943600 1.424730 22.871600 -9.501600 10.720000
9.105300 0.339819 27.848500 -11.544000 8.930000
9.075700 0.344817 28.311000 -11.544000 8.780000
18.664900 1.466020 24.196300 -9.768000 9.430000
9.372250 0.536365 28.665000 -11.544000 13.580000
18.924900 1.582510 24.533300 -9.768000 5.480000
19.182100 1.774490 24.866800 -9.768000 10.650000
18.402500 1.995680 25.963800 -10.034400 11.650000
18.654700 1.922880 26.319700 -10.034400 6.780000
10.369900 -1.035290 30.135500 -11.455200 8.060000
18.903400 1.948520 26.670600 -10.034400 8.610000
8.787830 -1.049280 31.082000 -11.632800 9.650000
10.510000 -1.049280 30.542700 -11.455200 13.290000
19.152200 1.974160 27.021500 -10.034400 9.620000
19.015200 1.631210 28.187900 -10.123200 9.840000
19.032500 1.758340 28.687800 -10.212000 9.660000
19.264800 1.968950 29.038000 -10.212000 9.670000
9.752390 1.528780 35.271200 -11.632800 10.850000
19.239200 1.680580 32.131000 -10.478400 7.000000
9.865800 1.661260 35.681300 -11.632800 7.650000
19.211800 1.582730 32.653700 -10.478400 6.000000
9.702020 1.680580 36.172100 -11.721600 7.810000
19.684100 1.600720 32.874100 -10.478400 10.570000
9.322650 1.348360 36.730600 -11.721600 8.260000
19.341300 1.757850 34.064600 -10.567200 12.530000
19.553900 1.777170 34.438900 -10.567200 12.270000
19.766400 1.796480 34.813300 -10.567200 9.200000
19.707100 1.815800 35.340500 -10.656000 9.580000
19.852800 1.598790 36.255900 -10.744800 15.680000
20.059600 1.615440 36.633500 -10.744800 16.610000
20.266400 1.632100 37.011200 -10.744800 8.630000
19.630400 1.852520 39.762300 -10.922400 6.490000
19.820900 1.870500 40.148400 -10.922400 12.530000
20.011500 1.888490 40.534400 -10.922400 7.710000
20.199400 2.047600 40.915000 -10.922400 10.100000
10.501400 2.144190 46.613500 -11.810400 8.450000
10.596000 2.163510 47.033500 -11.810400 13.220000
-22.321200 -1.898560 43.717200 -10.567200 8.960000
20.286300 1.325170 46.134700 -11.188800 5.250000
-8.789170 1.792710 49.610900 -11.721600 6.330000
-8.866070 1.493690 50.045000 -11.721600 6.010000
-8.940350 1.664860 50.464200 -11.810400 6.990000
20.164600 1.519010 47.589900 -11.188800 7.150000
-8.721170 1.678850 50.939600 -11.810400 6.860000
20.332700 1.531670 47.986500 -11.188800 7.640000
10.556800 -1.869320 51.465000 -11.810400 7.330000
12.037600 -2.048450 51.575000 -11.810400 9.230000
-19.117200 -1.734810 49.864400 -11.100000 8.310000
11.026300 -2.560380 52.218800 -11.810400 7.470000
-19.271400 -1.748800 50.266500 -11.100000 11.210000
11.113500 -2.747410 52.631800 -11.810400 11.390000
11.611000 -2.769390 52.965000 -11.810400 9.390000
11.291300 -2.791370 53.473900 -11.810400 9.010000
-20.570000 -2.835320 51.562100 -11.011200 6.710000
20.344100 1.818750 52.160500 -11.277600 5.850000
21.007300 2.175770 57.427400 -11.366400 11.460000
21.159500 1.810150 57.843500 -11.366400 7.310000
21.261600 1.848130 59.180800 -11.366400 8.420000
11.969000 1.134030 62.629700 -11.810400 7.250000
-18.535300 2.112550 62.334200 -11.455200 8.280000
-18.661400 1.721590 62.758400 -11.455200 9.760000
-19.271600 1.580040 63.028300 -11.455200 7.150000
-19.397600 1.590370 63.440300 -11.455200 6.200000
21.727500 1.394190 63.141200 -11.544000 5.980000
21.866100 1.611030 63.544200 -11.544000 9.690000
21.157500 0.368477 64.710200 -11.544000 7.150000
20.912700 1.006450 65.235600 -11.544000 9.600000
21.041900 1.439160 65.638700 -11.544000 7.080000
21.173500 1.448160 66.049000 -11.544000 8.300000
21.308200 0.809569 66.469200 -11.544000 10.050000
21.436500 1.466150 66.869400 -11.544000 10.860000
21.568000 1.475140 67.279700 -11.544000 12.510000
21.178400 1.264290 67.859200 -11.544000 15.890000
-27.392100 1.493130 66.059800 -10.922400 13.850000
21.305500 1.493130 68.266400 -11.632800 8.010000
-28.068500 1.502130 66.243400 -10.922400 7.610000
21.433800 1.502130 68.677600 -11.632800 6.670000
-28.236500 1.511120 66.640100 -10.922400 5.550000
21.563500 1.287280 69.093000 -11.632800 11.020000
-28.406300 1.294940 67.040800 -10.922400 11.250000
21.694500 -0.619344 69.512800 -11.632800 7.640000
21.821300 1.076080 69.919100 -11.632800 11.260000
21.542700 1.082410 70.456100 -11.632800 14.820000
21.669600 0.859543 70.871000 -11.632800 14.080000
-1.896450 4.278210 75.693900 -11.988000 7.400000
-1.907230 4.302520 76.124000 -11.988000 11.870000
18.522300 0.534059 96.920700 -11.899200 11.910000
18.602700 0.842894 97.341800 -11.899200 9.350000
18.683600 0.846559 97.765000 -11.899200 9.310000
-56.706300 -10.887500 89.920000 -9.856800 7.030000
-56.935000 -10.931400 90.282500 -9.856800 7.910000
19.743000 2.375330 132.091000 -11.899200 11.440000
19.805500 2.797370 132.509000 -11.899200 9.210000
19.101500 2.390660 133.055000 -11.899200 5.970000
20.961300 2.398320 133.211000 -11.810400 9.460000
-62.407800 -14.220200 128.904000 -10.656000 8.450000
-61.596300 -14.262700 129.768000 -10.656000 5.710000
-61.780200 -14.305300 130.156000 -10.656000 7.670000
-6.623830 1.734080 149.365000 -11.899200 5.570000
-6.642910 1.739080 149.796000 -11.899200 5.270000
-6.662350 0.813915 150.234000 -11.988000 5.160000
-6.681300 1.282660 150.661000 -11.899200 7.720000
-6.795980 0.830240 153.248000 -11.988000 5.360000
-6.814930 1.308320 153.675000 -11.988000 5.250000
-6.833800 1.789050 154.100000 -11.988000 5.450000
-6.852890 1.794050 154.531000 -11.988000 7.910000
7.135770 -0.349760 8.062580 -9.146400 8.110000
7.421210 -0.363751 8.385080 -9.235200 4.100000
7.638490 -0.413702 8.765800 -9.324000 10.340000
6.162110 -0.905553 12.302000 -10.833600 6.150000
6.090890 -0.905553 12.337400 -10.922400 8.420000
-8.082620 -1.579920 11.592000 -9.768000 8.840000
6.545870 -1.007360 13.068200 -10.922400 5.730000
7.149870 -1.036990 13.238400 -10.833600 4.620000
8.100480 1.536550 12.628300 -10.300800 6.790000
7.400530 3.120950 13.271300 -10.833600 9.260000
8.331920 1.580450 12.989100 -10.300800 5.240000
7.421440 3.207640 13.741300 -10.833600 8.980000
8.594450 0.899397 13.398300 -10.300800 7.520000
7.631560 3.195060 14.130300 -10.744800 7.870000
-8.071850 0.923705 14.216400 -10.300800 4.710000
7.421730 1.155500 15.033100 -10.922400 8.620000
7.832390 3.279150 14.502100 -10.744800 5.440000
-7.741820 1.051780 14.878500 -10.567200 3.740000
-8.396470 0.948013 14.526200 -10.300800 3.640000
6.984190 1.155500 15.241300 -11.100000 4.030000
7.525920 -1.076810 16.423500 -11.100000 4.980000
7.213180 -1.216840 17.023600 -11.277600 5.070000
6.771040 -1.303640 17.661300 -11.366400 8.130000
6.927740 -1.213590 18.070000 -11.366400 10.000000
-7.661260 0.543660 19.204300 -11.100000 8.950000
-7.820870 0.554987 19.604400 -11.100000 9.220000
-7.981500 0.449738 20.007000 -11.100000 10.470000
18.031000 1.435750 15.971800 -8.347200 9.650000
18.353000 1.461390 16.257000 -8.347200 7.000000
18.671400 1.564180 16.539100 -8.347200 6.400000
18.996900 1.512670 16.827400 -8.347200 6.320000
-7.307810 1.252820 23.415500 -11.455200 11.700000
18.290900 1.697910 18.193100 -8.791200 7.100000
-6.326630 1.274800 24.144500 -11.632800 6.980000
18.595800 1.726210 18.496300 -8.791200 7.230000
18.718600 1.754510 18.980800 -8.880000 12.310000
19.020500 1.782810 19.286900 -8.880000 15.200000
-7.338930 1.470550 26.542400 -11.632800 6.400000
18.279900 1.604330 21.727200 -9.501600 10.150000
-7.606640 1.666500 26.904200 -11.544000 5.150000
18.386300 1.628640 22.198700 -9.501600 7.530000
7.946330 0.593654 27.300200 -11.632800 7.140000
18.660800 1.652950 22.530100 -9.501600 6.770000
8.811310 0.602649 27.486200 -11.632800 8.090000
18.935200 1.677250 22.861400 -9.501600 12.720000
9.104930 0.430432 27.847400 -11.544000 9.120000
18.199200 1.980900 23.972300 -9.768000 13.680000
9.239490 0.252868 28.258900 -11.544000 13.900000
18.646000 2.009200 24.171800 -9.768000 10.240000
9.373710 0.069964 28.669400 -11.544000 18.250000
18.908600 2.037490 24.512300 -9.768000 5.160000
7.925690 0.070964 29.549400 -11.721600 17.930000
9.731460 0.070964 29.004800 -11.455200 11.000000
19.171200 2.065790 24.852700 -9.856800 13.750000
7.853750 1.582510 29.972500 -11.810400 11.670000
18.398800 2.094090 25.958700 -10.123200 9.380000
9.747990 -2.356920 29.814100 -11.544000 7.920000
10.128200 -1.700330 30.187500 -11.632800 8.310000
8.781020 -1.648440 31.058000 -11.721600 6.220000
8.906620 0.860796 31.502200 -11.721600 7.510000
9.269540 0.872122 31.846200 -11.721600 5.590000
19.018000 1.526040 28.191900 -10.212000 7.240000
19.070900 0.928753 29.730700 -10.389600 9.810000
19.303500 0.940080 30.093300 -10.389600 8.460000
19.300800 0.951406 30.605500 -10.478400 10.810000
19.530500 0.962732 30.969800 -10.478400 4.890000
8.693990 1.510790 35.103500 -11.810400 4.500000
18.995900 1.448900 32.286700 -10.567200 7.520000
9.862880 1.890220 35.670700 -11.810400 4.980000
19.211800 1.582730 32.653700 -10.567200 10.620000
8.720250 1.912200 36.409800 -11.810400 11.360000
19.430100 1.600720 33.024800 -10.567200 7.710000
9.115320 0.439766 36.804700 -11.810400 4.800000
19.648400 1.618700 33.395900 -10.567200 7.310000
9.218910 0.444763 37.222900 -11.810400 10.760000
19.343900 1.636690 34.069200 -10.744800 8.020000
6.543890 0.449761 38.222300 -11.899200 14.860000
19.553900 1.777170 34.438900 -10.744800 7.540000
-24.489900 1.777170 31.122900 -9.324000 14.310000
19.766400 1.796480 34.813300 -10.744800 10.300000
-24.756100 1.796480 31.461200 -9.324000 8.760000
19.976100 1.940930 35.182500 -10.744800 9.840000
-25.025700 1.690650 31.803800 -9.324000 10.590000
-25.291900 1.708630 32.142100 -9.324000 7.010000
9.520960 2.182850 39.753000 -11.810400 5.530000
9.928820 2.333570 40.089300 -11.810400 15.590000
9.719750 2.357880 40.583000 -11.810400 10.420000
19.577500 1.798560 38.343600 -10.922400 10.980000
19.773300 1.816550 38.727100 -10.922400 9.010000
19.969100 1.834530 39.110500 -10.922400 9.040000
19.823400 1.732020 40.153400 -11.011200 10.060000
20.011500 1.888490 40.534400 -11.011200 6.420000
20.202100 1.906470 40.920400 -11.011200 8.070000
-22.164100 -2.527610 44.248300 -10.656000 7.720000
19.590600 1.187610 45.501100 -11.188800 6.550000
19.760900 1.197940 45.896700 -11.188800 8.940000
-21.968900 -0.116940 45.376800 -10.744800 9.010000
19.931300 1.208270 46.292400 -11.188800 7.920000
-22.156700 0.000000 45.764800 -10.744800 12.450000
-8.859710 2.436490 50.009100 -11.810400 11.820000
-8.936070 2.298720 50.440100 -11.810400 6.520000
10.164000 -1.097360 51.566200 -11.899200 9.380000
10.247300 -1.106360 51.988900 -11.899200 6.960000
20.295100 1.270230 48.944500 -11.277600 7.320000
10.728600 -2.065100 52.302700 -11.899200 6.940000
20.460100 1.280560 49.342500 -11.277600 9.570000
-18.775600 -2.791370 51.326700 -11.188800 6.210000
-20.867700 -2.835320 51.442400 -11.011200 10.890000
20.430000 1.449760 51.211400 -11.366400 7.030000
-21.434700 -2.511210 51.692900 -11.011200 5.460000
20.589600 1.461090 51.611500 -11.366400 9.050000
20.749300 1.472410 52.011600 -11.366400 10.590000
-15.890100 -11.671000 57.469100 -11.544000 8.130000
20.653300 2.607910 58.910600 -11.544000 9.250000
11.451000 0.729612 61.856200 -11.899200 8.250000
20.795700 2.625900 59.316800 -11.544000 5.810000
10.206900 0.734609 62.510200 -11.899200 8.200000
20.938100 2.643880 59.723100 -11.544000 7.470000
10.276300 0.739607 62.935500 -11.899200 10.740000
-12.766600 -5.515620 62.238300 -11.721600 8.310000
20.881900 1.886100 60.684100 -11.632800 9.420000
21.022100 1.898760 61.091300 -11.544000 6.400000
21.162200 1.911420 61.498600 -11.544000 7.470000
-18.299400 1.569720 62.868900 -11.455200 7.110000
-18.418700 1.732920 63.278800 -11.455200 7.860000
21.107700 0.153921 62.911900 -11.544000 7.860000
21.244700 0.154921 63.320400 -11.632800 8.010000
21.154500 1.210650 64.700900 -11.632800 7.930000
21.288400 1.218320 65.110400 -11.632800 9.530000
21.422300 1.225980 65.519900 -11.632800 7.080000
21.305000 1.457150 66.459200 -11.632800 9.780000
21.436500 1.466150 66.869400 -11.632800 13.490000
21.568000 1.475140 67.279700 -11.632800 13.890000
22.090400 1.484140 67.563400 -11.632800 13.860000
-28.068500 1.502130 66.243400 -11.011200 11.480000
21.302800 1.880160 68.257700 -11.632800 6.370000
-28.236500 1.511120 66.640100 -11.011200 7.350000
21.431100 1.891490 68.668900 -11.632800 6.080000
-28.404600 1.520120 67.036800 -11.011200 9.230000
-28.570700 1.755600 67.428700 -11.011200 12.000000
21.823600 0.169913 69.926400 -11.632800 6.180000
21.952000 0.170913 70.337800 -11.632800 11.380000
18.441600 0.227884 96.498600 -11.899200 11.180000
18.521900 0.839229 96.918600 -11.899200 12.620000
18.602700 0.842894 97.341800 -11.899200 8.910000
18.684000 0.538723 97.767100 -11.899200 9.370000
34.234900 1.174380 95.291600 -11.455200 11.440000
34.382400 0.550384 95.702100 -11.455200 5.550000
34.528100 0.552716 96.107600 -11.455200 10.000000
19.741800 2.788380 132.083000 -11.988000 6.190000
19.804100 3.211720 132.500000 -11.988000 6.190000
-8.588460 0.804586 148.410000 -11.988000 13.010000
-7.752830 0.806918 148.887000 -11.988000 14.110000
-7.775240 0.809251 149.318000 -11.988000 10.860000
-7.796920 2.202800 149.734000 -11.988000 5.040000
-8.687220 2.209130 150.117000 -11.988000 7.060000
-8.712110 2.215460 150.547000 -11.988000 9.420000
-6.795980 0.830240 153.248000 -11.988000 7.470000
-6.815070 0.832572 153.678000 -11.988000 7.310000
-6.834160 0.834904 154.108000 -11.988000 6.910000
-6.853100 1.315650 154.536000 -11.988000 6.630000
5.943310 -0.994990 7.318040 -9.768000 8.070000
6.154310 -1.040220 7.698340 -9.768000 9.990000
6.359780 -1.085440 8.082310 -9.856800 9.430000
6.477780 -1.130670 8.532680 -9.945600 5.860000
6.775200 -0.740704 8.342350 -9.590400 6.600000
6.979130 -0.770332 8.730090 -9.679200 4.690000
7.498050 -0.502242 8.309220 -9.235200 7.810000
7.083110 -0.934516 9.182220 -9.856800 4.270000
7.637610 -0.449659 8.764790 -9.412800 6.350000
6.246780 -1.192570 12.234600 -10.922400 6.350000
6.360050 -0.361448 13.670100 -11.188800 8.260000
6.541770 -0.371775 14.060600 -11.188800 6.270000
7.346120 4.499050 13.415700 -10.922400 8.070000
-7.964450 0.948623 13.778800 -10.389600 6.930000
7.035290 4.620650 14.045200 -11.100000 5.210000
-8.181180 0.923705 14.153800 -10.389600 7.020000
7.284870 1.712150 15.046900 -11.100000 4.860000
7.232890 1.756050 15.546100 -11.188800 4.960000
-7.573110 0.464377 15.954700 -10.833600 4.880000
7.328120 1.636810 15.991800 -11.188800 5.720000
-7.883550 0.475703 16.283500 -10.833600 5.920000
7.378210 1.732460 16.434400 -11.188800 6.330000
6.697710 -1.887760 17.172400 -11.455200 4.820000
6.751780 -1.931660 17.611000 -11.455200 10.290000
7.527990 -1.915890 17.766500 -11.366400 13.360000
7.695280 -1.958470 18.161400 -11.366400 13.850000
-7.924170 1.191090 19.534400 -11.188800 4.670000
17.668100 -2.708100 12.028800 -7.192800 4.430000
-8.084430 1.281920 19.929500 -11.188800 6.100000
18.021400 -2.762260 12.269400 -7.192800 4.700000
-8.118090 1.714380 20.349400 -11.188800 8.020000
18.518200 -2.816430 12.296700 -7.192800 6.990000
-7.690530 1.043120 21.936200 -11.366400 7.320000
-8.004920 1.062440 22.281400 -11.366400 6.080000
18.195500 1.461390 16.433100 -8.436000 6.410000
18.514700 1.487030 16.721400 -8.436000 6.360000
-7.619380 1.461390 23.303800 -11.366400 6.590000
18.837300 1.434170 17.012700 -8.436000 7.980000
-7.864440 2.176310 24.532500 -11.544000 9.080000
8.012040 1.937200 24.504800 -11.721600 7.960000
-7.995510 2.212580 24.941400 -11.544000 6.250000
18.049200 1.754510 19.618400 -9.235200 5.610000
18.340300 1.782810 19.934900 -9.235200 4.600000
18.435400 1.811110 20.429800 -9.235200 3.980000
18.269500 1.867700 21.714900 -9.590400 6.470000
18.550000 1.806900 22.048200 -9.590400 8.190000
7.943040 1.011270 27.288900 -11.721600 7.810000
18.653900 1.833870 22.521800 -9.590400 7.950000
8.971040 0.424102 27.437800 -11.721600 14.170000
18.928200 1.860830 22.853000 -9.590400 9.650000
9.105300 0.339819 27.848500 -11.721600 15.380000
9.239200 0.344817 28.258000 -11.721600 12.240000
18.646000 2.009200 24.171800 -9.856800 8.690000
8.819020 0.349814 28.842800 -11.810400 15.600000
18.908600 2.037490 24.512300 -9.856800 11.740000
8.539060 -1.560530 29.336600 -11.721600 9.000000
19.171200 2.065790 24.852700 -9.856800 9.980000
8.661900 -1.390830 29.758600 -11.721600 9.790000
7.099610 0.949380 31.513700 -11.899200 7.820000
7.194270 0.962038 31.933900 -11.899200 7.900000
18.797400 1.631210 28.333600 -10.389600 10.250000
19.035400 1.651860 28.692200 -10.389600 8.230000
18.988200 1.796400 32.273700 -10.656000 7.360000
9.596010 1.088620 35.776800 -11.810400 5.400000
19.206500 1.817040 32.644700 -10.656000 6.500000
9.707590 1.101280 36.192900 -11.810400 5.300000
19.424700 1.837690 33.015600 -10.656000 5.290000
5.601790 1.348360 37.478900 -11.899200 6.560000
19.643000 1.858340 33.386600 -10.656000 5.110000
8.927640 1.245150 37.275700 -11.899200 8.140000
19.080800 1.636690 34.217200 -10.833600 10.400000
9.027950 1.259140 37.694500 -11.899200 12.380000
19.290400 1.654680 34.593300 -10.833600 10.710000
19.500100 1.672660 34.969300 -10.833600 7.820000
-24.997900 1.796480 31.269500 -9.324000 15.420000
-25.266700 1.815800 31.605700 -9.324000 6.290000
-25.535500 1.835120 31.941900 -9.324000 9.880000
10.060500 1.835120 39.637500 -11.899200 6.740000
10.166400 1.854430 40.054800 -11.899200 10.170000
-6.177940 0.613998 41.333600 -11.988000 10.090000
19.867000 2.064820 38.181000 -11.011200 11.670000
19.759000 2.455110 38.699100 -11.011200 9.290000
19.958100 2.343690 39.088900 -11.011200 8.720000
20.057500 1.593520 40.042700 -11.100000 10.840000
20.250300 1.608840 40.427700 -11.100000 7.960000
20.443200 1.624160 40.812700 -11.100000 9.260000
19.790000 2.250660 42.535800 -11.188800 9.670000
-21.746600 -0.850522 42.591800 -10.656000 7.360000
-21.945200 -0.410453 42.980800 -10.656000 9.080000
-21.807000 0.000000 43.535500 -10.656000 8.640000
-21.974700 -2.353900 43.870300 -10.656000 13.170000
-19.933800 -1.762060 45.333100 -11.011200 10.320000
-23.789500 -1.455720 43.445200 -10.478400 7.880000
-23.996400 -1.468370 43.823000 -10.478400 9.020000
-21.255700 -1.636880 45.686100 -10.922400 8.020000
-9.373160 2.240770 49.046500 -11.810400 7.440000
-21.437300 -1.650870 46.076600 -10.922400 7.440000
-9.169080 2.104320 49.529800 -11.810400 8.510000
-8.862170 2.122300 50.022900 -11.899200 6.580000
-8.937270 2.140290 50.446900 -11.899200 8.330000
20.155800 2.158270 47.568900 -11.366400 8.200000
-4.672290 2.158270 51.451200 -11.988000 6.070000
20.323700 2.176260 47.965300 -11.366400 7.010000
9.866340 -0.934808 51.627200 -11.988000 5.810000
11.347500 -0.942470 51.763100 -11.899200 7.460000
11.440800 -0.619670 52.188700 -11.899200 7.420000
11.127300 -0.624668 52.696900 -11.899200 11.390000
-18.798000 -0.803895 51.388100 -11.277600 11.520000
11.216300 -0.629665 53.118500 -11.899200 6.640000
-20.723900 -1.620270 51.088100 -11.100000 8.890000
-20.885800 -1.632930 51.487200 -11.100000 8.580000
20.592300 1.160320 51.618100 -11.455200 6.320000
21.052200 1.169320 51.897400 -11.455200 10.200000
20.355400 1.363180 53.094200 -11.544000 10.340000
20.663900 1.383830 53.898700 -11.544000 7.200000
20.666500 1.026760 53.905600 -11.544000 5.880000
20.702600 1.232280 55.270400 -11.544000 10.270000
-17.711100 -4.739760 57.924500 -11.455200 8.130000
20.675000 2.175770 57.547900 -11.544000 10.110000
20.822700 2.000630 57.959300 -11.544000 8.710000
20.658200 2.221730 58.924700 -11.632800 10.220000
20.802900 2.042600 59.337300 -11.632800 12.350000
20.947400 1.860780 59.749400 -11.632800 5.970000
21.020100 2.098560 61.085500 -11.632800 7.070000
-15.641900 0.352152 63.156800 -11.544000 6.470000
-18.667600 0.354484 62.779200 -11.544000 5.900000
20.617700 -1.385190 63.059100 -11.632800 8.230000
20.751600 -1.394190 63.468600 -11.632800 10.630000
20.885500 -1.403180 63.878100 -11.632800 9.480000
21.150500 1.789550 64.688800 -11.721600 9.930000
21.285700 1.642010 65.102000 -11.721600 10.250000
21.039300 1.812200 65.630300 -11.721600 10.170000
21.303500 1.672990 66.454600 -11.721600 12.400000
21.437800 1.248960 66.873400 -11.721600 13.070000
-28.236500 1.511120 66.640100 -11.100000 9.670000
-28.404600 1.520120 67.036800 -11.100000 8.990000
17.960800 1.144390 97.021000 -11.988000 9.300000
18.039800 0.842894 97.447700 -11.988000 5.190000
18.118800 0.230882 97.874700 -11.988000 5.630000
34.237200 0.234880 95.297700 -11.544000 6.690000
35.083100 0.552716 95.906400 -11.544000 7.090000
35.083100 0.552716 95.906400 -11.544000 8.350000
-17.704100 6.904840 103.408000 -11.899200 5.270000
-17.776700 6.933140 103.832000 -11.899200 5.980000
-17.849200 6.961440 104.256000 -11.899200 6.890000
19.737600 3.924100 132.054000 -12.076800 8.030000
-7.730430 0.804586 148.457000 -12.076800 7.130000
-7.752830 0.806918 148.887000 -12.076800 6.080000
-7.775240 0.809251 149.318000 -12.076800 5.230000
-7.797240 1.739080 149.740000 -12.076800 7.910000
-6.662210 1.279000 150.231000 -12.076800 9.980000
-6.776540 1.774060 152.809000 -12.076800 8.090000
-6.795620 1.779050 153.239000 -12.076800 7.630000
-6.814930 1.308320 153.675000 -12.076800 5.550000
-6.834010 1.311980 154.105000 -12.076800 5.120000
5.588430 -0.461564 7.102040 -9.768000 2.190000
5.349200 -0.651820 7.799220 -10.123200 2.940000
5.854550 -0.483544 7.440230 -9.679200 4.330000
5.655020 -0.681448 8.110380 -10.123200 5.510000
6.306830 -0.681448 7.614560 -9.856800 4.810000
6.120660 -0.505523 7.778420 -9.768000 6.720000
5.898260 -0.774878 8.459240 -10.123200 5.770000
6.108290 -0.774878 8.308860 -9.945600 4.900000
6.505540 -0.679165 8.010330 -9.768000 8.370000
6.578110 -0.774878 7.942080 -9.856800 3.420000
6.210280 -0.840383 8.762010 -10.123200 2.540000
6.860570 -0.607701 8.283110 -9.679200 8.100000
7.075790 -5.129630 10.665400 -10.744800 2.750000
6.440230 -1.273640 12.613500 -11.100000 6.360000
6.459510 -1.312240 13.084100 -11.188800 4.420000
8.363590 -0.827186 13.038400 -10.567200 8.510000
8.492370 -0.850163 13.466500 -10.567200 10.330000
-8.845450 0.753364 14.268900 -10.212000 6.130000
6.844660 -1.445460 17.157300 -11.455200 7.990000
7.434130 1.488300 16.906500 -11.277600 8.000000
6.868320 -1.479070 17.609800 -11.455200 5.180000
7.607020 1.522910 17.299700 -11.277600 11.560000
6.918920 -1.557530 18.047000 -11.455200 8.900000
7.950250 -1.668510 18.080300 -11.366400 5.310000
8.123080 -1.704780 18.473400 -11.366400 10.360000
-7.505840 1.055000 19.244300 -11.277600 7.720000
7.636710 -1.741050 19.142700 -11.544000 6.100000
-7.926480 1.076980 19.540100 -11.188800 4.680000
-7.813420 1.348430 20.033000 -11.277600 6.140000
8.390270 1.765200 20.234300 -11.544000 5.280000
-7.104250 1.799810 21.174400 -11.455200 3.620000
-7.996580 1.358840 21.348700 -11.366400 3.570000
-8.153710 1.043120 21.768200 -11.366400 3.640000
-6.644620 1.718430 24.031400 -11.721600 8.390000
-7.611310 1.718430 23.742900 -11.544000 5.670000
17.996300 1.434170 17.900000 -8.968800 9.940000
-6.751170 2.140040 24.416700 -11.721600 5.900000
-7.733360 2.140040 24.123600 -11.544000 8.050000
18.298000 1.538310 18.200200 -8.968800 6.840000
-7.677570 2.076700 24.600200 -11.544000 4.670000
18.603000 1.563950 18.503500 -8.968800 5.580000
-6.298580 2.111310 25.431600 -11.810400 5.900000
18.907900 1.589580 18.806800 -8.968800 5.320000
-6.398530 2.310600 25.835100 -11.721600 6.500000
18.165800 1.300840 20.131000 -9.324000 11.120000
8.057280 2.347870 25.816900 -11.810400 5.030000
18.451300 1.406670 20.447400 -9.324000 11.430000
18.938800 1.428650 20.585400 -9.324000 7.070000
8.986070 0.163249 28.792900 -11.810400 9.770000
18.638100 2.197980 24.161500 -10.034400 5.120000
7.118640 -1.371510 29.722600 -11.899200 8.400000
18.711200 2.228940 24.646800 -10.034400 11.040000
5.993700 -1.390830 30.408500 -11.899200 15.450000
8.373260 -1.507320 30.283300 -11.899200 12.260000
18.406000 1.897250 25.968800 -10.212000 18.330000
8.253400 -1.330940 30.771200 -11.899200 14.710000
6.899230 -2.521150 31.471700 -11.899200 7.950000
18.807100 1.210460 28.348200 -10.389600 8.340000
19.047200 1.119230 28.710100 -10.389600 8.130000
18.842300 0.846821 29.878500 -10.567200 8.510000
19.072100 0.857148 30.242900 -10.567200 9.870000
19.301900 0.867475 30.607300 -10.567200 5.740000
6.994460 1.398940 35.485800 -11.988000 10.380000
19.531700 0.877802 30.971700 -10.567200 8.510000
9.753610 1.415590 35.275500 -11.899200 6.010000
10.073200 1.546760 35.628500 -11.899200 10.030000
19.239200 1.680580 32.131000 -10.744800 4.570000
7.030810 1.564750 36.789800 -11.988000 10.790000
19.457500 1.817040 32.495700 -10.744800 7.840000
19.678600 1.837690 32.865000 -10.744800 9.220000
8.924560 1.600720 37.262900 -11.988000 8.240000
19.643000 1.858340 33.386600 -10.744800 6.810000
9.009370 -2.786180 37.616900 -11.988000 7.590000
19.080800 1.636690 34.217200 -10.833600 8.080000
19.287800 1.777170 34.588600 -10.833600 8.260000
19.497500 1.796480 34.964600 -10.833600 12.390000
9.475580 3.002880 40.598200 -11.988000 7.270000
-6.305780 0.362811 42.188900 -11.988000 7.350000
19.283800 1.665400 38.498200 -11.100000 14.830000
19.476700 1.682060 38.883100 -11.100000 13.530000
19.669500 1.698710 39.268100 -11.100000 7.400000
19.820900 1.870500 40.148400 -11.188800 12.250000
20.014000 1.748670 40.539400 -11.188800 8.500000
20.204600 1.765330 40.925500 -11.188800 6.430000
19.935500 2.086240 41.999200 -11.277600 13.140000
19.792800 2.105550 42.541900 -11.277600 5.700000
19.977100 1.978420 42.938000 -11.277600 6.690000
-21.738500 -1.552940 42.576100 -10.744800 8.470000
-21.934400 -1.566930 42.959700 -10.744800 8.650000
10.319600 2.573470 47.074300 -12.076800 12.880000
-22.141100 -0.414117 43.364500 -10.744800 7.510000
-22.644900 -2.505640 43.519700 -10.656000 13.900000
-20.634400 -1.455720 45.029500 -10.922400 10.490000
-23.181200 -2.527610 43.724100 -10.656000 8.150000
-20.813800 -1.468370 45.421000 -10.922400 7.590000
-23.382800 -2.549590 44.104300 -10.656000 9.440000
-21.255700 -1.636880 45.686100 -10.922400 5.720000
-23.584300 -2.571570 44.484500 -10.656000 11.430000
-21.791800 -1.650870 45.910000 -10.922400 9.000000
-8.937270 2.140290 50.446900 -11.988000 8.250000
-9.012370 2.158270 50.870800 -11.988000 6.600000
-9.087480 2.176260 51.294700 -11.988000 10.400000
19.953400 2.176260 48.120600 -11.455200 8.700000
8.866520 -1.706830 51.788600 -12.076800 8.290000
9.240870 -1.720820 52.160500 -12.076800 6.650000
20.298800 0.778575 48.953300 -11.455200 6.600000
-20.078000 -1.404460 49.495800 -11.188800 8.260000
9.315020 -1.899960 52.579000 -12.076800 6.060000
20.082800 0.784905 49.507600 -11.455200 10.830000
9.390140 -1.915290 53.003100 -12.076800 5.710000
-21.680100 -1.332190 51.166500 -11.100000 8.210000
-21.450100 -1.342520 51.730000 -11.100000 9.250000
20.508500 1.506390 53.493300 -11.544000 9.750000
20.663900 1.383830 53.898700 -11.544000 10.740000
20.818100 1.394160 54.300900 -11.544000 7.650000
20.279000 0.684636 55.436700 -11.632800 7.060000
20.854900 1.057410 55.677100 -11.632800 9.640000
21.003400 1.435460 56.073400 -11.632800 7.050000
21.154500 1.445790 56.476800 -11.632800 9.410000
-16.487100 -4.365010 58.314000 -11.721600 14.370000
-16.487100 -4.365010 58.314000 -11.632800 7.510000
20.675000 2.175770 57.547900 -11.721600 14.520000
20.820600 2.191090 57.953200 -11.632800 7.550000
10.817400 -2.206410 61.059500 -12.076800 7.900000
20.961100 2.589930 58.344500 -11.632800 8.130000
12.076400 -2.028610 61.268700 -12.076800 8.440000
11.528300 -1.126370 62.274200 -12.076800 8.230000
20.947400 1.860780 59.749400 -11.721600 10.280000
-19.023100 0.955812 62.215600 -11.632800 6.800000
-18.665800 0.962142 62.773300 -11.632800 6.720000
-18.787700 1.172340 63.183100 -11.632800 7.070000
21.378500 1.195330 63.719000 -11.721600 15.130000
21.776800 2.647990 64.906100 -11.721600 9.290000
21.412100 2.451570 65.488800 -11.721600 7.020000
21.540800 2.895680 65.882400 -11.721600 7.020000
21.441100 0.162917 66.883800 -11.810400 6.810000
21.571200 0.819564 67.289800 -11.810400 8.250000
-28.070100 1.279610 66.247400 -11.100000 6.410000
-28.621300 1.511120 66.475700 -11.100000 6.470000
-28.791600 1.520120 66.871400 -11.100000 6.460000
-1.501200 3.496380 77.900000 -12.165600 10.010000
-1.509490 3.515700 78.330400 -12.165600 8.710000
18.522500 0.228883 96.921800 -12.076800 7.430000
18.603400 0.229883 97.345100 -12.076800 5.380000
18.684000 0.538723 97.767100 -12.076800 6.540000
-17.773000 7.258900 103.810000 -11.988000 7.460000
-17.845500 7.288530 104.234000 -11.988000 5.800000
-17.918000 7.318160 104.658000 -11.988000 5.360000
-8.613160 1.268010 148.837000 -12.165600 6.390000
-8.638060 1.271670 149.267000 -12.165600 7.700000
-7.797240 1.739080 149.740000 -12.165600 5.090000
-7.819640 1.744070 150.171000 -12.165600 8.690000
-7.842050 1.749070 150.601000 -12.165600 9.580000
-6.795620 1.779050 153.239000 -12.165600 5.880000
-6.814710 1.784050 153.670000 -12.165600 6.150000
-6.834010 1.311980 154.105000 -12.165600 6.150000
-6.853100 1.315650 154.536000 -12.165600 6.060000
6.252990 -1.458270 7.549540 -10.300800 2.670000
5.984540 -1.458380 8.307050 -10.300800 3.960000
6.167020 -1.519140 8.700970 -10.300800 3.940000
6.630980 -1.031230 8.426950 -9.945600 1.460000
5.652650 2.159380 11.908700 -11.188800 3.280000
6.373870 2.229040 12.022300 -11.100000 3.230000
6.573060 2.298690 12.398000 -11.100000 7.570000
-8.303450 0.637461 11.525900 -9.768000 6.160000
6.173900 -0.656779 13.270000 -11.366400 9.570000
-8.555070 0.656779 11.875200 -9.768000 7.090000
6.355490 -0.676095 13.660200 -11.366400 5.830000
8.430530 -0.443044 12.497300 -10.478400 6.820000
8.671400 -0.455702 12.854300 -10.478400 6.800000
-1.307550 1.484970 15.385700 2.131200 8.610000
-2.043120 1.526210 15.738000 2.131200 9.970000
-2.098950 1.517050 16.168100 2.131200 15.600000
-2.153560 1.608710 16.588700 2.131200 6.450000
-7.357010 1.649960 15.499400 -10.922400 16.920000
-0.988999 2.007740 17.090100 2.131200 14.390000
-7.418270 1.691210 15.944500 -11.011200 5.090000
-1.822430 2.057930 17.451700 2.131200 6.750000
-7.612800 1.356040 16.362700 -11.011200 3.370000
7.181510 -2.115630 16.948800 -11.544000 3.930000
-1.603400 0.967087 18.866900 2.131200 10.380000
7.356040 -1.989980 17.360700 -11.455200 7.320000
-1.639640 1.033980 19.293400 2.131200 12.730000
7.518170 -2.154440 17.743400 -11.455200 6.140000
-1.676080 1.056960 19.722100 2.131200 13.020000
7.720800 1.118170 18.221600 -11.455200 5.050000
-7.659870 0.671540 19.200800 -11.277600 10.320000
7.890480 1.852570 19.029000 -11.544000 6.580000
-7.932620 0.685530 19.555300 -11.277600 6.780000
-8.094510 0.699521 19.954400 -11.277600 4.470000
7.406200 1.765200 20.614900 -11.721600 9.920000
-8.163740 1.217800 21.293900 -11.366400 5.590000
-8.444070 1.186880 21.649900 -11.455200 5.650000
18.184700 1.688810 16.423300 -8.613600 5.470000
-6.982350 1.764580 23.481700 -11.721600 6.440000
18.503700 1.718430 16.711400 -8.613600 3.210000
-7.428090 1.718430 23.800900 -11.632800 9.080000
18.822700 1.748060 16.999500 -8.613600 6.240000
7.870260 1.937200 24.550700 -11.899200 12.570000
-8.032320 0.619625 24.566800 -11.544000 8.230000
8.001430 1.969480 24.959900 -11.899200 6.270000
-6.205040 2.001770 25.908000 -11.899200 5.990000
18.157700 1.531410 20.122000 -9.501600 5.960000
-6.314670 1.384690 26.365700 -11.899200 5.250000
18.451300 1.406670 20.447400 -9.501600 7.310000
-6.981110 1.406670 26.642200 -11.810400 6.260000
18.739600 1.428650 20.766900 -9.501600 4.290000
-6.881430 1.428650 27.112400 -11.899200 5.950000
-6.990310 1.187050 27.541300 -11.810400 7.200000
8.812640 0.334822 27.490400 -11.899200 10.760000
18.653900 1.833870 22.521800 -9.768000 8.160000
8.944450 0.249203 27.901500 -11.899200 9.850000
18.928200 1.860830 22.853000 -9.768000 9.180000
9.075990 0.252868 28.311800 -11.899200 7.980000
-2.320140 1.352190 30.043200 -10.833600 8.750000
-2.353280 1.371510 30.472400 -10.833600 17.490000
6.405680 -1.103210 30.336300 -12.076800 9.470000
7.426090 -0.468411 31.006300 -11.988000 11.520000
-12.578500 2.222110 29.686100 -14.296800 7.530000
-15.349400 1.049280 28.420300 -12.698400 10.900000
9.210120 -0.474741 30.973700 -11.899200 7.200000
-12.746200 2.251740 30.081900 -14.296800 10.190000
-15.554000 1.063270 28.799300 -12.698400 8.980000
-15.533400 1.077260 29.298800 -12.787200 9.270000
7.518350 -2.588380 32.212400 -11.988000 5.920000
8.055410 -2.622000 32.525100 -11.988000 10.270000
19.006800 1.920330 28.175300 -10.567200 5.070000
8.340830 -3.049020 32.862300 -11.988000 5.730000
19.247400 1.944640 28.532000 -10.567200 6.610000
9.372850 1.063310 34.944800 -12.076800 5.000000
9.484430 1.075960 35.360800 -12.076800 7.780000
9.103560 1.976060 35.867400 -12.076800 6.730000
18.988200 1.796400 32.273700 -10.922400 8.640000
9.000610 1.912200 36.341500 -12.076800 4.140000
19.206500 1.817040 32.644700 -10.922400 5.680000
8.604950 2.139110 36.867900 -12.076800 9.110000
19.424700 1.837690 33.015600 -10.922400 7.540000
6.461310 2.163410 37.739900 -12.165600 6.760000
6.239570 2.187720 38.213200 -12.165600 6.200000
19.078200 1.757850 34.212700 -11.011200 6.880000
19.287800 1.777170 34.588600 -11.011200 7.190000
19.497500 1.796480 34.964600 -11.011200 5.790000
19.712200 1.565480 35.349700 -11.011200 7.610000
19.155400 1.835120 36.130600 -11.100000 8.790000
9.823630 2.435650 39.664600 -12.076800 8.090000
19.357000 1.854430 36.510900 -11.100000 8.720000
9.927040 2.461290 40.082100 -12.076800 6.850000
19.558600 1.873750 36.891200 -11.100000 8.540000
19.286000 1.532230 38.502600 -11.277600 11.440000
19.478900 1.547550 38.887600 -11.277600 4.500000
-5.934070 0.908471 43.104900 -12.165600 14.840000
19.323300 1.852520 39.912400 -11.277600 13.750000
19.510900 1.870500 40.299900 -11.277600 7.870000
19.701000 1.748670 40.692500 -11.277600 8.140000
19.888600 1.765330 41.080000 -11.277600 6.820000
19.613800 1.942450 42.157300 -11.366400 12.580000
19.792800 2.105550 42.541900 -11.366400 7.080000
-21.193500 -2.333250 43.775300 -10.922400 9.770000
-21.048500 -1.898560 44.344000 -10.922400 7.370000
-21.237800 -1.608900 44.742800 -11.011200 8.190000
-22.531400 -0.727936 44.128900 -10.744800 7.270000
-20.461100 -1.622890 45.575700 -11.100000 6.340000
-9.170220 1.948520 49.536000 -12.076800 13.170000
-9.247450 2.122300 49.953100 -12.076800 5.130000
-9.325820 2.140290 50.376500 -12.076800 7.380000
-9.012370 2.158270 50.870800 -12.076800 8.100000
10.074100 -2.176260 51.110100 -12.165600 4.980000
10.157400 -2.194240 51.532500 -12.165600 7.330000
19.916100 1.393130 49.096700 -11.632800 6.230000
20.078000 1.404460 49.495800 -11.632800 10.090000
20.238200 1.582300 49.890700 -11.632800 6.960000
10.906000 -1.427110 53.167600 -12.165600 7.160000
20.398200 1.762790 50.285000 -11.632800 6.100000
11.714400 -1.438430 53.436400 -12.165600 6.700000
20.351600 0.996107 52.179700 -11.632800 9.480000
11.740900 2.374100 55.603200 -12.165600 14.320000
20.509700 1.373500 53.496400 -11.721600 13.530000
-29.656100 -1.205300 49.528200 -10.389600 9.250000
20.663900 1.383830 53.898700 -11.721600 7.880000
20.818100 1.394160 54.300900 -11.721600 6.880000
20.276000 1.232280 55.428300 -11.721600 7.520000
20.422600 1.425140 55.829000 -11.721600 10.750000
20.570600 1.435460 56.233600 -11.721600 7.620000
11.404700 -0.140928 59.676800 -12.165600 6.690000
11.832800 -0.141928 60.032600 -12.165600 6.760000
14.345800 -1.810150 59.898100 -12.165600 5.450000
11.290000 -1.822810 60.986600 -12.254400 6.150000
11.368400 -1.835470 61.410100 -12.254400 10.440000
-18.539700 1.559390 62.349200 -11.721600 11.140000
-18.662500 1.569720 62.762100 -11.721600 9.420000
-19.271600 1.580040 63.028300 -11.721600 7.940000
-16.320300 1.590370 64.300700 -11.810400 7.610000
20.753900 0.981132 63.475600 -11.899200 7.550000
21.379500 0.987462 63.722200 -11.899200 7.560000
-28.282200 1.271950 65.688300 -11.188800 7.530000
-28.452600 1.279610 66.084000 -11.188800 6.180000
-28.621300 1.511120 66.475700 -11.188800 7.730000
-28.791600 1.520120 66.871400 -11.188800 8.110000
-28.965200 1.076080 67.274500 -11.188800 12.650000
-2.403270 2.050050 77.928900 -12.343200 6.020000
-3.019870 2.546260 78.324300 -12.343200 11.790000
-0.535490 1.074430 92.635700 -12.343200 5.600000
-17.783600 6.281420 103.872000 -12.076800 6.780000
-17.444000 7.385920 110.858000 -12.165600 4.700000
-17.510800 7.414210 111.283000 -12.165600 7.640000
-16.716200 7.442510 111.840000 -12.165600 5.370000
19.745400 1.136070 132.107000 -12.254400 5.690000
19.808400 1.554170 132.529000 -12.254400 5.210000
19.872800 1.143400 132.959000 -12.254400 7.010000
19.936400 1.147070 133.385000 -12.254400 5.870000
-62.368300 -15.105800 128.822000 -10.833600 4.920000
-62.575100 -14.706900 129.249000 -10.833600 6.610000
