VERSION .7
FIELDS x y z velocity intensity
SIZE 4 4 4 4 4
TYPE F F F F F
COUNT 1 1 1 1 1
WIDTH 924
HEIGHT 1
VIEWPOINT 0 0 0 1 0 0 0
POINTS 924
DATA ascii
5.899790 -0.363751 9.517160 -10.744800 5.450000
6.202690 -0.377741 9.835690 -10.744800 6.910000
6.189330 -0.643367 10.336700 -11.011200 9.110000
6.509410 -0.466313 10.147900 -10.744800 5.720000
-8.659560 -1.377620 8.287530 3.196800 2.560000
6.410380 -0.666344 10.705900 -11.011200 8.830000
6.745460 -0.260848 10.515900 -10.744800 5.670000
6.631420 -0.689322 11.075000 -11.011200 4.160000
6.978060 -0.269843 10.878500 -10.744800 5.640000
8.723760 3.571100 8.845930 -9.679200 3.840000
7.350780 1.278720 11.079900 -10.656000 3.760000
-8.123730 1.237590 10.531200 -9.679200 2.780000
-8.217230 1.277510 10.998900 -9.768000 2.970000
6.522510 -1.246020 14.019200 -11.544000 6.690000
-1.009490 1.342060 15.854600 2.042400 12.690000
6.696490 -1.477130 14.393200 -11.544000 9.250000
-1.036770 1.378330 16.283100 2.042400 16.830000
-0.967437 1.414600 16.717500 2.042400 17.030000
-1.835460 1.414600 16.644600 2.042400 16.750000
-1.873500 -2.219350 16.989500 1.953600 14.600000
-1.685290 -2.274840 17.438600 1.953600 9.990000
7.206690 1.582400 16.052400 -11.632800 5.110000
-8.072680 1.621000 16.116300 -11.011200 7.860000
-1.623100 -2.330320 17.873600 2.042400 8.130000
7.854580 1.621000 16.223700 -11.455200 5.470000
-8.264890 1.659590 16.500000 -11.011200 8.040000
-8.228610 1.698190 16.996300 -11.188800 3.850000
-8.457100 1.698190 16.883700 -11.011200 4.110000
-8.146860 0.720148 18.527400 -11.366400 8.150000
-1.159830 -2.669840 20.042000 2.042400 4.380000
-8.174120 0.735470 18.985200 -11.366400 7.170000
-7.362840 2.281040 19.656800 -11.632800 4.670000
-7.358290 2.327590 20.115300 -11.632800 7.170000
17.683800 1.511040 12.959200 -7.903200 3.660000
-7.519290 1.968350 20.555400 -11.632800 5.710000
18.030500 1.540660 13.213300 -7.903200 10.280000
-7.687650 1.142920 21.015700 -11.632800 9.360000
-7.833210 1.288330 21.413600 -11.632800 10.050000
-8.148920 1.312630 21.755500 -11.632800 6.090000
-7.310960 1.025180 23.425500 -11.810400 6.100000
18.195500 1.332690 17.080900 -8.968800 4.760000
18.511400 1.296780 17.377600 -8.968800 5.650000
8.410770 0.216221 23.990500 -12.076800 5.280000
8.553330 0.219885 24.397200 -11.988000 7.090000
18.246300 1.482790 18.861900 -9.412800 5.950000
8.695880 0.223550 24.803800 -11.988000 12.050000
18.545400 1.507100 19.171100 -9.412800 7.380000
9.032480 0.227215 25.141500 -11.988000 17.560000
18.844500 1.531410 19.480300 -9.412800 11.290000
9.178360 0.146924 25.547600 -11.988000 17.640000
19.143600 1.555710 19.789500 -9.412800 12.590000
9.278560 -2.724820 25.826500 -0.710400 5.690000
9.575000 -2.767400 26.175100 -0.621600 11.690000
9.040450 -1.011270 26.945300 -11.988000 10.000000
-15.592800 2.014720 24.725800 -12.520800 9.020000
6.907180 -2.136070 28.839700 -12.254400 7.200000
-13.908900 1.352190 26.730500 -14.296800 5.110000
-14.107600 1.371510 27.112400 -14.296800 8.890000
-14.306300 1.390830 27.494300 -14.296800 10.300000
18.722400 0.962038 26.851500 -10.567200 4.710000
18.758500 0.974697 27.350200 -10.656000 5.400000
8.151850 1.692400 32.117700 -12.165600 6.330000
19.002100 0.987355 27.705400 -10.656000 9.560000
8.945400 1.714380 32.352500 -12.254400 6.090000
19.461400 1.000010 27.911400 -10.656000 8.890000
6.188420 1.736360 33.428800 -12.343200 8.310000
18.593500 1.545360 28.986400 -10.833600 4.870000
6.266760 1.758340 33.852000 -12.343200 9.250000
18.825900 1.564680 29.348700 -10.833600 7.910000
8.841390 1.241110 33.741700 -12.254400 8.930000
19.058400 1.584000 29.711100 -10.833600 14.000000
8.915080 -3.382420 34.022900 -12.254400 10.730000
19.290800 1.603310 30.073400 -10.833600 15.210000
8.758110 -3.423670 34.506300 -12.254400 11.540000
19.051700 1.622630 30.733000 -10.922400 12.000000
8.664150 -3.353470 34.983000 -12.254400 10.810000
19.038300 1.641950 31.246600 -11.011200 5.770000
6.154170 -3.393400 35.946000 -12.254400 8.470000
19.262300 1.661260 31.614200 -11.011200 12.370000
19.486200 1.680580 31.981800 -11.011200 5.750000
18.959600 1.582730 32.800800 -11.100000 11.010000
19.175000 1.600720 33.173600 -11.100000 6.110000
19.385100 1.858340 33.537000 -11.100000 6.000000
16.628500 0.449761 35.032200 -10.478400 6.980000
19.600500 1.878990 33.909600 -11.100000 9.190000
19.815900 1.899640 34.282300 -11.100000 6.900000
-5.519870 1.565480 40.096200 -12.343200 7.980000
-5.578590 1.582130 40.522700 -12.343200 4.990000
19.278700 1.615440 37.050500 -11.366400 7.410000
19.477400 1.632100 37.432400 -11.366400 7.740000
19.676200 1.648750 37.814400 -11.366400 7.860000
19.872500 1.798560 38.191600 -11.366400 11.940000
19.476700 1.682060 38.883100 -11.455200 15.410000
19.669500 1.698710 39.268100 -11.455200 14.340000
19.862300 1.715370 39.653100 -11.455200 12.010000
-21.929600 -1.200580 40.048600 -10.833600 13.520000
-21.274700 -1.211910 40.886500 -10.922400 4.940000
-23.421100 -3.953630 40.519400 -10.744800 6.730000
-9.781400 2.271310 46.323100 -12.165600 5.940000
-9.870320 2.291950 46.744200 -12.165600 7.150000
-9.051160 2.014390 47.361600 -12.254400 6.120000
-9.131980 2.032370 47.784500 -12.254400 11.060000
19.929900 1.731420 44.392400 -11.632800 10.430000
10.227500 -2.221460 48.435700 -12.343200 10.590000
12.653300 -2.549590 48.289100 -12.343200 11.980000
11.060500 -2.999700 49.095500 -12.432000 9.080000
-19.091200 -2.436490 47.063000 -11.455200 13.980000
20.260200 2.140290 47.056200 -11.721600 14.060000
-19.253000 -2.457140 47.461800 -11.455200 8.650000
-19.783100 -2.477790 47.709600 -11.455200 9.600000
-7.106930 -1.692840 51.624500 -12.432000 7.310000
-20.473200 -3.127890 48.318200 -11.366400 6.630000
20.131500 1.097360 48.550000 -11.810400 5.840000
-20.641100 -3.153530 48.714200 -11.366400 8.140000
20.297700 0.942470 48.950900 -11.810400 7.290000
20.273000 1.142340 50.817800 -11.810400 6.110000
20.432600 1.151330 51.217900 -11.810400 6.040000
20.350400 1.169320 52.176600 -11.899200 12.680000
20.506900 1.178310 52.578000 -11.899200 9.280000
20.662000 1.363180 52.975700 -11.899200 6.020000
13.123700 -0.312506 56.228500 -12.343200 14.550000
-17.196200 -1.517720 55.099600 -11.810400 13.130000
13.221600 -0.314838 56.648100 -12.254400 9.160000
20.396000 1.708880 54.451900 -11.899200 7.840000
11.774800 -0.679639 57.403200 -12.343200 8.140000
20.545100 1.902700 54.850000 -11.899200 6.240000
11.415400 -0.684636 57.915000 -12.432000 8.430000
20.096600 1.746860 55.938100 -11.988000 9.030000
20.567600 1.759520 56.225500 -11.988000 7.720000
20.715600 1.772180 56.630000 -11.988000 6.640000
20.865300 1.597000 57.039400 -11.988000 7.060000
-18.936400 1.487100 59.070700 -11.810400 8.070000
-19.067900 1.497430 59.481000 -11.810400 6.350000
-19.200800 1.313240 59.895300 -11.810400 7.040000
-19.334400 0.930493 60.312200 -11.810400 16.000000
-28.708700 2.025340 62.649700 -11.277600 11.470000
-28.890600 1.823530 63.046700 -11.277600 9.860000
-16.678000 0.000000 67.340300 -12.076800 8.660000
-29.071700 1.672990 63.442000 -11.277600 7.850000
-29.251200 1.683310 63.833600 -11.277600 6.330000
12.353700 2.604790 72.156800 -12.432000 6.540000
-6.661520 1.936790 73.356600 -12.520800 7.370000
17.007900 2.962060 99.341700 -12.432000 7.410000
17.082100 2.661670 99.774800 -12.432000 8.920000
16.382000 2.673000 100.329000 -12.432000 7.350000
-17.780000 6.391560 100.360000 -12.254400 7.660000
-17.851500 6.735050 100.764000 -12.254400 8.950000
-17.926500 6.763350 101.187000 -12.254400 7.180000
-18.001500 6.791650 101.610000 -12.254400 5.520000
-16.147300 6.850030 108.034000 -12.343200 5.260000
-16.207700 7.216120 108.438000 -12.343200 5.750000
29.832000 1.439230 120.452000 -12.343200 4.710000
29.935600 1.444230 120.870000 -12.343200 6.180000
30.040700 0.676319 121.294000 -12.343200 6.940000
19.298100 1.917950 129.114000 -12.432000 4.710000
19.362600 1.519190 129.546000 -12.432000 7.400000
19.426900 1.117750 129.976000 -12.432000 5.880000
-62.332300 -12.223800 126.257000 -11.011200 9.010000
-62.450400 -14.007300 126.497000 -11.011200 7.520000
-8.414200 0.788261 145.399000 -12.520800 7.180000
-8.439090 0.790593 145.829000 -12.520800 9.420000
-8.463980 0.792926 146.259000 -12.520800 7.250000
-8.486070 3.862250 146.641000 -12.520800 7.250000
-8.512040 3.076210 147.090000 -12.520800 10.170000
-7.797240 1.739080 149.740000 -12.520800 10.670000
-7.820060 0.813915 150.178000 -12.520800 8.310000
-7.842460 0.816247 150.609000 -12.520800 5.220000
-7.864870 0.818579 151.039000 -12.520800 6.970000
20.266600 5.130800 194.075000 -12.520800 5.280000
20.311300 5.142120 194.503000 -12.520800 9.370000
20.356100 5.153450 194.932000 -12.520800 8.420000
6.094670 -0.859309 5.398630 -8.436000 8.070000
5.936110 -0.859309 5.572500 -8.613600 9.990000
6.191730 -0.904536 5.925720 -8.702400 9.430000
6.380230 -0.949763 6.346120 -8.791200 5.860000
6.895210 -0.651820 6.472860 -8.436000 6.600000
7.143100 -0.681448 6.836210 -8.524800 4.690000
7.597890 -0.444291 6.347960 -7.992000 7.810000
6.936540 -0.796069 7.033680 -8.880000 4.270000
7.801160 -0.399697 6.777230 -8.169600 6.350000
6.333150 -1.043500 10.216200 -10.389600 6.350000
6.206860 -0.309813 11.335200 -10.744800 8.260000
6.413750 -0.320140 11.713000 -10.744800 6.270000
7.276800 4.012670 11.538900 -10.567200 8.070000
7.033700 4.134260 12.168600 -10.744800 5.210000
6.999840 1.492640 12.783400 -10.744800 4.860000
7.129530 1.536550 13.200800 -10.833600 4.960000
7.129530 1.437200 13.701800 -10.922400 5.720000
7.216710 1.526210 14.134300 -10.922400 6.330000
6.556700 -1.668250 14.911100 -11.277600 4.820000
6.611090 -1.712150 15.354900 -11.277600 10.290000
7.473990 -1.703010 15.437600 -11.100000 13.360000
7.538660 -1.745590 15.882100 -11.100000 13.850000
17.093700 -2.599780 11.350800 -6.393600 4.430000
17.093700 -2.599780 11.350800 -6.393600 4.700000
17.805900 -2.708100 11.823800 -6.393600 6.990000
-7.550760 0.946534 19.695100 -11.277600 7.320000
-7.975210 0.965851 19.991300 -11.277600 6.080000
17.937000 1.358840 14.070500 -7.725600 6.410000
18.275400 1.384480 14.336000 -7.725600 6.360000
18.475600 1.336940 14.782700 -7.814400 7.980000
-7.813000 1.994950 22.285500 -11.366400 9.080000
8.135730 1.808050 22.645500 -11.544000 7.960000
-7.955060 2.031220 22.690700 -11.366400 6.250000
18.157600 1.669610 17.715800 -8.702400 5.610000
18.465300 1.697910 18.016000 -8.702400 4.600000
18.595800 1.726210 18.496300 -8.791200 3.980000
18.493400 1.782810 19.792900 -9.146400 6.470000
18.790700 1.725990 20.111100 -9.146400 8.190000
7.954170 0.949982 25.486500 -11.632800 7.810000
18.926300 1.752960 20.571800 -9.146400 7.950000
8.980350 0.398783 25.615200 -11.632800 14.170000
19.015300 1.779930 21.072500 -9.235200 9.650000
9.123270 0.319830 26.022800 -11.632800 15.380000
9.265820 0.324827 26.429400 -11.632800 12.240000
18.546400 1.896000 22.043900 -9.501600 8.690000
8.837500 0.329825 27.029400 -11.721600 15.600000
18.823200 1.924300 22.372900 -9.501600 11.740000
8.589880 -1.472610 27.523400 -11.632800 9.000000
19.100000 1.952600 22.701900 -9.501600 9.980000
8.720680 -1.313560 27.942500 -11.632800 9.790000
7.122730 0.898746 29.739600 -11.899200 7.820000
7.223050 0.911405 30.158500 -11.899200 7.900000
18.666300 1.548620 26.336100 -10.212000 10.250000
18.915200 1.569270 26.687300 -10.212000 8.230000
19.055700 1.713800 30.216800 -10.478400 7.360000
9.608950 1.037990 33.986300 -11.721600 5.400000
19.285300 1.734450 30.580900 -10.478400 6.500000
9.726130 1.050650 34.400800 -11.721600 5.300000
19.514900 1.755100 30.945000 -10.478400 5.290000
5.622740 1.287070 35.733000 -11.899200 6.560000
19.744400 1.775750 31.309000 -10.478400 5.110000
8.800520 1.189190 35.533600 -11.899200 8.140000
19.241700 1.564750 32.135300 -10.656000 10.400000
8.904060 1.203180 35.951600 -11.899200 12.380000
19.462900 1.582730 32.504700 -10.656000 10.710000
19.684100 1.600720 32.874100 -10.656000 7.820000
9.929220 1.757850 37.893200 -11.899200 6.740000
10.038300 1.777170 38.309600 -11.899200 10.170000
-6.228440 0.588679 39.582300 -11.988000 10.090000
19.638100 1.961580 35.863800 -10.922400 11.670000
19.626300 2.333570 36.339300 -10.922400 9.290000
19.834100 2.228810 36.724000 -10.922400 8.720000
19.969400 1.516910 37.665900 -11.011200 10.840000
19.877200 1.532230 38.200700 -11.011200 7.960000
20.076000 1.547550 38.582700 -11.011200 9.260000
19.815400 2.147420 40.137200 -11.011200 9.670000
-8.933970 2.050360 48.259800 -11.899200 6.580000
-9.012340 2.068350 48.683100 -11.899200 8.330000
19.929000 2.068350 45.322200 -11.277600 8.200000
-4.516540 2.086330 49.736200 -11.988000 6.070000
20.102300 2.086330 45.716300 -11.277600 7.010000
9.831340 -0.904158 49.878500 -11.988000 5.810000
11.267800 -0.911821 50.015500 -11.899200 7.460000
11.363500 -0.599681 50.440300 -11.899200 7.420000
11.164000 -0.604678 50.926100 -11.899200 11.390000
11.256300 -0.609676 51.346900 -11.899200 6.640000
20.461500 1.115350 49.345900 -11.366400 6.320000
21.009300 1.124350 49.583400 -11.366400 10.200000
20.431200 1.321870 51.214400 -11.455200 10.340000
20.192400 1.332190 51.771700 -11.455200 7.200000
20.351600 0.996107 52.179700 -11.455200 5.880000
20.356900 1.187310 53.097900 -11.455200 10.270000
-17.835000 -4.571690 55.635000 -11.455200 8.130000
20.845000 2.114480 55.650700 -11.544000 10.110000
20.998300 1.944670 56.059900 -11.544000 8.710000
20.859300 2.160440 57.023000 -11.544000 10.220000
21.009500 1.986640 57.433500 -11.544000 12.350000
21.159500 1.810150 57.843500 -11.544000 5.970000
21.259600 2.042600 59.175200 -11.544000 7.070000
-15.582700 0.342824 61.394700 -11.544000 6.470000
-18.999100 0.345156 60.876400 -11.544000 5.900000
21.026600 -1.349210 61.104400 -11.632800 8.230000
21.166700 -1.358210 61.511700 -11.632800 10.630000
21.306900 -1.367200 61.919100 -11.632800 9.480000
21.584500 1.744240 62.725800 -11.721600 9.930000
21.725900 1.600700 63.136800 -11.721600 10.250000
20.882800 1.766900 63.869900 -11.721600 10.170000
21.151800 1.631680 64.692600 -11.721600 12.400000
21.288400 1.218320 65.110400 -11.721600 13.070000
-27.769500 1.466150 64.497300 -11.011200 9.670000
-27.939800 1.475140 64.893000 -11.011200 8.990000
18.197800 1.124400 95.222700 -11.988000 9.300000
18.279200 0.828235 95.648900 -11.988000 5.190000
18.360700 0.226884 96.075300 -11.988000 5.630000
34.195300 0.230882 93.479500 -11.544000 6.690000
35.065500 0.541055 93.615600 -11.544000 7.090000
35.216700 0.543387 94.019100 -11.544000 8.350000
-17.413900 6.791650 101.713000 -11.899200 5.270000
-17.486400 6.819950 102.137000 -11.899200 5.980000
-17.559000 6.848240 102.560000 -11.899200 6.890000
19.482900 3.873470 130.351000 -12.076800 8.030000
-7.640800 0.795258 146.736000 -12.076800 7.130000
-7.663210 0.797590 147.166000 -12.076800 6.080000
-7.685610 0.799922 147.597000 -12.076800 5.230000
-7.707610 1.719090 148.019000 -12.076800 7.910000
-6.585850 1.264340 148.509000 -12.076800 9.980000
-6.700180 1.754070 151.087000 -12.076800 8.090000
-6.719270 1.759060 151.518000 -12.076800 7.630000
-6.738570 1.293660 151.953000 -12.076800 5.550000
-6.757660 1.297320 152.383000 -12.076800 5.120000
5.429280 -0.373647 4.903390 -8.347200 2.190000
5.282730 -0.533307 5.653940 -8.968800 2.940000
5.647550 -0.395627 5.301630 -8.436000 4.330000
5.576210 -0.562935 5.968050 -9.057600 5.510000
6.114010 -0.562935 5.415770 -8.436000 4.810000
5.961310 -0.417606 5.596160 -8.436000 6.720000
5.818510 -0.645732 6.324390 -9.146400 5.770000
5.975090 -0.645732 6.176670 -8.880000 4.900000
6.701010 -0.594269 6.051940 -8.436000 8.370000
6.432940 -0.645732 5.698270 -8.524800 3.420000
6.107990 -0.705922 6.639030 -9.146400 2.540000
6.704810 -0.510469 6.055370 -8.436000 8.100000
7.242840 -4.648730 9.059970 -10.212000 2.750000
6.475810 -1.119260 10.628400 -10.567200 6.360000
6.528850 -1.157860 11.096900 -10.744800 4.420000
8.410030 -0.735276 10.902400 -9.945600 8.510000
8.498510 -0.758254 11.375400 -10.034400 10.330000
6.685880 -1.277380 14.892300 -11.277600 7.990000
7.309640 1.315240 14.592900 -11.011200 8.000000
6.743820 -1.311000 15.336700 -11.277600 5.180000
7.415300 1.349860 15.020100 -11.100000 11.560000
6.702720 -1.384470 15.818900 -11.366400 8.900000
7.793080 -1.487150 15.785300 -11.188800 5.310000
7.983160 -1.523420 16.170300 -11.188800 10.360000
-7.448520 0.945108 16.939300 -11.011200 7.720000
7.561800 -1.559690 16.843400 -11.277600 6.100000
-7.755110 0.967087 17.274000 -11.100000 4.680000
-7.789820 1.213590 17.715500 -11.011200 6.140000
8.334310 1.592140 17.913500 -11.277600 5.280000
-7.080940 1.626750 18.904200 -11.277600 3.620000
-7.908290 1.230650 19.072000 -11.188800 3.570000
-8.079240 0.946534 19.484200 -11.188800 3.640000
-6.493780 1.570290 21.838600 -11.632800 8.390000
-7.537830 1.570290 21.500600 -11.455200 5.670000
18.187300 1.361250 15.800200 -8.347200 9.940000
-6.608460 1.958680 22.224300 -11.632800 5.900000
-7.670950 1.958680 21.880300 -11.455200 8.050000
18.353000 1.461390 16.257000 -8.436000 6.840000
-7.514120 1.903640 22.396000 -11.455200 4.670000
18.675000 1.487030 16.542200 -8.436000 5.580000
-6.231070 1.938250 23.231300 -11.721600 5.900000
18.996900 1.512670 16.827400 -8.436000 5.320000
-6.339050 2.124260 23.633900 -11.721600 6.500000
18.309400 1.238890 18.211500 -8.880000 11.120000
7.919880 2.161530 23.605400 -11.721600 5.030000
18.611700 1.340730 18.512200 -8.880000 11.430000
19.097200 1.362710 18.632600 -8.791200 7.070000
9.113370 0.151589 26.484000 -11.721600 9.770000
18.707700 2.074150 21.890900 -9.590400 5.120000
6.989380 -1.274920 27.537700 -11.899200 8.400000
18.815100 2.105110 22.363300 -9.679200 11.040000
5.958620 -1.294240 28.219000 -11.899200 15.450000
8.341810 -1.404080 28.053600 -11.810400 12.260000
18.390500 1.794690 23.840600 -9.945600 18.330000
8.302100 -1.241010 28.522500 -11.810400 14.710000
6.834870 -2.353070 29.284000 -11.899200 7.950000
18.676000 1.149170 26.349700 -10.212000 8.340000
18.927000 1.063270 26.703900 -10.212000 8.130000
18.790700 0.805513 27.855100 -10.389600 8.510000
19.031700 0.815840 28.212200 -10.389600 9.870000
19.272600 0.826167 28.569300 -10.389600 5.740000
6.835150 1.315670 33.321900 -11.988000 10.380000
19.513500 0.836494 28.926400 -10.389600 8.510000
9.626820 1.332320 33.073700 -11.899200 6.010000
9.939330 1.456830 33.426000 -11.899200 10.030000
19.290800 1.603310 30.073400 -10.567200 4.570000
6.827080 1.474820 34.636600 -11.988000 10.790000
19.520400 1.734450 30.431400 -10.567200 7.840000
19.752800 1.755100 30.793600 -10.567200 9.220000
8.896760 1.510790 35.052600 -11.988000 8.240000
19.502500 1.775750 31.460300 -10.656000 6.810000
8.987240 -2.631390 35.409100 -11.988000 7.590000
18.993500 1.564750 32.282700 -10.744800 8.080000
19.209200 1.699900 32.649400 -10.744800 8.260000
19.427500 1.719210 33.020400 -10.744800 12.390000
9.209580 2.848090 38.452900 -11.988000 7.270000
-6.295870 0.344487 40.010800 -11.988000 7.350000
19.362000 1.598790 36.520300 -11.011200 14.830000
19.563700 1.615440 36.900800 -11.011200 13.530000
19.765400 1.632100 37.281200 -11.011200 7.400000
19.673800 1.780580 37.809700 -11.100000 12.250000
19.874900 1.665400 38.196300 -11.100000 8.500000
20.073700 1.682060 38.578300 -11.100000 6.430000
19.857200 1.989650 39.642900 -11.188800 13.140000
19.818300 2.008970 40.143000 -11.188800 5.700000
20.011500 1.888490 40.534400 -11.188800 6.690000
-21.898500 -1.496970 40.546400 -10.656000 8.470000
-22.103100 -1.510960 40.925300 -10.656000 8.650000
10.118700 2.458580 44.915000 -12.076800 12.880000
-22.318700 -0.399458 41.324500 -10.656000 7.510000
-23.264300 -2.439700 41.719500 -10.567200 8.150000
-23.473900 -2.461680 42.095400 -10.567200 9.440000
-21.543600 -1.580920 43.637800 -10.833600 5.720000
-23.683500 -2.483660 42.471200 -10.567200 11.430000
-21.988400 -1.594910 43.897600 -10.833600 9.000000
-8.933970 2.050360 48.259800 -11.988000 8.250000
-9.012340 2.068350 48.683100 -11.988000 6.600000
-9.090710 2.086330 49.106500 -11.988000 10.400000
19.749400 2.086330 45.869900 -11.366400 8.700000
8.790090 -1.636880 49.616100 -12.076800 8.290000
9.250630 -1.650870 49.970400 -12.076800 6.650000
20.105300 0.746926 46.696400 -11.366400 6.600000
-19.998300 -1.347820 47.197400 -11.100000 8.260000
9.328050 -1.823350 50.388500 -12.076800 6.060000
20.003100 0.753256 47.208600 -11.366400 10.830000
9.406430 -1.838680 50.812000 -12.076800 5.710000
-21.674700 -1.290890 49.292100 -11.011200 8.210000
20.430000 1.449760 51.211400 -11.455200 9.750000
20.590800 1.332190 51.614500 -11.455200 10.740000
20.750500 1.342520 52.014600 -11.455200 7.650000
20.359900 0.659649 53.105900 -11.544000 7.060000
20.821200 1.019090 53.383900 -11.544000 9.640000
20.975100 1.383830 53.778300 -11.544000 7.050000
20.818100 1.394160 54.300900 -11.632800 9.410000
-16.335500 -4.210220 56.121900 -11.721600 14.370000
-16.335500 -4.210220 56.121900 -11.632800 7.510000
20.267600 2.099150 55.405300 -11.721600 14.520000
20.415500 2.114480 55.809700 -11.632800 7.550000
10.895800 -2.129800 58.857200 -12.076800 7.900000
20.558500 2.500000 56.200700 -11.632800 8.130000
12.115600 -1.958660 59.064400 -12.076800 8.440000
11.483800 -1.088060 60.090600 -12.076800 8.230000
20.679100 1.797490 57.559400 -11.721600 10.280000
-18.740600 0.924163 60.048100 -11.632800 6.800000
-18.519200 0.930493 60.567500 -11.632800 6.720000
-18.644200 1.134030 60.976500 -11.632800 7.070000
21.168000 1.157020 61.515400 -11.721600 15.130000
21.575800 2.564720 62.700600 -11.721600 9.290000
21.231400 2.374960 63.280500 -11.721600 7.020000
21.363200 2.805760 63.673600 -11.721600 7.020000
21.157800 0.157919 64.711000 -11.810400 6.810000
21.290300 0.794577 65.116300 -11.810400 8.250000
-27.771100 1.248960 64.501200 -11.100000 6.410000
-28.439100 1.475140 64.675700 -11.100000 6.470000
-28.612500 1.484140 65.070100 -11.100000 6.460000
-1.459730 3.399790 75.748100 -12.165600 10.010000
-1.468020 3.419110 76.178500 -12.165600 8.710000
18.665800 0.223886 94.699300 -12.076800 7.430000
18.749100 0.224885 95.122100 -12.076800 5.380000
18.832200 0.527062 95.543700 -12.076800 6.540000
-17.997800 7.110760 101.589000 -11.988000 7.460000
-18.072800 7.140390 102.013000 -11.988000 5.800000
-18.147800 7.170020 102.436000 -11.988000 5.360000
-8.488700 1.249680 146.686000 -12.165600 6.390000
-8.513590 1.253350 147.116000 -12.165600 7.700000
-7.685210 1.714090 147.589000 -12.165600 5.090000
-7.707610 1.719090 148.019000 -12.165600 8.690000
-7.730020 1.724080 148.449000 -12.165600 9.580000
-6.700180 1.754070 151.087000 -12.165600 5.880000
-6.719270 1.759060 151.518000 -12.165600 6.150000
-6.738570 1.293660 151.953000 -12.165600 6.150000
-6.757660 1.297320 152.383000 -12.165600 6.060000
5.884610 -1.215310 6.177720 -9.146400 3.960000
6.065430 -1.276080 6.592780 -9.235200 3.940000
6.567100 -0.866230 6.164850 -8.702400 1.460000
5.668850 1.880750 9.984180 -10.744800 3.280000
6.351170 1.950410 10.071100 -10.567200 3.230000
6.577990 2.020060 10.430800 -10.567200 7.570000
6.202400 -0.579510 11.327000 -10.922400 9.570000
6.409150 -0.598827 11.704600 -10.922400 5.830000
8.417540 -0.392410 10.364600 -9.768000 6.820000
8.606360 -0.405069 10.765600 -9.856800 6.800000
-7.433720 1.526210 14.021400 -10.656000 5.090000
-7.648290 1.226890 14.426100 -10.656000 3.370000
7.275080 -1.918830 15.026700 -11.188800 3.930000
7.350130 -1.809070 15.484900 -11.188800 7.320000
7.528820 -1.962940 15.861400 -11.188800 6.140000
7.748140 1.020940 16.323400 -11.188800 5.050000
-7.761120 0.615578 17.287400 -11.011200 10.320000
7.965650 1.698190 17.121100 -11.277600 6.580000
-8.073540 0.629569 17.618500 -11.011200 6.780000
-8.252950 0.643559 18.010100 -11.011200 4.470000
7.320850 1.592140 18.351000 -11.544000 9.920000
-8.225730 1.125890 19.413300 -11.188800 5.590000
-8.509000 1.098960 19.763000 -11.277600 5.650000
18.264500 1.599920 14.327400 -7.903200 5.470000
-6.945350 1.609790 21.242300 -11.544000 6.440000
18.602800 1.629550 14.592700 -7.903200 3.210000
-7.553300 1.599920 21.950300 -11.455200 9.080000
18.797000 1.659180 15.039800 -7.992000 6.240000
7.818790 1.775760 22.302000 -11.721600 12.570000
-8.156320 0.578317 22.702800 -11.366400 8.230000
7.960950 1.808050 22.707500 -11.721600 6.270000
-6.208160 1.840340 23.692400 -11.810400 5.990000
17.996300 1.434170 17.900000 -8.968800 5.960000
-6.326630 1.274800 24.144500 -11.810400 5.250000
18.306600 1.318760 18.208700 -8.968800 7.310000
-6.907740 1.296780 24.432300 -11.721600 6.260000
18.611700 1.340730 18.512200 -8.968800 4.290000
-6.881080 1.318760 24.886600 -11.810400 5.950000
-6.998780 1.097120 25.312200 -11.721600 7.200000
8.692290 0.309835 25.260300 -11.810400 10.760000
18.635100 1.725990 20.255300 -9.324000 8.160000
8.832760 0.230880 25.668500 -11.810400 9.850000
18.727200 1.752960 20.753200 -9.324000 9.180000
8.972970 0.234544 26.075900 -11.810400 7.980000
6.341050 -1.026590 28.146600 -11.988000 9.470000
7.313640 -0.436762 28.815200 -11.899200 11.520000
9.206860 -0.443092 28.720100 -11.810400 7.200000
7.435760 -2.420300 30.023200 -11.899200 5.920000
7.948910 -2.453920 30.335700 -11.899200 10.270000
19.111700 1.823100 25.996900 -10.212000 5.070000
8.227400 -2.856040 30.674200 -11.899200 5.730000
19.111800 1.847410 26.528900 -10.300800 6.610000
9.257400 1.000010 32.742900 -11.988000 5.000000
9.374590 1.012670 33.157400 -11.988000 7.780000
9.029140 1.861170 33.663400 -11.988000 6.730000
19.055700 1.713800 30.216800 -10.656000 8.640000
8.944550 1.802300 34.135400 -11.988000 4.140000
19.285300 1.734450 30.580900 -10.656000 5.680000
8.584290 2.017570 34.660500 -11.988000 9.110000
19.514900 1.755100 30.945000 -10.656000 7.540000
6.304110 2.041870 35.583900 -12.076800 6.760000
6.170910 2.066180 36.043700 -12.076800 6.200000
19.239200 1.680580 32.131000 -10.744800 6.880000
19.460300 1.699900 32.500300 -10.744800 7.190000
19.427500 1.719210 33.020400 -10.833600 5.790000
19.650900 1.498860 33.400000 -10.833600 7.610000
19.078200 1.757850 34.212700 -10.922400 8.790000
9.812570 2.307460 37.448000 -11.988000 8.090000
19.287800 1.777170 34.588600 -10.922400 8.720000
9.921600 2.333100 37.864100 -11.988000 6.850000
19.497500 1.796480 34.964600 -10.922400 8.540000
19.364200 1.470940 36.524500 -11.100000 11.440000
19.565900 1.486260 36.905000 -11.100000 4.500000
-5.877040 0.863497 40.937700 -12.076800 14.840000
19.381800 1.780580 37.960200 -11.100000 13.750000
19.577500 1.798560 38.343600 -11.100000 7.870000
19.775800 1.682060 38.731900 -11.100000 8.140000
19.971600 1.698710 39.115400 -11.100000 6.820000
19.820900 1.870500 40.148400 -11.188800 12.580000
20.008800 2.028290 40.529000 -11.188800 7.080000
-21.333600 -2.250660 41.783000 -10.744800 9.770000
-21.409800 -1.552940 42.742400 -10.833600 8.190000
-20.347300 -1.566930 43.733700 -11.011200 6.340000
-9.052290 1.865250 47.367500 -11.988000 13.170000
-9.131980 2.032370 47.784500 -11.988000 5.130000
-9.212790 2.050360 48.207400 -11.988000 7.380000
-9.012340 2.068350 48.683100 -11.988000 8.100000
10.035200 -2.086330 48.922200 -12.076800 4.980000
10.121700 -2.104320 49.344000 -12.076800 7.330000
19.998300 1.347820 47.197400 -11.544000 6.230000
20.166400 1.359150 47.594000 -11.544000 10.090000
20.332700 1.531670 47.986500 -11.544000 6.960000
10.768200 -1.370480 50.996400 -12.076800 7.160000
20.498800 1.706830 48.378400 -11.544000 6.100000
11.549700 -1.381800 51.266700 -12.076800 6.700000
20.405700 0.965457 50.303600 -11.544000 9.480000
11.708200 2.284170 53.408300 -12.076800 14.320000
20.431200 1.321870 51.214400 -11.632800 13.530000
-29.508100 -1.169320 47.600500 -10.212000 9.250000
20.590800 1.332190 51.614500 -11.632800 7.880000
20.750500 1.342520 52.014600 -11.632800 6.880000
20.356900 1.187310 53.097900 -11.632800 7.520000
20.509700 1.373500 53.496400 -11.632800 10.750000
20.663900 1.383830 53.898700 -11.632800 7.620000
11.332800 -0.135931 57.496000 -12.076800 6.690000
11.862200 -0.136930 57.829100 -12.076800 6.760000
14.289300 -1.746860 57.695400 -12.076800 5.450000
11.238100 -1.759520 58.805000 -12.165600 6.150000
11.318900 -1.772180 59.228100 -12.165600 10.440000
-18.389900 1.507750 60.144700 -11.632800 11.140000
-18.515900 1.518080 60.556600 -11.632800 9.420000
-18.993900 1.528410 60.859800 -11.632800 7.940000
-16.269400 1.538740 62.089500 -11.721600 7.610000
20.557300 0.949482 61.271400 -11.810400 7.550000
21.169100 0.955812 61.518500 -11.810400 7.560000
-28.585600 1.241300 63.672400 -11.100000 7.530000
-28.762000 1.248960 64.065400 -11.100000 6.180000
-28.936800 1.475140 64.454600 -11.100000 7.730000
-29.113200 1.484140 64.847600 -11.100000 8.110000
-29.292900 1.050760 65.247800 -11.100000 12.650000
-2.336880 1.993420 75.776200 -12.254400 6.020000
-2.936900 2.476300 76.172500 -12.254400 11.790000
-0.523036 1.049440 90.481400 -12.254400 5.600000
-18.008500 6.153230 101.650000 -11.988000 6.780000
-17.109800 7.244420 108.734000 -12.076800 4.700000
-17.807300 7.272720 109.058000 -12.076800 7.640000
-16.398400 7.301020 109.713000 -12.076800 5.370000
19.426900 1.117750 129.976000 -12.165600 5.690000
19.490000 1.529190 130.398000 -12.165600 5.210000
19.554300 1.125080 130.828000 -12.165600 7.010000
19.618000 1.128740 131.254000 -12.165600 5.870000
-62.600500 -14.924800 126.801000 -10.744800 4.920000
-62.810400 -14.531300 127.226000 -10.744800 6.610000
-62.979900 -15.015300 127.569000 -10.833600 6.730000
-63.064900 -17.155100 127.741000 -10.833600 5.400000
-8.463800 1.246020 146.256000 -12.254400 6.500000
-8.488700 1.249680 146.686000 -12.254400 7.900000
-8.513320 1.709090 147.112000 -12.254400 6.700000
-7.684900 2.171150 147.583000 -12.254400 11.920000
-8.563110 1.719090 147.972000 -12.254400 6.080000
-8.588270 1.264340 148.407000 -12.165600 11.260000
-7.842560 0.349822 150.611000 -12.254400 6.470000
-6.700610 0.350821 151.097000 -12.254400 6.090000
-6.719700 0.351820 151.527000 -12.254400 5.070000
-6.738790 0.352820 151.958000 -12.254400 5.560000
-6.757800 0.825575 152.387000 -12.254400 8.720000
20.357300 4.698820 194.943000 -12.254400 11.650000
20.402000 4.709150 195.372000 -12.254400 9.970000
20.446700 4.719480 195.800000 -12.254400 7.440000
5.464310 -0.708086 6.055460 -9.324000 4.440000
5.727220 -0.708086 5.807430 -9.057600 4.600000
5.751900 -0.745354 6.374160 -9.324000 5.480000
6.028650 -0.745354 6.113080 -9.057600 3.540000
5.974740 -0.782622 6.750750 -9.324000 2.670000
6.855330 1.185330 9.325040 -10.300800 7.040000
6.384770 -1.516540 10.124400 -10.744800 5.230000
7.109240 1.229240 9.670410 -10.300800 8.830000
6.450380 -1.570700 10.586700 -10.833600 6.410000
6.288610 -0.619447 11.277300 -10.922400 4.490000
6.857430 1.356800 10.873900 -10.656000 8.700000
6.408230 -0.640095 11.702900 -11.011200 5.300000
7.086010 1.402030 11.236400 -10.656000 8.040000
8.070030 -0.557554 10.630000 -10.034400 8.340000
7.152700 -1.075690 11.739400 -10.744800 8.670000
7.492510 1.447260 11.484700 -10.567200 8.630000
8.245530 -0.575540 11.036800 -10.123200 8.380000
7.472780 -1.021600 12.054600 -10.744800 8.280000
-7.988080 1.656390 11.646800 -10.123200 6.980000
-8.230140 1.706580 11.999700 -10.123200 8.970000
-7.665810 0.531636 14.459200 -10.744800 6.770000
7.487150 1.712150 14.947300 -11.188800 11.180000
-7.867540 0.545626 14.839700 -10.744800 7.640000
-8.069270 0.559617 15.220200 -10.744800 7.900000
-8.852560 0.359791 14.784500 -10.389600 10.100000
7.352490 1.756050 15.489900 -11.277600 7.480000
7.572460 -0.518994 15.953300 -11.277600 9.650000
8.219020 -0.923129 16.097400 -11.188800 10.910000
-7.423980 1.773710 16.883500 -11.100000 5.930000
-7.729550 1.814960 17.217000 -11.100000 4.900000
7.864320 1.756580 17.162000 -11.366400 7.500000
-7.905230 1.856210 17.608300 -11.100000 4.720000
8.043060 1.796500 17.552000 -11.366400 7.460000
-8.216900 1.958470 17.931400 -11.100000 5.590000
7.573240 2.063360 18.669300 -11.544000 4.710000
17.446600 1.678900 13.959300 -8.080800 6.990000
-6.946870 1.540660 21.246900 -11.632800 7.260000
17.782100 1.711190 14.227800 -8.080800 4.330000
-7.080460 1.570290 21.655500 -11.632800 6.510000
18.121700 1.671710 14.499500 -8.080800 6.320000
-7.077990 1.958680 22.079300 -11.632800 5.240000
18.461300 1.629550 14.771300 -8.080800 5.250000
-7.209070 1.994950 22.488100 -11.632800 3.320000
18.004600 1.938250 15.948400 -8.524800 4.050000
8.128090 2.086990 22.624200 -11.810400 5.830000
-7.340140 2.031220 22.897000 -11.632800 11.330000
18.329500 1.916070 16.236200 -8.524800 5.180000
-6.657240 2.124260 23.546300 -11.810400 8.270000
18.659800 1.795540 16.528700 -8.524800 12.470000
7.937000 1.409870 23.656400 -11.810400 6.630000
17.996300 1.434170 17.900000 -9.057600 9.270000
-7.091160 1.591150 24.362200 -11.721600 5.790000
18.294500 1.618120 18.196700 -9.057600 8.750000
-7.212710 1.538310 24.779800 -11.721600 5.300000
18.599500 1.645090 18.500000 -9.057600 5.520000
-7.114000 2.677980 25.161800 -11.721600 11.380000
18.900600 1.754510 18.799500 -9.057600 4.670000
18.358900 1.300840 19.955000 -9.412800 4.310000
8.832130 0.398783 25.666700 -11.810400 7.720000
18.451300 1.406670 20.447400 -9.412800 7.160000
8.972320 0.405112 26.074100 -11.810400 12.230000
9.112520 0.411442 26.481500 -11.810400 10.760000
6.612250 -1.692140 27.608200 -11.899200 12.120000
6.166170 -2.074150 28.127800 -11.899200 7.380000
18.896300 2.324630 24.496200 -10.123200 9.760000
9.173660 1.838190 33.178100 -11.988000 8.800000
9.483510 1.780320 33.542600 -11.988000 10.900000
18.823200 1.802300 29.848200 -10.656000 10.900000
6.825180 1.693160 34.627000 -12.076800 6.650000
19.052800 1.824280 30.212200 -10.656000 10.460000
9.520280 1.713800 34.431700 -11.988000 7.710000
19.282300 1.846260 30.576200 -10.656000 7.650000
9.164110 1.734450 34.973300 -11.988000 5.090000
19.511900 1.868240 30.940200 -10.656000 8.430000
9.273210 1.755100 35.389700 -11.988000 7.660000
19.499600 1.890220 31.455400 -10.656000 5.200000
19.239200 1.680580 32.131000 -10.833600 6.890000
19.457500 1.817040 32.495700 -10.833600 10.560000
19.678600 1.837690 32.865000 -10.833600 6.590000
19.343900 1.636690 34.069200 -10.922400 8.090000
19.556500 1.654680 34.443500 -10.922400 8.450000
19.442600 1.329090 35.999100 -11.011200 11.570000
19.647200 1.343080 36.378000 -11.011200 13.950000
19.849800 1.486260 36.753100 -11.011200 11.970000
-5.756030 1.371060 41.811600 -12.165600 5.970000
19.386400 1.516910 37.969300 -11.277600 6.000000
19.582200 1.532230 38.352800 -11.188800 11.940000
19.778000 1.547550 38.736300 -11.188800 10.220000
19.971600 1.698710 39.115400 -11.188800 15.210000
10.475000 1.354450 44.880200 -12.076800 10.720000
10.572900 1.367110 45.299600 -12.076800 13.990000
-21.988800 -1.524960 41.474900 -10.744800 8.730000
-20.969500 -1.685450 42.474800 -10.922400 7.350000
-22.201900 -0.256535 41.876900 -10.744800 10.440000
-20.821400 -2.144190 43.006700 -10.922400 4.740000
-23.934200 -0.554705 41.407100 -10.478400 7.770000
-21.942500 -0.858184 42.975500 -10.833600 13.710000
-23.502900 -0.559702 42.147400 -10.567200 14.400000
-21.806200 -0.414117 43.533900 -10.833600 10.600000
-8.855610 2.032370 47.836500 -11.988000 7.040000
-21.999200 -0.417782 43.919100 -10.833600 7.980000
-9.212790 2.050360 48.207400 -11.988000 6.380000
-9.293600 2.068350 48.630200 -11.988000 7.200000
-9.091840 1.931870 49.112600 -12.076800 7.440000
9.333810 0.277524 50.419700 -12.165600 7.130000
19.996600 1.506350 47.193300 -11.544000 4.870000
8.713360 -2.757290 50.893900 -12.165600 5.760000
20.164600 1.519010 47.589900 -11.544000 4.490000
20.332700 1.531670 47.986500 -11.544000 7.630000
20.078000 1.404460 49.495800 -11.632800 7.470000
20.241100 1.290890 49.897900 -11.632800 8.070000
20.403100 1.301210 50.297100 -11.632800 6.140000
-18.351700 1.301210 51.081300 -11.455200 10.100000
-19.195600 0.000000 51.247200 -11.277600 8.690000
11.304800 0.803895 53.537900 -12.165600 5.870000
-18.100000 1.311540 51.627700 -11.544000 8.140000
11.393900 0.810225 53.959400 -12.165600 9.150000
-29.642200 -1.332190 47.004000 -10.212000 7.000000
-29.872000 -1.342520 47.368400 -10.212000 5.960000
-21.380500 -0.307842 52.706500 -11.277600 11.530000
20.509700 1.373500 53.496400 -11.721600 8.470000
20.663900 1.383830 53.898700 -11.721600 7.300000
20.818100 1.394160 54.300900 -11.721600 7.120000
20.276000 1.232280 55.428300 -11.721600 7.250000
21.157400 2.000630 57.837900 -11.721600 11.120000
20.660400 2.028610 58.930900 -11.810400 7.630000
20.804900 1.848130 59.343000 -11.810400 5.800000
20.947400 1.860780 59.749400 -11.810400 7.790000
-18.866900 1.322230 60.452800 -11.632800 9.220000
-18.995300 1.331230 60.864000 -11.632800 7.040000
-19.123600 1.340220 61.275300 -11.632800 5.650000
-18.063700 -0.149924 62.059300 -11.721600 6.780000
-16.745300 -1.421170 65.975400 -11.810400 8.180000
-28.758300 1.683310 64.057200 -11.100000 9.240000
-28.936800 1.475140 64.454600 -11.100000 7.230000
21.571900 -0.601020 67.291900 -11.899200 12.140000
-29.113200 1.484140 64.847600 -11.100000 16.180000
21.704200 0.164916 67.704500 -11.899200 15.600000
21.835700 0.165915 68.114800 -11.899200 14.740000
21.967300 0.000000 68.525300 -11.899200 16.170000
22.495500 -0.839554 68.802100 -11.899200 12.950000
-17.420600 6.153230 101.752000 -12.076800 5.310000
-17.493200 6.178870 102.176000 -12.076800 5.850000
-17.559000 6.848240 102.560000 -12.076800 6.360000
-16.274500 6.903970 108.885000 -12.076800 7.600000
-16.338000 6.930930 109.310000 -12.076800 7.650000
-17.250200 6.614720 109.626000 -12.076800 5.610000
29.100800 2.222080 121.505000 -12.076800 7.030000
29.201100 2.229750 121.924000 -12.076800 5.240000
29.304200 1.459220 122.354000 -12.076800 7.050000
30.351500 0.683315 122.549000 -12.076800 7.630000
19.426300 1.524190 129.972000 -12.254400 8.110000
19.490000 1.529190 130.398000 -12.254400 6.200000
19.553700 1.534180 130.824000 -12.254400 5.150000
-61.697100 -13.174400 127.436000 -10.833600 6.020000
-61.866000 -13.653400 127.785000 -10.833600 5.710000
-62.014800 -14.575200 128.092000 -10.833600 6.150000
-62.201600 -14.619100 128.478000 -10.833600 5.810000
-8.463800 1.246020 146.256000 -12.254400 7.170000
-8.488700 1.249680 146.686000 -12.254400 7.700000
-8.513590 1.253350 147.116000 -12.254400 10.320000
-7.685450 1.257010 147.593000 -12.254400 8.630000
-8.563380 1.260680 147.977000 -12.254400 12.250000
-7.730260 1.264340 148.454000 -12.254400 9.910000
-7.864870 0.818579 151.039000 -12.254400 5.000000
-7.887280 0.820911 151.469000 -12.254400 8.590000
-7.909680 0.823243 151.900000 -12.254400 9.270000
-7.932090 0.825575 152.330000 -12.254400 5.760000
6.243570 2.134390 10.612000 -11.011200 9.750000
6.458860 2.207990 10.977900 -11.011200 8.700000
6.410100 2.281590 11.495100 -11.100000 8.970000
8.374660 1.402030 10.311800 -10.034400 4.720000
7.083580 -0.031984 11.830200 -10.922400 7.960000
8.562520 1.447260 10.710700 -10.034400 5.910000
7.362570 1.404990 12.083800 -10.922400 4.230000
-7.995760 1.536210 11.657900 -10.123200 6.060000
-7.886090 1.142920 12.294000 -10.300800 5.620000
-0.825016 1.575290 15.843800 2.042400 10.380000
-0.847049 1.668250 16.267000 2.042400 13.640000
-1.607080 1.815520 16.629300 2.042400 13.370000
-1.777320 2.060670 17.019800 2.042400 12.350000
-8.455030 -1.487150 15.440900 -10.744800 8.930000
7.204650 -1.636810 16.047800 -11.544000 11.410000
-8.659530 -1.565240 15.814300 -10.744800 5.640000
7.380370 -1.676740 16.439300 -11.544000 9.490000
-7.299820 1.602510 16.954600 -11.277600 4.160000
7.426150 -1.716660 16.888400 -11.544000 7.520000
-7.369180 1.639780 17.391700 -11.277600 3.990000
7.474830 1.479070 17.361000 -11.632800 6.210000
-8.148910 1.677050 17.515000 -11.188800 7.010000
-1.372690 -2.154440 19.221500 2.131200 3.490000
7.545460 1.393090 17.807800 -11.632800 4.030000
-1.402320 -2.308900 19.636500 2.042400 4.380000
7.487460 1.788850 19.197200 -11.810400 3.770000
-7.381540 1.613540 19.253700 -11.455200 4.340000
-7.554370 0.685530 19.704500 -11.455200 3.420000
-6.968920 1.714380 20.771000 -11.632800 3.420000
-7.105560 1.748000 21.178300 -11.721600 5.840000
17.793700 1.499820 14.237100 -8.169600 8.320000
7.694190 1.922410 21.416500 -11.899200 4.840000
-7.242210 1.781610 21.585600 -11.721600 4.250000
18.268300 1.528120 14.330400 -8.169600 5.670000
-7.220880 1.240780 22.085000 -11.632800 8.450000
18.602800 1.629550 14.592700 -8.169600 8.360000
17.861700 1.733620 16.131600 -8.702400 6.880000
18.180700 1.764580 16.419700 -8.702400 7.280000
18.499700 1.795540 16.707700 -8.702400 7.130000
18.818600 1.826490 16.995800 -8.702400 10.290000
18.290900 1.697910 18.193100 -9.235200 4.760000
-7.024820 1.318760 24.846400 -11.899200 5.590000
18.595800 1.726210 18.496300 -9.235200 9.210000
-6.800550 1.340730 25.354500 -11.988000 6.890000
18.900600 1.754510 18.799500 -9.146400 9.840000
8.690380 0.640279 25.254700 -11.988000 6.000000
18.170800 1.133090 20.136600 -9.590400 5.790000
8.832490 0.314833 25.667700 -11.988000 9.500000
18.451300 1.406670 20.447400 -9.590400 6.770000
8.972690 0.319830 26.075100 -11.988000 15.910000
18.739600 1.428650 20.766900 -9.590400 10.090000
8.908780 0.238209 26.552800 -11.988000 17.240000
-12.562500 1.867700 25.445900 -14.208000 8.960000
-12.750100 1.985090 25.826100 -14.208000 10.720000
8.389360 -3.207730 27.437600 -0.799200 9.620000
-12.940400 2.014720 26.211600 -14.208000 10.530000
9.049530 -3.255600 27.677900 -0.710400 11.050000
-12.522000 1.677250 26.914400 -14.385600 8.760000
8.257890 -3.303480 28.370600 -0.799200 8.470000
-12.703500 1.701560 27.304400 -14.385600 6.980000
18.638100 2.197980 24.161500 -10.212000 10.240000
18.900600 2.228940 24.501800 -10.212000 12.070000
-15.710100 1.654370 26.702000 -12.698400 9.290000
8.583260 1.769260 32.001000 -12.165600 10.900000
8.694730 1.792240 32.416600 -12.165600 4.950000
18.817000 0.500061 28.363100 -10.656000 8.700000
8.619870 1.526040 32.896300 -12.165600 5.730000
19.054300 0.612989 28.720700 -10.656000 12.830000
8.921400 1.545360 33.261700 -12.165600 6.920000
19.292400 0.620651 29.079700 -10.656000 12.430000
9.025990 2.076710 33.651600 -12.165600 10.820000
18.826100 1.693160 29.852800 -10.833600 7.590000
9.399710 2.102350 33.995600 -12.165600 11.600000
19.058400 1.603310 30.221200 -10.833600 6.610000
19.051700 1.622630 30.733000 -10.833600 13.860000
19.278500 1.641950 31.098900 -10.833600 15.610000
19.244100 1.448900 32.139300 -11.011200 6.640000
19.462900 1.582730 32.504700 -11.011200 10.790000
-15.511400 -11.373600 32.678800 -24.420000 5.690000
19.684100 1.600720 32.874100 -11.011200 12.870000
16.297000 1.189890 37.062300 -10.744800 10.260000
-6.526580 0.595009 39.970900 -12.254400 7.020000
19.164500 1.329090 36.147900 -11.277600 8.960000
18.113600 1.202550 36.690100 -10.833600 8.370000
-6.362390 0.601339 40.433600 -12.254400 7.350000
19.364200 1.470940 36.524500 -11.277600 9.980000
19.565900 1.486260 36.905000 -11.277600 10.820000
19.767600 1.501590 37.285500 -11.277600 14.050000
19.627700 1.989650 39.757000 -11.455200 8.870000
19.820900 1.870500 40.148400 -11.455200 13.070000
20.011500 1.888490 40.534400 -11.455200 8.070000
-9.689130 2.014390 47.235200 -12.165600 8.710000
-10.051000 2.032370 47.599700 -12.165600 9.420000
-10.509700 2.050360 47.941300 -12.165600 9.110000
-9.011140 2.221460 48.676600 -12.254400 7.030000
10.114400 -2.844040 49.308300 -12.254400 9.600000
10.202600 -2.711330 49.738200 -12.254400 11.280000
-19.780000 -2.637510 47.702300 -11.366400 5.900000
-20.315000 -2.659490 47.944700 -11.366400 6.200000
-18.415900 -2.681470 49.165500 -11.455200 8.900000
20.079200 1.280560 49.498700 -11.721600 6.870000
20.242500 1.124350 49.901300 -11.721600 5.120000
-30.371500 0.300845 46.554200 -10.212000 6.160000
20.358100 1.011430 53.101100 -11.899200 10.660000
20.512300 1.019090 53.503400 -11.810400 7.020000
20.666500 1.026760 53.905600 -11.810400 7.460000
20.401600 1.034420 54.466800 -11.810400 7.400000
20.859300 2.160440 57.023000 -11.899200 6.440000
21.007300 2.175770 57.427400 -11.899200 8.530000
-12.715800 -2.952700 60.220000 -12.076800 9.160000
21.157400 2.000630 57.837900 -11.899200 7.200000
-12.804700 -2.973350 60.641200 -12.076800 7.900000
20.662400 1.835470 58.936500 -11.899200 9.980000
20.806700 1.653630 59.348100 -11.988000 6.200000
-18.737300 1.507750 60.037400 -11.810400 11.320000
-18.865600 1.518080 60.448600 -11.810400 8.510000
-18.993900 1.528410 60.859800 -11.810400 8.160000
-19.122300 1.538740 61.271000 -11.810400 8.900000
-28.583900 1.457150 63.668600 -11.277600 6.870000
-28.760300 1.466150 64.061600 -11.277600 7.220000
-28.936800 1.475140 64.454600 -11.277600 6.840000
-29.113200 1.484140 64.847600 -11.277600 6.950000
22.094400 0.604685 67.575600 -12.076800 7.430000
22.227600 0.829559 67.983100 -11.988000 12.440000
21.967300 0.000000 68.525300 -12.076800 6.770000
17.228400 2.447520 100.630000 -12.343200 6.800000
17.301100 2.457850 101.054000 -12.343200 6.110000
-17.413900 6.791650 101.713000 -12.254400 7.530000
-17.486400 6.819950 102.137000 -12.254400 7.050000
-17.559000 6.848240 102.560000 -12.254400 7.720000
-16.271200 7.244420 108.863000 -12.254400 7.840000
-16.334800 7.272720 109.288000 -12.254400 8.560000
-16.398400 7.301020 109.713000 -12.254400 5.450000
30.040700 0.676319 121.294000 -12.254400 6.750000
29.204700 1.066440 121.939000 -12.254400 4.980000
29.305100 1.070110 122.358000 -12.254400 7.560000
29.405400 1.073770 122.777000 -12.254400 7.720000
20.426600 1.930610 129.813000 -12.432000 7.890000
20.492600 2.344680 130.232000 -12.432000 4.660000
20.558300 2.761390 130.650000 -12.432000 8.090000
19.614400 2.770390 131.231000 -12.432000 11.310000
-62.659100 -13.612200 126.919000 -10.922400 7.340000
-62.885200 -12.775000 127.377000 -10.922400 5.540000
-62.088600 -12.813600 128.244000 -10.922400 4.480000
-9.309290 0.792926 146.208000 -12.432000 5.840000
-8.488880 0.795258 146.689000 -12.432000 5.590000
-8.513770 0.797590 147.120000 -12.432000 6.180000
-7.684900 2.171150 147.583000 -12.432000 10.150000
-8.562760 2.177480 147.966000 -12.432000 9.910000
-8.587650 2.183810 148.396000 -12.432000 4.860000
-7.864960 0.350821 151.041000 -12.432000 6.660000
-7.887280 0.820911 151.469000 -12.432000 8.920000
-7.909680 0.823243 151.900000 -12.432000 8.200000
-7.932190 0.353819 152.332000 -12.432000 6.240000
