VERSION .7
FIELDS x y z velocity SNR
SIZE 4 4 4 4 4
TYPE F F F F F
COUNT 1 1 1 1 1
WIDTH 197
HEIGHT 1
VIEWPOINT 0 0 0 1 0 0 0
POINTS 197
DATA ascii
-1.07536484701233 2.81549723507014 -0.876453678436169 0 5.3638727285489
-0.966746396045732 2.80560876443254 -1.02252929150886 0 5.3638727285489
-0.59800898142212 3.02532331953251 -0.584302452290779 0 5.3638727285489
0.072859618407325 3.13022140920966 -0.219113419609042 0 5.3638727285489
0.826265938444345 2.84129233683164 1.04687522702098 0 5.3638727285489
-8.22651141555792 7.72171681769976 -0.613517574905318 2.47543531666763 5.00773812886474
-7.87644710000226 8.07848882922531 -0.613517574905318 2.47543531666763 5.00773812886474
-8.5552791030275 7.84873532681231 -0.270239884184486 2.32072060937591 5.56673945868663
-8.46114584367234 7.94195362502443 -0.450399806974142 2.47543531666763 6.13740407031274
6.84525322417028 9.37968693801992 0.180159922789656 2.47543531666763 6.13740407031274
7.20222874056042 9.47825454103086 0.740116439568321 1.85657648750073 5.69423828297247
-0.924449517134988 11.8822809190152 -0.4625727747302 2.32072060937591 7.17452484483162
6.93671278623852 9.6985651286873 -0.277543664838121 2.32072060937591 7.17452484483162
7.67847706124213 9.12631422849046 -0.0925145549460397 2.32072060937591 7.17452484483162
7.09269478805262 9.52461931991556 1.11017465935248 2.47543531666763 6.62816248455201
7.12019114827588 9.56154355980403 0.370058219784161 2.63015002395936 5.29699241769219
7.08488976834839 9.90573877935595 1.23433893046427 1.85657648750073 5.18888593146645
7.40246803590404 9.74177283220857 0.379796593989007 1.85657648750073 5.18888593146645
7.0253914669116 10.0225111505644 -0.189898296994503 2.32072060937591 6.29965376650617
7.78559595493099 9.44554904044787 -0.0949491484972513 2.32072060937591 6.29965376650617
-8.50211649089697 11.6499986755211 -0.671947820134396 -0.309429414583454 7.30016427663063
-8.51031481923872 11.6612324094302 -0.223982606711465 -0.154714707291727 7.59913786669788
-8.69401335875227 11.9129447617979 -0.343277690720834 -0.154714707291727 7.60198360953372
-8.5809095359887 11.9973988491007 -0.228851793813888 0 8.9206567645657
-12.7611175923679 8.57687815237655 -0.357885252028103 3.24900885312627 12.8700754694878
-13.0188047311264 8.75007232401307 -0.486918710242317 3.09429414583454 5.06972921690575
-13.0215485636407 8.75191648201689 -0.365189032681738 3.24900885312627 11.7234940557062
-13.0246836644405 8.75402361545255 -0.121729677560579 3.86786768229318 7.12187171672528
-8.52366738284376 13.4529518815226 1.61413552445328 -0.928288243750363 5.23830014876415
-8.055124249311 13.7974111253254 0.993314168894326 -0.928288243750363 5.23830014876415
-9.61427497820387 13.1739303833455 -0.632994323315011 -1.08300295104209 6.13424455177967
-7.84700421853789 14.3062114571449 0.379796593989008 -1.08300295104209 6.13424455177967
-2.7450390621651 15.1399385912557 5.44375118050909 -1.08300295104209 6.13424455177967
-8.22669797104778 14.0912952547114 0.379796593989008 -0.928288243750363 6.41731447129865
5.57018247182054 15.3409402212899 0.126598864663002 -0.928288243750363 6.41731447129865
6.68711572919795 14.828232969072 3.48390337178377 -0.773573536458636 5.38676746344793
7.57417104465826 14.7156290187238 1.67743495678478 -0.773573536458636 5.38676746344793
7.5800542992793 15.0475231386265 1.84055272471596 -0.773573536458636 5.63516704931374
6.84600681932043 15.1805633602987 3.15523324237021 -0.618858829166909 7.1180347661624
7.7229410781735 15.0046698404064 1.5776166211851 -0.618858829166909 7.1180347661624
6.97517675930761 15.1216474791155 3.15523324237021 -0.464144121875182 6.33865223655105
-7.98055686954898 17.6963524001691 -1.35850320157606 1.23771765833382 5.01902474381547
0.152193611476368 19.6205145152609 -2.45407029962127 1.23771765833382 23.599711800112
0.152193611476368 19.6205145152609 -2.45407029962127 1.39243236562554 24.6129796436737
0 19.9325508863557 -2.49302379644066 1.23771765833382 100.24318343292
0 19.9325508863557 -2.49302379644066 1.39243236562554 100.482760663007
0 19.9514210720623 -2.33720980916312 1.54714707291727 6.17128824890917
-0.62869524290077 20.2534065676907 -2.37372871243129 1.23771765833382 87.4161939967815
0.473014511696714 20.3218213839979 -1.74073438911628 1.23771765833382 87.4161939967815
0.315887225463175 20.3599560734358 -1.26598864663002 1.39243236562554 90.810937453553
0.300065710695426 19.3402081389815 6.48819181397886 1.54714707291727 8.99047373309
-0.479592538165123 20.604428948131 -2.08888126693953 1.23771765833382 43.5625094950221
0.160199067724029 20.6525628974816 -1.60683174379964 1.23771765833382 43.5625094950221
0.160097219343502 20.6394327955733 -1.76751491817961 1.39243236562554 55.2250978182546
0.159864179388373 20.6093897222939 -2.08888126693953 1.54714707291727 7.19876506794753
-0.324572727849122 20.9197648684712 -2.12053098310528 1.23771765833382 11.4255709347287
0.643756909278723 20.738617894139 -3.42547312655469 1.23771765833382 11.4255709347287
0 20.8866439348152 -2.44676651896764 1.39243236562554 14.8985640290934
0.643756909278723 20.738617894139 -3.42547312655469 1.39243236562554 14.8985640290934
-0.330296936779872 21.288708697125 -1.48997125334149 1.39243236562554 5.63543028642549
6.78233987628514 22.6380776244374 5.06151999296887 -1.85657648750073 6.84239845362984
7.66726051039749 22.8575641699553 -1.68717333098963 -1.85657648750073 6.84239845362984
6.14428697004175 23.2043599560955 2.81195555164938 -1.701861780209 5.07494400413806
7.24873448146585 22.2100695790353 6.18630221362862 -1.701861780209 5.07494400413806
8.00639621839381 22.0505605329293 5.81137480674204 -1.701861780209 5.07494400413806
6.8262541533353 23.4735364399184 -1.32928807896152 -2.01129119479245 13.2111188065301
8.14989041694995 23.0356902328928 1.51918637595603 -2.01129119479245 13.2111188065301
6.88186922918502 22.9702864576656 -4.93735572185709 -1.85657648750073 6.15303908865916
7.7743450079652 23.1768034564569 -1.32928807896152 -1.85657648750073 6.15303908865916
-9.01765080431503 23.609820403666 2.76082908707393 -2.16600590208418 24.8380838787061
-3.93215893504436 25.0402292908159 1.97202077648138 -2.16600590208418 24.8380838787061
-2.91852479393152 24.9137740414633 4.1412436306109 -2.16600590208418 24.8380838787061
6.81851389654481 24.172633849895 3.94404155296276 -2.16600590208418 24.8380838787061
8.84173279556163 23.7377769841864 2.16922285412952 -2.16600590208418 24.8380838787061
-9.00116502160237 23.5666576800802 3.15523324237021 -2.01129119479245 18.2829653546191
-3.92965902024962 25.0243096800622 2.16922285412952 -2.01129119479245 18.2829653546191
-2.91464404693173 24.880646327741 4.33844570825904 -2.01129119479245 18.2829653546191
8.78717402350254 23.5913007228455 3.54963739766648 -2.01129119479245 18.2829653546191
6.91098619947092 24.5004617540109 3.79309675278764 -2.32072060937591 18.372238667274
8.37565480396143 24.3071095190761 1.1978200271961 -2.32072060937591 18.372238667274
6.92627048558287 24.5546467945412 3.39382341038894 -2.16600590208418 144.913624788306
8.37843193950762 24.3151690845012 0.998183355996748 -2.16600590208418 144.913624788306
6.92627048558287 24.5546467945412 3.39382341038894 -2.01129119479245 80.1616236514099
8.37565480396143 24.3071095190761 1.1978200271961 -2.01129119479245 80.1616236514099
-11.7771461943584 22.8814629711431 0.399273342398698 -1.54714707291727 5.56911425774448
7.44417829600465 24.8471602999951 2.42485517700673 -2.32072060937591 21.9432343341307
8.27270045719374 24.662495985717 1.41449885325393 -2.32072060937591 21.9432343341307
7.44937213036208 24.8644962677432 2.22278391225617 -2.16600590208418 215.446906116393
8.27594462772379 24.6721674760711 1.21242758850337 -2.16600590208418 215.446906116393
6.99526651897666 24.7992478729622 3.83935403026066 -2.01129119479245 103.789272981413
8.27270045719374 24.662495985717 1.41449885325393 -2.01129119479245 103.789272981413
-12.9228311447922 22.5977145616112 1.01035632375281 -1.54714707291727 8.30382391683267
-11.9218459635075 23.1625957986616 0.202071264750561 -1.54714707291727 8.30382391683267
-12.9134836404975 22.5813688993064 1.41449885325393 -1.39243236562554 6.18234559913747
-12.1228168763755 23.0553912979921 0.404142529501121 -1.39243236562554 6.18234559913747
7.32468603743095 25.1875011900325 2.65857615792304 -2.16600590208418 35.4550740114907
8.37237154703944 24.959634491569 1.43154100811241 -2.16600590208418 35.4550740114907
7.32468603743095 25.1875011900325 2.65857615792304 -2.01129119479245 19.1401838438086
8.37237154703944 24.959634491569 1.43154100811241 -2.01129119479245 19.1401838438086
-13.0690677807445 22.8534335848402 1.43154100811241 -1.54714707291727 8.77206876330809
-11.6554311654791 23.6455683521196 0.409011716603544 -1.54714707291727 8.77206876330809
-13.0631517237695 22.8430883775591 1.63604686641418 -1.39243236562554 10.1490864252603
-12.2699823679963 23.3352732783501 0.204505858301772 -1.39243236562554 10.1490864252603
15.2956625576444 25.1453440085362 2.059666144325 0.928288243750363 8.3134296535824
15.2575524605912 25.601925232781 0.925145549460402 0.773573536458636 5.07995124262232
15.2575524605912 25.601925232781 0.925145549460402 0.928288243750363 18.8663159318097
15.2534170327273 25.5949860519884 1.1564319368255 1.08300295104209 5.67737740648029
15.4139793172823 25.8644069577988 1.16860490458156 0.928288243750363 7.20369035966819
18.3008693783899 25.0767093402449 4.625727747302 2.63015002395936 11.1024125452166
19.5048739427576 24.1520819768638 4.625727747302 2.63015002395936 11.1024125452166
25.7347790804337 17.2966092392423 4.86918710242316 2.63015002395936 11.1024125452166
18.3008693783899 25.0767093402449 4.625727747302 2.78486473125109 6.3242540728791
19.4568319595435 24.0925935679499 5.11264645754432 2.78486473125109 6.3242540728791
25.7949964475932 17.3370819499627 4.38226839218084 2.78486473125109 6.3242540728791
-23.7647342107318 20.8058534825109 2.70483343539607 2.47543531666763 6.18963088535315
-22.3332268402466 22.4124864457776 1.96715158937896 2.47543531666763 6.18963088535315
-23.7301419010288 20.7755681647404 3.1966213327408 2.63015002395936 46.3163714597425
-22.3217584260574 22.4009773307085 2.21304553805133 2.63015002395936 46.3163714597425
-23.9551013583226 20.4759483933076 3.44251528141318 2.78486473125109 24.4843714859238
-22.308933809872 22.388107200544 2.4589394867237 2.78486473125109 24.4843714859238
-23.9832953632921 20.9972021959791 2.97994250668297 2.63015002395936 34.4815871454389
-22.7904886378112 22.3731895195826 2.23495688001223 2.63015002395936 34.4815871454389
-23.7677162296015 21.304693675942 2.48328542223581 2.78486473125109 18.6458673587759
-22.7904886378112 22.3731895195826 2.23495688001223 2.78486473125109 18.6458673587759
16.2652023335041 30.2846462677472 3.21366348759928 -0.309429414583454 5.9253448287922
15.4914623525452 33.5843005438662 5.2148993866952 -0.773573536458636 6.7661188845798
15.1086508425255 33.5024252030112 6.66348254966609 -0.618858829166909 12.9124784852219
16.717917668766 33.1875265028547 3.76631622372431 -0.618858829166909 12.9124784852219
15.5447682503026 33.6998636359942 6.42732697519857 -0.773573536458636 7.17325911251717
15.2772162052712 33.876207648318 6.13517574905318 -0.618858829166909 14.2805286972343
16.8712083816973 33.4918311237318 3.50581471374467 -0.618858829166909 14.2805286972343
-34.6588255762336 21.8912778576818 3.18931755208717 4.79615592604354 5.0217239501747
-34.9772595292693 22.0924077583443 2.2495644413195 4.64144121875182 7.07777440573212
-34.9909759928563 22.1010713789551 1.92819809255957 4.79615592604354 7.36968795663662
-10.514814064149 45.5465489588499 1.4510177565221 -3.24900885312627 5.51639642875663
-10.1375500356336 45.562738707746 2.90203551304421 -3.09429414583454 5.75744254849673
7.06371618979209 53.1009679924042 6.70000145293427 -3.09429414583454 5.29512483899009
9.61269126101789 53.0176628064894 3.35000072646714 -3.09429414583454 5.29512483899009
8.08598804715451 64.6501523356829 7.63245078304831 -3.24900885312627 12.2305436564091
10.1655740652029 64.7349991875598 3.05298031321932 -3.24900885312627 12.2305436564091
8.08598804715451 64.6501523356829 7.63245078304831 -3.09429414583454 15.0140487293679
10.1655740652029 64.7349991875598 3.05298031321932 -3.09429414583454 15.0140487293679
8.12467698517917 64.9594832081025 7.66896968631648 -3.24900885312627 22.8274097396747
11.2312301240773 64.8506685807092 3.57885252028102 -3.24900885312627 22.8274097396747
8.12467698517917 64.9594832081025 7.66896968631648 -3.09429414583454 30.9044306226085
11.2312301240773 64.8506685807092 3.57885252028102 -3.09429414583454 30.9044306226085
8.11699261207299 64.8980441002258 8.18023433207091 -2.93957943854282 5.45923688406835
11.2261460126144 64.8213122213555 4.09011716603546 -2.93957943854282 5.45923688406835
11.2796038507697 65.1299851366953 4.10959391444515 -3.24900885312627 5.81557417401219
8.15564495784477 65.207082405465 8.21918782889029 -3.09429414583454 9.33676904976916
10.7717707099105 65.2462388673593 3.5958946751395 -3.09429414583454 9.33676904976916
-34.0898251623027 62.1506289185952 7.18448556962537 -3.403723560418 13.4584923255564
-16.7802196000606 67.737660027835 14.3689711392507 -3.403723560418 13.4584923255564
8.23348962337354 70.2845836622604 8.28979104187543 -3.403723560418 13.4584923255564
-34.0317571099439 62.0447625506397 8.28979104187543 -3.24900885312627 10.9721708601075
-21.935206225483 67.2093118797676 8.84244377800046 -3.24900885312627 10.9721708601075
-16.6619351283132 67.2601744212836 16.5795820837509 -3.24900885312627 10.9721708601075
8.22570233455611 70.2181080392346 8.84244377800046 -3.24900885312627 10.9721708601075
-33.9652720606597 61.9235507929663 9.39509651412549 -3.09429414583454 7.22266135968373
-21.8647228889184 66.9933514506385 10.5004019863755 -3.09429414583454 7.22266135968373
-16.5960937145161 66.9943886681866 17.6848875560009 -3.09429414583454 7.22266135968373
8.26193890871715 70.5274389116541 8.88139727481984 -3.403723560418 37.0732052847487
11.6396384922256 70.5030448424546 3.88561130773368 -3.403723560418 37.0732052847487
7.73161303951045 70.7771717636844 7.21613528579112 -3.24900885312627 28.5249627237469
11.6343695039822 70.4711297864464 4.44069863740993 -3.24900885312627 28.5249627237469
7.72526606746473 70.7190699512471 7.77122261546737 -3.09429414583454 27.1783289677617
11.628395097809 70.4349419077064 4.99578596708617 -3.09429414583454 27.1783289677617
7.76552362301708 71.0875979556304 7.24778500195687 -3.403723560418 20.3583851959641
11.133990036423 70.9019314934038 3.90265346259216 -3.403723560418 20.3583851959641
8.28980457072375 70.7653121029978 9.47787269486668 -3.24900885312627 17.5445393182475
11.1289499432411 70.8698358708706 4.46017538581962 -3.24900885312627 17.5445393182475
7.7522959566918 70.9665085003314 8.36282884841178 -3.09429414583454 12.4004556947563
11.1232350768516 70.8334432511611 5.01769730904707 -3.09429414583454 12.4004556947563
-6.20923148625749 7.68863558459955 -1.79186085369172 -0.31146513441624 6.73486647941521
-6.23406984826954 7.71939190516058 -1.55813987277541 -0.20764342294416 8.11196945343547
-7.11383009563568 6.98357422120866 -2.81195555164938 -0.31146513441624 6.61330685347
-7.95627033007987 18.049998113493 -1.38041454353697 0.5191085573604 17.6472356943965
-7.96035808167204 18.059271793932 -1.22703514981064 0.62293026883248 14.7547923762033
0.154287829219249 19.8904971329523 -2.80465177099574 0.5191085573604 103.989730115105
0.154287829219249 19.8904971329523 -2.80465177099574 0.62293026883248 95.063074790268
0.154287829219249 19.8904971329523 -2.80465177099574 0.726751980304561 9.99166514018149
0.1568667531578 20.2229671629309 -2.6902258740888 0.5191085573604 197.231532703498
0.1568667531578 20.2229671629309 -2.6902258740888 0.62293026883248 210.748654203198
0.1568667531578 20.2229671629309 -2.6902258740888 0.726751980304561 21.788261078674
0.318560175643532 20.5322363806839 -2.73161396445939 0.5191085573604 80.5751813718064
0.318881852617152 20.5529695048017 -2.57093079007943 0.62293026883248 101.271142047551
0.319183738703466 20.5724270420526 -2.41024761569947 0.726751980304561 9.3518559778391
-0.488631440463105 20.9927615541395 -1.14182437551823 0.5191085573604 11.1990205546353
0.642003872807489 20.6821438540046 3.75170866241704 0.5191085573604 11.1990205546353
-0.488823059116217 21.0009939443645 -0.978706607587055 0.62293026883248 14.0529628533985
0.162286363924561 20.9216532029347 -2.12053098310528 0.62293026883248 14.0529628533985
0.641065628084514 20.6519183161959 3.91482643034822 0.62293026883248 14.0529628533985
0.164573337276817 21.21648551172 -2.31773306075343 0.62293026883248 5.49499845956756
5.17346377350794 22.4096612274224 3.24287861021382 -2.18025594091368 5.06919424042808
10.4379530832179 20.720872745536 1.08095953673794 -2.18025594091368 5.06919424042808
16.7855266297092 22.5409038468129 -5.09560430268584 -1.0382171147208 5.74449295991997
18.5855223984973 22.0899686430652 0.671947820134398 -1.14203882619288 8.08556303816019
