VERSION .7
FIELDS x y z velocity intensity
SIZE 4 4 4 4 4
TYPE F F F F F
COUNT 1 1 1 1 1
WIDTH 987
HEIGHT 1
VIEWPOINT 0 0 0 1 0 0 0
POINTS 987
DATA ascii
7.486470 -1.384470 15.463400 -9.412800 5.310000
6.623840 1.269260 16.328900 -9.679200 9.430000
-8.356870 1.691210 15.473300 -8.880000 6.910000
14.091900 -1.269260 10.579600 4.528800 5.080000
6.785400 1.300220 16.727200 -9.679200 10.080000
7.269050 1.188540 16.531100 -9.501600 8.930000
-8.560700 1.732460 15.850700 -8.880000 7.410000
7.442130 1.216840 16.924700 -9.501600 8.590000
-8.606800 2.385810 16.234000 -8.968800 6.620000
-8.990230 1.602510 16.122000 -8.791200 5.950000
6.626780 1.975560 18.115600 -9.856800 3.870000
-8.623600 1.118170 17.812100 -9.146400 4.640000
-8.811070 1.142480 18.199300 -9.146400 8.360000
6.662760 2.128770 20.378000 -9.856800 5.730000
7.115600 2.171340 20.678300 -9.856800 3.320000
13.850200 0.526681 17.053900 -8.169600 4.780000
7.122780 0.796759 21.229600 -9.856800 7.550000
14.121800 0.537008 17.388300 -8.169600 7.360000
7.256000 1.094360 21.626700 -9.856800 7.200000
13.892900 2.045550 18.010100 -8.347200 10.180000
7.216990 1.456310 22.073100 -9.856800 7.950000
14.331200 2.084140 18.212700 -8.347200 8.520000
17.380300 1.528120 15.395400 -7.192800 9.450000
6.299560 1.702660 22.783400 -9.945600 7.610000
17.702100 1.556420 15.680500 -7.192800 5.280000
6.424240 -1.081750 23.234400 -9.945600 4.960000
17.938800 7.380000 14.353200 -7.192800 8.570000
8.113010 -1.385560 23.141200 -9.945600 9.020000
18.700700 7.511780 14.039700 -7.192800 7.350000
7.932500 -1.641310 23.643000 -9.856800 11.080000
8.058030 -2.140040 24.017100 -9.856800 6.620000
6.677370 -2.016920 24.895300 -10.034400 14.480000
8.198730 -2.016920 24.436500 -9.856800 14.450000
-14.270200 1.458480 21.509600 -12.076800 11.280000
6.642240 -2.050540 25.349000 -10.034400 11.150000
-14.508000 1.482790 21.868100 -12.076800 7.000000
17.862900 1.672050 19.795300 -7.903200 6.070000
19.084600 1.672050 18.620300 -7.903200 5.860000
18.151000 1.699020 20.114600 -7.903200 8.950000
6.254590 1.811110 26.797800 -10.034400 9.110000
-7.938940 1.362780 27.274800 -9.768000 10.100000
-8.060380 1.294240 27.692000 -9.768000 7.750000
-8.935780 1.313560 27.874500 -9.679200 7.670000
17.756500 1.952600 23.767400 -8.436000 6.430000
-18.421200 0.443092 23.880300 -10.123200 6.160000
18.013900 1.980900 24.111900 -8.436000 8.040000
7.753930 0.449422 29.591600 -10.034400 10.200000
18.271200 2.009200 24.456400 -8.436000 6.260000
7.863140 0.455751 30.008400 -10.034400 5.620000
18.528500 2.037490 24.800800 -8.436000 13.960000
7.972350 0.462081 30.425100 -10.034400 12.750000
8.081890 0.369803 30.843200 -10.034400 13.020000
5.345650 -0.692597 32.738500 -10.123200 7.810000
6.498290 -0.701592 32.968600 -10.123200 5.890000
5.025510 1.736360 33.623300 -10.212000 5.760000
7.833920 -0.612989 33.564500 -10.123200 7.810000
6.550600 -0.620651 34.277100 -10.123200 6.710000
-8.022960 1.584000 34.374400 -9.945600 7.820000
-12.977300 1.907120 33.272600 -13.586400 8.640000
-6.377080 2.358740 39.055400 -10.123200 9.210000
-6.218080 2.384380 39.516500 -10.123200 7.730000
-6.284940 2.410010 39.941400 -10.123200 9.200000
18.669800 2.159870 35.880300 -9.324000 8.360000
-6.351800 2.435650 40.366300 -10.123200 7.900000
18.868400 2.182850 36.262000 -9.324000 8.850000
-6.418660 2.461290 40.791200 -10.123200 13.030000
19.069400 2.110010 36.648100 -9.324000 13.750000
19.268000 2.131990 37.029900 -9.324000 10.860000
19.157300 2.903560 37.520500 -9.324000 6.620000
19.060000 2.933190 38.051400 -9.324000 5.750000
19.453000 2.723830 38.835900 -9.324000 5.750000
19.386000 0.395794 42.305300 -9.501600 6.870000
19.564900 0.544710 42.695700 -9.501600 7.140000
-22.935400 -2.698190 41.885400 -8.791200 8.490000
-24.360000 -1.166960 42.143900 -8.702400 9.020000
-24.902600 -1.177290 42.326200 -8.702400 8.150000
-25.088200 -2.795420 42.641700 -8.702400 9.830000
-26.754100 -0.421447 41.708400 -8.436000 7.890000
-25.306400 -2.819730 43.012500 -8.702400 7.890000
-26.886600 -4.323050 41.914900 -8.436000 11.680000
-25.189400 -2.844040 43.578700 -8.702400 9.000000
-27.118400 -4.360320 42.276300 -8.436000 9.040000
20.644200 2.725570 52.930000 -9.768000 14.300000
19.969400 2.248290 54.590200 -9.768000 6.150000
20.117300 2.264950 54.994600 -9.768000 10.130000
20.265200 2.281600 55.399000 -9.768000 6.820000
20.413200 2.298260 55.803300 -9.768000 7.200000
20.389600 1.585680 56.753600 -9.768000 8.540000
20.535300 1.597000 57.159000 -9.768000 17.250000
10.671600 1.277260 60.236500 -10.212000 16.500000
10.747400 1.095720 60.664300 -10.212000 10.870000
10.821900 1.295250 61.084900 -10.212000 6.740000
10.541300 1.304240 61.571000 -10.212000 7.270000
20.650500 2.800970 58.902700 -9.856800 7.360000
9.297740 1.313240 62.206700 -10.212000 13.180000
20.792900 2.820280 59.308900 -9.856800 16.330000
9.554550 0.000000 63.924900 -10.212000 5.850000
21.003800 3.296890 61.038100 -9.856800 7.660000
20.485100 1.172340 62.653400 -9.856800 5.890000
20.617700 1.385190 63.059100 -9.856800 7.520000
20.751600 1.394190 63.468600 -9.856800 7.140000
20.270300 2.420920 64.949500 -9.945600 6.150000
20.901800 2.436250 65.201400 -9.945600 5.790000
21.033200 2.451570 65.611500 -9.945600 10.160000
20.789500 1.834850 66.612900 -9.945600 12.750000
10.916500 1.031770 69.375500 -10.212000 10.920000
20.914000 2.280440 67.011900 -9.945600 8.090000
10.982900 1.256630 69.797600 -10.212000 10.930000
21.042300 2.294430 67.423000 -9.945600 9.610000
21.168400 2.528180 67.827000 -9.945600 6.750000
21.032000 2.113950 68.785700 -9.945600 6.650000
21.157900 2.126610 69.197600 -9.945600 12.660000
21.283900 2.139270 69.609500 -9.945600 7.090000
21.405500 2.604790 70.007300 -9.945600 13.290000
21.531400 2.620110 70.419100 -9.945600 9.440000
21.113000 2.406350 71.003200 -9.945600 11.790000
21.785600 2.420340 71.250200 -9.945600 14.480000
21.909200 2.666080 71.654500 -9.945600 12.770000
21.665100 2.518270 74.432200 -9.945600 6.130000
21.785500 2.532260 74.845700 -9.945600 6.930000
22.340500 2.546260 75.131300 -9.945600 7.480000
22.026200 2.560250 75.672700 -9.945600 7.760000
21.563400 2.084030 76.268500 -10.034400 7.180000
21.680600 2.095360 76.683000 -10.034400 10.200000
21.797800 2.106680 77.097500 -10.034400 13.000000
21.917800 1.682020 77.521900 -10.034400 11.640000
22.034200 2.941880 79.690400 -10.034400 6.240000
22.153400 2.443070 80.121500 -10.034400 8.540000
22.268200 2.455730 80.536700 -10.034400 12.460000
21.758400 2.468390 81.121900 -10.034400 11.790000
22.934200 1.329280 87.524400 -10.034400 7.320000
23.043400 1.335600 87.941200 -10.034400 6.790000
22.470900 1.341930 88.533800 -10.034400 5.790000
22.577800 1.064430 88.955000 -10.034400 6.860000
22.789800 1.074430 89.790200 -10.034400 5.390000
22.893700 1.655070 90.199700 -10.034400 8.820000
22.999700 1.662730 90.617300 -10.034400 13.450000
22.683800 1.386240 91.589700 -10.034400 13.700000
22.787400 1.392570 92.007900 -10.034400 9.500000
22.891000 1.398900 92.426100 -10.123200 5.900000
18.675900 -0.304844 130.090000 -10.212000 6.710000
-54.524100 -13.872800 123.998000 -9.235200 5.080000
-54.696600 -13.916700 124.390000 -9.235200 8.080000
-54.504600 -21.000200 123.953000 -9.146400 6.510000
-53.945800 -16.187000 130.098000 -9.235200 5.610000
-54.075300 -17.000600 130.410000 -9.324000 6.540000
-4.662330 0.431780 186.090000 -10.300800 4.480000
-4.673070 1.009810 186.518000 -10.300800 5.320000
-3.603130 1.012150 186.973000 -10.300800 3.890000
-46.055100 -19.015800 192.294000 -9.856800 5.170000
-46.155000 -19.057100 192.712000 -9.856800 6.760000
4.467360 -1.220640 8.271600 -8.702400 2.660000
4.607240 -1.215310 8.690130 -8.702400 7.210000
6.085040 -1.892310 8.144940 -8.080800 8.570000
4.811140 -1.204640 9.074710 -8.702400 5.950000
5.644100 -0.495558 8.651430 -8.258400 5.650000
5.637230 -1.254840 9.093610 -8.613600 8.940000
6.017480 -0.516206 8.920210 -8.347200 6.990000
5.674640 -0.536854 9.645020 -8.524800 9.390000
7.175900 -0.835853 9.119470 -7.814400 8.140000
5.734230 -0.692238 10.099300 -8.702400 9.530000
7.087710 -0.835853 9.188180 -7.903200 9.710000
6.027150 -0.717877 10.427200 -8.702400 10.960000
6.335680 -0.222208 10.768600 -8.702400 8.270000
6.656990 0.637398 10.556100 -8.436000 11.180000
6.468100 -0.229871 11.190100 -8.702400 8.120000
6.682840 -0.320140 11.561600 -8.702400 10.040000
6.173660 -0.330467 12.325100 -8.880000 10.500000
6.453540 0.889964 12.639600 -8.880000 10.540000
6.651560 0.826473 13.027400 -8.880000 9.860000
7.148310 1.083510 13.235500 -8.791200 8.160000
6.818310 -0.481019 14.879300 -9.057600 6.660000
13.830200 1.756050 10.135200 -6.127200 8.960000
7.085900 -0.493677 15.230200 -9.057600 11.100000
14.166700 1.908630 10.381800 -6.127200 12.210000
13.793200 1.944750 12.218000 -6.837600 7.270000
13.958000 0.782740 14.653200 -7.370400 9.020000
14.110100 0.799394 15.101600 -7.370400 6.340000
14.134600 0.816048 15.663700 -7.548000 7.090000
13.940900 1.929760 16.313000 -7.636800 8.640000
14.219700 1.968350 16.639300 -7.636800 6.200000
17.612200 1.781610 14.429000 -6.482400 6.170000
17.944500 1.815230 14.701200 -6.482400 6.560000
7.074320 1.834420 21.636800 -9.412800 6.640000
14.175400 1.671710 18.376400 -7.903200 10.330000
18.131700 1.848840 15.148900 -6.571200 4.250000
7.377500 1.869030 21.988800 -9.412800 9.530000
17.395500 1.584720 16.648200 -6.926400 5.810000
17.706100 1.613020 16.945400 -6.926400 11.350000
6.468880 -1.043170 24.117900 -9.590400 9.760000
17.500500 1.591150 18.372200 -7.281600 8.860000
6.579530 -1.139700 24.530500 -9.590400 5.910000
17.797100 1.618120 18.683500 -7.281600 11.310000
6.548430 -0.999242 24.991000 -9.590400 10.090000
18.097100 1.563950 18.998500 -7.281600 13.010000
6.116010 -1.178340 25.536300 -9.590400 9.800000
6.207810 -1.836950 25.919500 -9.590400 11.360000
6.222310 0.227215 25.980100 -9.590400 9.670000
17.320500 2.385130 21.326900 -7.725600 7.570000
5.608440 0.146924 26.560600 -9.679200 12.250000
8.771720 0.234544 26.144300 -9.412800 13.120000
7.406220 2.195490 28.264600 -9.590400 6.390000
7.515140 2.227770 28.680300 -9.590400 6.860000
17.840600 2.103600 24.764300 -8.169600 10.260000
18.091900 2.133230 25.113100 -8.169600 7.960000
18.343200 2.162860 25.461900 -8.169600 5.820000
18.590400 2.290860 25.805100 -8.169600 6.550000
8.079640 0.838143 30.834600 -9.590400 6.160000
8.189300 0.774531 31.253100 -9.590400 4.060000
18.243300 2.022650 26.599100 -8.258400 8.230000
8.299070 0.683602 31.672000 -9.590400 10.530000
18.486600 2.049610 26.953700 -8.258400 4.010000
8.298010 0.860796 31.668000 -9.679200 11.660000
18.733400 1.974160 27.313500 -8.258400 15.180000
6.666870 -0.311504 36.013300 -9.768000 6.320000
18.477000 2.230550 32.542300 -8.702400 7.720000
7.230940 -2.693300 36.685600 -9.679200 11.230000
18.685800 2.373240 32.910100 -8.702400 6.500000
7.314060 -2.724260 37.107300 -9.679200 8.760000
18.898100 2.400210 33.284100 -8.702400 7.900000
4.700540 -3.228200 37.923800 -9.768000 11.050000
18.850500 2.427180 33.804300 -8.702400 9.540000
4.749760 -3.593010 38.321000 -9.768000 9.260000
19.063800 2.333570 36.637500 -8.880000 6.940000
18.976500 2.357880 37.166500 -8.880000 6.820000
19.172100 2.382190 37.549600 -8.880000 5.650000
19.367800 2.406500 37.932800 -8.880000 6.690000
19.315900 2.068350 45.586900 -9.235200 5.480000
19.483900 2.086330 45.983300 -9.235200 9.420000
19.651900 2.104320 46.379700 -9.235200 6.890000
19.819800 2.122300 46.776100 -9.235200 7.200000
19.621000 2.298720 47.318800 -9.235200 8.740000
19.420100 2.158270 47.874000 -9.235200 6.890000
19.953400 2.176260 48.120600 -9.235200 7.480000
20.118400 2.194240 48.518300 -9.235200 9.290000
20.280500 2.375990 48.909400 -9.235200 11.050000
20.064800 2.395310 49.463100 -9.324000 14.530000
20.226600 2.414630 49.862000 -9.324000 11.870000
20.171900 2.835320 51.719100 -9.324000 10.800000
20.328300 2.857300 52.120100 -9.324000 6.190000
-25.535600 -0.498407 52.744000 -8.702400 9.650000
10.748000 0.905173 60.667300 -9.768000 17.380000
10.823100 0.911503 61.091600 -9.768000 19.410000
10.897700 1.111040 61.512700 -9.768000 17.060000
10.615200 0.924163 62.002500 -9.768000 9.320000
11.048600 0.930493 62.364300 -9.679200 8.140000
21.427100 3.159180 62.268400 -9.412800 7.960000
20.751600 1.394190 63.468600 -9.501600 5.860000
20.884000 1.611030 63.873700 -9.501600 15.810000
21.017900 1.621350 64.283100 -9.501600 13.420000
21.151800 1.631680 64.692600 -9.501600 6.320000
21.028200 2.877700 65.595800 -9.501600 6.500000
21.159600 2.895680 66.005800 -9.501600 6.090000
21.291000 2.913670 66.415700 -9.501600 7.670000
21.422500 2.931650 66.825700 -9.501600 10.070000
21.690500 2.528180 67.661900 -9.501600 9.620000
21.296700 2.543500 68.238100 -9.501600 6.340000
21.953400 2.558820 68.482000 -9.501600 7.660000
21.553200 2.574150 69.060200 -9.501600 8.110000
21.673500 3.264580 69.445400 -9.501600 7.950000
21.397500 3.283890 69.981200 -9.501600 5.880000
21.523400 3.303210 70.392800 -9.501600 12.970000
21.646200 3.551500 70.794300 -9.501600 13.110000
-8.938030 3.477060 76.966800 -9.679200 11.860000
-20.205400 -0.677980 77.110300 -9.412800 13.360000
-20.758600 -1.673030 77.394400 -9.412800 11.600000
-21.467800 -1.931160 77.641900 -9.412800 4.830000
-20.979100 -2.129340 78.216600 -9.412800 4.740000
-17.893600 -1.951820 79.426100 -9.501600 10.170000
-17.988300 -1.962150 79.846300 -9.501600 10.530000
22.465600 2.401170 88.512700 -9.590400 6.270000
22.571500 2.412490 88.930200 -9.590400 6.420000
22.677500 2.423820 89.347700 -9.590400 7.660000
22.264200 2.435150 89.895500 -9.590400 7.550000
23.195100 3.938850 91.387200 -9.590400 4.480000
-11.218900 -4.967310 96.607400 -9.679200 7.410000
-11.268500 -4.989290 97.034900 -9.679200 6.880000
-12.631600 -5.011270 97.300800 -9.679200 7.690000
-13.439900 -5.033250 97.626900 -9.679200 6.940000
22.909900 2.650340 98.157600 -9.590400 9.150000
23.007800 2.661670 98.577100 -9.590400 7.940000
23.302900 2.457850 99.841400 -9.679200 7.530000
23.400800 2.468170 100.261000 -9.679200 9.800000
23.500300 2.158740 100.687000 -9.679200 7.450000
23.693200 2.740950 101.513000 -9.679200 11.410000
23.791100 2.752280 101.933000 -9.679200 15.260000
23.889000 2.763610 102.352000 -9.679200 14.440000
23.994300 0.897865 102.804000 -9.679200 9.320000
-56.328400 -16.473500 110.322000 -8.613600 6.330000
-55.667800 -16.530300 111.135000 -8.613600 6.450000
20.425600 2.337020 129.807000 -9.768000 8.040000
20.492600 2.344680 130.232000 -9.768000 10.310000
20.560600 1.943270 130.664000 -9.768000 8.820000
20.627500 1.949600 131.090000 -9.768000 6.140000
-54.924000 -19.867100 124.907000 -8.791200 6.460000
-55.095600 -19.929200 125.297000 -8.791200 5.060000
-59.767200 -6.190210 163.385000 -9.146400 6.850000
-59.900800 -7.284170 163.750000 -9.057600 5.260000
-60.048700 -7.302160 164.155000 -9.057600 13.260000
4.574060 -1.692790 8.627540 -8.791200 5.740000
5.487060 -1.397610 8.133930 -8.347200 6.380000
4.888580 -1.829390 8.927700 -8.880000 5.930000
5.594120 -1.458380 8.574820 -8.436000 6.400000
6.119330 -1.553310 8.190830 -8.080800 6.300000
6.439870 -1.618030 8.482740 -8.080800 8.020000
5.082540 -0.770332 9.954420 -8.880000 7.210000
6.629270 -1.682750 8.873400 -8.169600 8.780000
5.517860 -0.728153 10.216700 -8.968800 2.200000
5.965070 -0.728153 9.962160 -8.702400 7.910000
6.948200 -0.764060 9.300300 -8.169600 7.770000
5.873590 -0.354435 10.533000 -8.880000 8.940000
7.279660 -0.792359 9.588940 -8.080800 10.380000
6.001040 -0.183567 10.959300 -8.880000 7.200000
6.207970 -0.189896 11.337200 -8.880000 10.880000
6.725430 -0.189896 11.038100 -8.613600 8.500000
6.772970 -0.196226 11.511800 -8.702400 3.870000
6.774870 1.362410 11.932100 -8.791200 3.980000
6.632020 1.317440 12.509200 -8.968800 8.040000
6.830990 1.402470 12.884500 -8.968800 10.270000
6.424420 1.675870 14.019700 -9.146400 9.110000
6.724690 0.234206 14.453800 -9.146400 6.820000
13.353500 1.718620 9.319110 -6.038400 6.960000
5.993080 -0.036981 14.774000 -9.324000 6.350000
6.820520 0.240535 14.884100 -9.146400 11.140000
13.593400 1.763850 9.722150 -6.127200 8.560000
6.155060 -0.037981 15.173300 -9.324000 8.880000
6.992720 -0.805281 15.259900 -9.146400 12.430000
13.821100 1.862070 10.128600 -6.127200 8.730000
5.550010 -0.999899 15.830600 -9.501600 8.900000
6.592540 -0.919096 15.898800 -9.324000 5.540000
13.802400 -2.010810 11.531700 -6.660000 9.720000
13.728900 1.045250 12.399100 -6.926400 5.960000
14.006000 1.814960 12.649300 -6.926400 7.600000
14.063700 1.975560 13.202300 -7.104000 6.480000
6.633270 1.362130 17.709100 -9.412800 7.270000
14.113600 2.019460 13.770200 -7.281600 5.490000
7.029220 1.333270 18.022300 -9.412800 7.780000
13.494300 1.485180 14.442500 -7.548000 5.600000
13.784400 1.579920 14.753000 -7.548000 6.090000
-9.001160 1.055000 18.592000 -8.880000 7.390000
13.958500 1.661360 15.172100 -7.548000 9.840000
13.538500 1.891160 16.091600 -7.814400 6.600000
17.541200 -2.575840 12.241700 -6.127200 7.900000
13.940900 1.929760 16.313000 -7.814400 7.920000
14.091100 1.968350 16.748400 -7.814400 10.200000
17.146800 1.678900 14.326000 -6.660000 5.900000
13.848800 0.727502 17.599600 -8.080800 8.270000
17.480500 1.640750 14.604800 -6.660000 5.640000
14.116400 0.670895 17.939800 -8.080800 9.400000
17.810300 1.671710 14.880400 -6.660000 10.300000
7.238560 1.922410 21.574700 -9.590400 10.890000
13.920500 0.683553 18.632800 -8.169600 10.270000
18.136000 1.775760 15.152500 -6.660000 6.200000
7.375140 1.958680 21.981800 -9.590400 11.860000
7.517280 1.775760 22.405400 -9.590400 11.260000
6.861350 1.659180 23.074800 -9.679200 10.880000
7.896550 -0.825434 24.151500 -9.501600 10.120000
8.029550 -0.919338 24.558300 -9.501600 10.410000
14.486900 2.050540 21.836200 -8.524800 9.840000
6.693550 -0.919338 24.955600 -9.590400 9.410000
7.830550 0.223550 25.090400 -9.679200 11.200000
14.724400 2.084150 22.194200 -8.524800 11.220000
6.662310 0.223550 25.425600 -9.679200 9.400000
7.811640 -0.061968 25.548200 -9.768000 9.260000
14.961900 2.117770 22.552200 -8.524800 10.460000
18.139700 1.950320 20.102100 -7.725600 12.900000
5.368290 -0.061968 26.170800 -9.768000 8.850000
5.608500 -0.062968 26.560900 -9.768000 5.550000
18.427600 1.981280 20.421100 -7.725600 10.260000
7.144040 -0.234544 26.635200 -9.679200 10.650000
5.627860 -0.238209 27.436200 -9.768000 10.050000
17.897200 1.692140 22.036900 -7.992000 6.070000
-7.303530 1.806900 27.872700 -9.590400 8.270000
18.087400 1.743410 22.986300 -8.080800 9.540000
-7.412540 1.833870 28.288700 -9.590400 7.380000
-7.521550 1.860830 28.704700 -9.590400 5.570000
17.827500 1.980900 24.250000 -8.169600 8.500000
18.082200 2.009200 24.596400 -8.169600 10.380000
18.336800 2.037490 24.942900 -8.169600 9.760000
18.347000 2.065790 25.467200 -8.258400 8.720000
7.971950 0.559352 30.423600 -9.768000 15.860000
18.594500 2.192480 25.810700 -8.258400 9.990000
8.081160 0.567015 30.840400 -9.768000 8.810000
18.047500 1.723300 26.753300 -8.436000 17.410000
8.190360 0.574677 31.257100 -9.768000 8.410000
18.288100 1.746280 27.110000 -8.436000 7.660000
8.994620 10.245100 30.249000 -9.679200 14.600000
18.528800 1.769260 27.466700 -8.436000 14.680000
9.347330 10.378200 30.570700 -9.590400 6.160000
18.564100 2.476600 28.940600 -8.613600 17.350000
-7.669680 0.620651 34.044100 -9.679200 9.480000
18.620700 9.567980 29.527000 -8.791200 8.670000
7.477920 0.195899 35.414200 -9.768000 9.490000
19.166800 1.956150 33.159300 -8.880000 9.980000
18.808500 2.236340 34.825100 -8.968800 10.310000
19.013000 2.260650 35.203700 -8.968800 6.650000
-5.976910 2.410010 39.988600 -9.768000 8.380000
23.663000 -1.075990 33.385900 -8.347200 8.610000
-6.040500 2.435650 40.414000 -9.768000 5.630000
-6.104080 2.461290 40.839500 -9.768000 7.580000
-6.169820 2.228810 41.279300 -9.768000 6.470000
19.175400 2.251780 37.556000 -9.057600 8.470000
-6.683190 1.748670 44.714000 -9.768000 7.950000
-6.746000 1.906470 45.134200 -9.768000 9.710000
8.910630 1.639490 45.207300 -9.856800 7.300000
-6.809640 1.924460 45.560000 -9.856800 5.660000
8.997010 1.115330 45.645600 -9.856800 12.410000
19.719200 3.318350 43.923200 -9.235200 7.870000
-6.204270 2.573470 47.791100 -9.856800 8.980000
-6.257470 2.897140 48.201000 -9.856800 6.960000
19.576500 2.221460 45.468400 -9.324000 6.180000
19.746700 2.240770 45.863800 -9.324000 7.810000
20.087200 2.279410 46.654500 -9.324000 5.200000
20.257400 2.298720 47.049900 -9.324000 8.950000
19.783100 2.477790 47.709600 -9.412800 8.600000
19.947900 2.498440 48.107200 -9.412800 9.510000
20.112800 2.519080 48.504800 -9.412800 8.720000
20.187600 1.804760 51.759200 -9.501600 7.650000
-25.560800 0.000000 51.774700 -8.791200 6.040000
10.822600 1.103380 61.088500 -9.856800 19.240000
10.897700 1.111040 61.512700 -9.856800 8.050000
10.614000 1.313240 61.995700 -9.856800 5.090000
21.012800 2.697840 61.064400 -9.590400 10.390000
21.147000 3.117880 61.454500 -9.590400 9.010000
21.287100 3.138530 61.861500 -9.590400 5.410000
-5.069040 3.515540 65.638500 -9.856800 5.940000
21.089300 2.769780 62.857200 -9.590400 9.550000
21.237400 1.755570 63.298700 -9.590400 13.820000
21.375700 1.611030 63.710800 -9.590400 16.100000
21.514200 1.412180 64.123600 -9.590400 7.500000
21.025400 3.090720 65.587000 -9.590400 13.680000
21.156800 3.110040 65.996900 -9.590400 13.210000
21.288200 3.129360 66.406900 -9.590400 10.330000
17.906200 1.857510 68.336100 -8.613600 9.320000
21.035000 2.949640 67.399800 -9.590400 12.370000
18.016500 1.703970 68.756800 -8.613600 10.990000
21.163300 2.967630 67.810800 -9.590400 6.680000
21.291600 2.985610 68.221800 -9.590400 8.190000
20.737600 3.039570 69.740700 -9.679200 14.240000
20.860300 3.057550 70.153400 -9.679200 14.910000
-4.351520 3.613440 75.195100 -9.945600 11.070000
-3.373570 4.302520 76.073100 -9.945600 11.050000
-8.005920 2.742690 76.665400 -9.856800 8.730000
-8.050640 2.758010 77.093700 -9.856800 6.710000
-17.794700 -2.630200 78.986800 -9.679200 7.490000
-17.430000 -2.644190 79.509100 -9.590400 7.080000
22.466900 2.189340 88.517900 -9.768000 5.530000
22.571500 2.412490 88.930200 -9.768000 7.830000
22.677500 2.423820 89.347700 -9.768000 9.820000
22.774300 3.580620 89.729200 -9.768000 6.930000
-11.128200 -3.133850 95.826700 -9.856800 6.070000
-11.916800 -3.747160 96.144300 -9.856800 5.670000
23.916700 3.231790 96.567800 -9.768000 6.560000
24.024600 2.627690 97.003500 -9.768000 5.070000
23.478300 2.416540 98.029300 -9.768000 6.080000
23.578600 2.426860 98.448200 -9.768000 5.670000
23.679000 2.437190 98.867100 -9.768000 5.850000
23.779300 2.447520 99.286100 -9.768000 10.440000
23.879600 2.457850 99.705000 -9.768000 14.310000
23.402400 2.149750 100.268000 -9.768000 13.640000
23.501700 1.838970 100.693000 -9.768000 8.290000
23.786700 3.399670 101.914000 -9.768000 6.300000
23.884600 3.413660 102.334000 -9.768000 7.630000
23.994300 0.897865 102.804000 -9.768000 9.910000
24.090500 1.557150 103.216000 -9.768000 8.870000
24.188400 1.563480 103.635000 -9.768000 5.880000
20.492600 2.344680 130.232000 -9.856800 10.790000
20.560600 1.943270 130.664000 -9.856800 8.870000
19.617400 1.539180 131.250000 -9.856800 5.660000
-55.242100 -20.415800 125.630000 -8.880000 12.510000
-55.413600 -20.479200 126.021000 -8.880000 12.090000
-57.700500 -6.205530 164.583000 -9.235200 11.460000
-59.112900 -6.220850 164.538000 -9.235200 9.660000
5.026890 -1.571860 8.395330 -8.702400 5.950000
5.252430 -1.553310 8.772000 -8.702400 6.000000
4.805170 -0.964880 9.593020 -9.057600 7.140000
6.185550 -0.571461 9.323550 -8.524800 7.220000
4.997380 -1.003470 9.976750 -9.146400 8.770000
6.348640 -0.593440 9.731370 -8.524800 7.850000
5.526790 -0.305809 10.233200 -8.968800 9.060000
6.114310 -0.429024 10.392300 -8.791200 7.340000
6.035770 -0.317135 10.442100 -8.880000 8.250000
6.523120 -1.277260 11.087100 -8.791200 3.910000
6.916350 -1.319840 11.351500 -8.791200 4.490000
-9.508350 0.287832 9.981960 -7.192800 6.360000
6.889390 1.448740 12.354600 -8.968800 8.460000
6.525160 1.537710 13.026800 -9.057600 8.960000
-8.929940 0.396419 12.147000 -7.903200 7.630000
6.176790 -0.081625 13.758400 -9.412800 5.970000
6.815650 1.675680 13.348800 -9.057600 3.740000
-8.967040 0.407745 12.651500 -8.080800 6.000000
6.462150 -0.083957 14.102100 -9.324000 7.800000
-9.215340 0.468361 13.001800 -8.080800 9.740000
5.907580 -0.036981 14.808400 -9.412800 7.640000
6.067250 -0.037981 15.208600 -9.412800 12.760000
5.678930 -0.545626 15.807100 -9.501600 4.560000
6.997070 -0.545626 15.269400 -9.324000 11.890000
5.779100 -2.219350 16.085900 -9.501600 12.640000
13.586200 1.908630 11.130600 -6.660000 12.130000
5.923580 -2.274840 16.488000 -9.501600 9.940000
13.917600 1.955180 11.402100 -6.660000 7.110000
13.797600 -1.887760 12.221900 -7.015200 7.550000
14.249000 2.001730 11.673600 -6.660000 6.300000
14.118500 -1.931660 12.506100 -7.015200 3.840000
-9.419360 1.393090 16.891600 -8.702400 4.730000
-9.489150 1.592140 17.329400 -8.791200 9.150000
13.604300 1.958470 14.282000 -7.548000 6.910000
-9.695440 1.626750 17.706200 -8.791200 9.140000
13.900100 2.001040 14.592400 -7.548000 8.940000
6.273460 1.626750 19.187300 -9.679200 5.310000
-8.421870 1.205010 18.378700 -9.057600 5.020000
13.939500 1.979950 15.151400 -7.548000 6.120000
6.406930 1.661360 19.595600 -9.679200 8.420000
-8.604060 1.102910 18.776300 -9.057600 8.670000
13.937000 1.996110 16.308400 -7.903200 7.200000
14.215700 2.036040 16.634600 -7.903200 8.320000
7.128800 1.714380 20.716700 -9.679200 5.820000
17.284000 1.678900 14.160100 -6.660000 7.440000
17.620400 1.640750 14.435700 -6.660000 4.670000
6.965590 0.953237 21.728600 -9.679200 9.370000
14.019800 1.958680 18.467200 -8.258400 8.560000
7.224870 0.971223 22.097200 -9.679200 5.780000
14.134000 1.994950 18.918700 -8.258400 8.390000
7.526470 1.336940 22.432800 -9.679200 5.340000
14.242100 2.031220 19.373000 -8.347200 11.490000
17.395500 1.584720 16.648200 -7.192800 6.290000
7.661940 1.435750 22.836600 -9.679200 10.090000
17.861000 1.764580 16.766900 -7.192800 11.720000
7.972920 1.688810 23.169800 -9.679200 12.060000
17.789800 1.777690 18.675900 -7.548000 7.750000
18.082400 1.888410 18.983100 -7.548000 12.290000
7.808820 -1.969480 25.020800 -9.768000 11.790000
5.855040 -2.001770 25.989300 -9.856800 14.900000
7.936830 -2.001770 25.431000 -9.679200 12.770000
5.949480 -2.034050 26.408500 -9.856800 12.670000
17.841700 1.026590 22.674100 -8.080800 5.410000
18.284800 1.041920 22.872200 -8.080800 6.690000
-8.344130 1.223020 28.061400 -9.590400 9.310000
18.553700 1.057240 23.208600 -8.080800 8.800000
-8.466840 1.241010 28.474000 -9.590400 9.660000
18.085800 1.914770 24.601300 -8.347200 5.720000
18.099300 1.941740 25.123400 -8.347200 8.680000
18.350700 1.968710 25.472300 -8.347200 8.070000
7.971950 0.559352 30.423600 -9.856800 13.380000
18.598400 2.094090 25.816100 -8.347200 12.020000
8.081160 0.567015 30.840400 -9.856800 16.660000
8.190770 0.474741 31.258700 -9.856800 12.330000
8.300860 0.075961 31.678800 -9.856800 5.670000
18.313400 1.871720 27.604000 -8.524800 13.900000
18.556600 1.714380 27.970600 -8.613600 17.950000
-6.752600 -0.597664 32.919500 -9.768000 17.610000
18.137300 1.631210 28.760600 -8.702400 9.600000
18.358800 1.944640 29.111700 -8.702400 13.190000
5.816790 -0.399787 33.975300 -9.945600 9.120000
-7.575680 -0.399787 33.626900 -9.768000 7.540000
18.584900 2.076710 29.470300 -8.702400 5.640000
18.807100 2.320480 29.822600 -8.702400 6.620000
8.043320 -12.372200 34.461700 -9.945600 8.390000
5.086550 -12.514400 35.431400 -9.945600 7.540000
18.905100 2.163410 33.296300 -8.880000 8.010000
6.603850 -12.432500 35.672900 -9.945600 8.930000
19.117500 2.187720 33.670500 -8.880000 8.360000
5.423130 -12.572200 36.283600 -9.945600 8.210000
18.789800 2.848090 34.790500 -8.968800 7.840000
7.289150 1.548830 39.374700 -9.945600 5.720000
18.994100 2.879050 35.168700 -8.968800 8.270000
-5.977990 2.284960 39.995800 -9.856800 14.070000
-6.352940 2.309260 40.373500 -9.856800 4.830000
-6.419810 2.333570 40.798500 -9.856800 7.080000
18.984900 2.002880 37.183000 -9.146400 8.450000
19.183400 1.893070 37.571700 -9.146400 8.180000
-25.906300 1.074020 36.550900 -8.080800 11.680000
-27.292300 1.639490 37.124600 -7.992000 6.590000
19.165700 3.027940 41.824600 -9.235200 5.780000
19.393500 2.124870 43.197700 -9.412800 6.070000
19.567000 2.291950 43.584100 -9.412800 4.540000
19.743300 2.312600 43.976800 -9.324000 7.460000
-21.736600 -3.911120 43.394800 -8.880000 6.000000
-22.935200 -3.945730 43.260100 -8.791200 6.740000
19.408900 2.050360 45.079100 -9.412800 9.010000
-23.129000 -4.171260 43.625700 -8.791200 7.680000
19.579100 2.068350 45.474500 -9.412800 9.140000
-24.592100 -4.207540 43.312400 -8.702400 5.830000
19.749400 2.086330 45.869900 -9.412800 11.160000
19.919600 2.104320 46.265300 -9.412800 6.870000
20.087800 2.482010 55.913400 -9.590400 7.800000
20.233300 2.500000 56.318600 -9.590400 7.880000
20.072400 3.239810 57.253800 -9.590400 13.040000
20.214800 3.262790 57.659900 -9.590400 8.580000
20.359600 3.143030 58.073000 -9.590400 5.270000
10.822600 1.103380 61.088500 -9.945600 6.730000
20.508100 2.781650 58.496400 -9.590400 6.080000
10.897100 1.304240 61.509100 -9.945600 6.630000
20.309700 2.800970 59.021100 -9.679200 8.760000
10.972200 1.313240 61.933300 -9.945600 10.790000
20.452500 2.625900 59.436100 -9.679200 8.690000
11.047400 1.322230 62.357500 -9.945600 7.460000
20.592600 2.643880 59.843200 -9.679200 9.050000
20.729900 2.858920 60.242200 -9.679200 6.840000
20.526700 3.646210 61.180400 -9.679200 6.810000
20.669600 3.318870 61.606200 -9.679200 12.070000
20.809700 3.138530 62.023700 -9.679200 9.090000
21.435700 2.548070 62.293500 -9.679200 6.050000
20.617700 1.385190 63.059100 -9.679200 6.570000
20.751600 1.394190 63.468600 -9.679200 9.340000
20.884000 1.611030 63.873700 -9.679200 14.400000
21.019400 1.412180 64.287600 -9.679200 16.370000
21.030800 2.664650 65.604000 -9.679200 6.910000
21.162200 2.681300 66.014000 -9.679200 17.900000
21.293700 2.697950 66.424000 -9.679200 14.960000
21.151600 3.791270 67.773400 -9.679200 7.120000
21.279800 3.814250 68.184100 -9.679200 7.280000
-3.356480 3.399790 75.687800 -10.034400 6.920000
-3.375550 3.419110 76.117800 -10.034400 5.920000
-31.413400 0.415120 69.971100 -9.057600 5.660000
-8.453730 0.894524 76.661200 -9.945600 5.700000
20.966400 3.219420 74.156900 -9.768000 12.100000
-8.499080 1.858880 77.072500 -9.945600 13.410000
-8.546300 1.869200 77.500700 -9.945600 10.240000
22.380800 2.728130 80.944100 -9.768000 7.440000
22.495600 2.742120 81.359200 -9.768000 5.670000
22.610400 2.756110 81.774200 -9.768000 5.460000
22.100300 1.253320 82.396600 -9.856800 9.510000
22.206600 2.253930 82.793100 -9.768000 5.800000
22.956900 2.531680 83.027500 -9.768000 8.660000
23.818900 2.375230 96.172800 -9.856800 8.830000
23.922500 2.385560 96.591000 -9.856800 12.200000
24.026000 2.395880 97.009100 -9.856800 11.130000
24.129600 2.406210 97.427300 -9.856800 6.800000
23.476900 2.650340 98.023600 -9.856800 4.930000
23.577300 2.661670 98.442500 -9.856800 5.890000
22.343300 2.437190 99.177500 -9.856800 5.640000
22.536700 1.506510 100.036000 -9.856800 6.160000
22.631400 1.512840 100.456000 -9.856800 5.720000
24.084600 1.519170 100.561000 -9.856800 5.280000
-26.205800 2.478500 100.010000 -9.679200 6.620000
-26.315000 2.488830 100.427000 -9.679200 8.570000
-26.424200 2.499150 100.843000 -9.679200 12.670000
19.490000 1.529190 130.398000 -10.034400 15.610000
20.560600 1.943270 130.664000 -10.034400 13.360000
20.628400 1.539180 131.095000 -10.034400 5.810000
-54.995800 -18.600300 125.070000 -9.057600 4.290000
-3.603130 1.012150 186.973000 -10.034400 9.300000
-3.611470 0.434778 187.406000 -10.034400 7.070000
4.929430 1.268150 9.002290 -8.880000 7.300000
5.492290 1.320990 9.172590 -8.880000 6.050000
5.168080 -0.398380 9.932190 -9.146400 8.810000
5.573760 1.210350 9.642840 -8.880000 9.680000
7.097730 -1.305030 8.569440 -8.080800 9.410000
5.366850 -0.413702 10.314200 -9.146400 5.780000
6.765180 -1.185330 9.390650 -8.347200 9.820000
7.284640 -1.355220 8.969630 -8.080800 7.810000
5.566740 -0.354435 10.698400 -9.146400 6.840000
6.589510 0.354435 10.100600 -8.702400 8.390000
7.419750 -1.266350 9.429360 -8.258400 9.680000
5.852040 -0.260848 11.038000 -9.235200 5.620000
6.824850 0.367094 10.461300 -8.702400 8.510000
6.053830 -0.269843 11.418700 -9.235200 10.410000
6.892540 0.379752 10.929600 -8.791200 6.000000
5.336280 1.638030 12.135700 -9.324000 5.160000
5.070710 1.690870 12.710600 -9.412800 6.390000
6.282480 0.889964 12.725500 -9.235200 6.460000
7.117030 4.443030 11.480700 -8.968800 4.100000
6.443160 1.672820 13.051000 -9.235200 6.600000
7.241310 4.577670 11.884800 -8.968800 7.260000
6.030950 1.722020 13.715500 -9.324000 5.800000
-8.874610 1.722020 12.071800 -8.080800 7.520000
6.233040 -0.922984 14.175000 -9.412800 4.340000
6.715460 1.771220 13.870800 -9.235200 7.300000
-9.062640 0.503655 12.579700 -8.080800 8.880000
6.289950 -1.096240 14.609000 -9.501600 9.470000
-9.312330 0.616199 12.926300 -8.080800 8.230000
6.457070 -1.226890 14.997200 -9.501600 10.800000
6.622090 -1.414600 15.380500 -9.501600 4.890000
5.585760 -1.543810 16.232500 -9.590400 11.310000
7.509550 -0.306494 15.511000 -9.235200 11.210000
13.714000 1.908630 10.972800 -6.660000 9.760000
5.725410 -1.582400 16.638400 -9.590400 9.850000
7.697290 -0.314157 15.898800 -9.235200 6.740000
14.048500 1.955180 11.240500 -6.660000 8.090000
-8.591030 1.595960 16.826000 -8.880000 7.340000
7.274620 1.213590 17.933200 -9.590400 5.130000
-8.796710 1.333270 17.228800 -8.880000 8.360000
-8.344940 1.240560 17.936300 -9.146400 7.450000
13.526500 0.582286 14.477000 -7.636800 6.340000
13.820500 0.594945 14.791700 -7.636800 4.860000
14.087300 1.422150 15.077200 -7.636800 8.020000
6.962900 1.695970 19.860700 -9.679200 7.710000
13.668500 1.777320 15.994300 -7.903200 5.260000
6.985500 1.813590 20.300300 -9.679200 5.400000
13.947500 1.813590 16.320700 -7.903200 9.070000
7.244790 1.849860 20.664700 -9.679200 5.520000
13.922900 2.213920 17.416000 -8.169600 6.170000
7.711540 1.164900 21.464800 -9.679200 4.620000
14.053400 2.256490 17.859700 -8.258400 6.510000
7.692520 0.899318 21.941800 -9.679200 6.500000
14.142600 2.299070 18.333800 -8.258400 5.270000
7.706550 0.842726 22.395700 -9.679200 4.880000
17.572300 -3.107100 16.243000 -7.192800 9.950000
7.047590 1.156300 23.049300 -9.768000 5.270000
17.868600 1.613020 16.774100 -7.192800 11.740000
7.172340 1.252820 23.457300 -9.768000 7.730000
18.182100 1.641310 17.068400 -7.192800 11.100000
17.351900 1.332690 17.937300 -7.548000 9.480000
6.110850 -0.452079 24.673600 -9.945600 8.880000
17.503800 1.512670 18.375600 -7.548000 12.240000
6.357020 -0.839425 25.046200 -9.945600 7.110000
17.590800 1.950320 20.584000 -7.903200 12.020000
6.253290 -1.896200 26.792300 -9.856800 12.150000
17.870100 1.981280 20.910700 -7.903200 12.210000
5.614740 -1.925830 27.372300 -9.945600 10.470000
17.719900 1.867700 22.165600 -8.169600 9.490000
17.992000 1.806900 22.505900 -8.169600 7.780000
-7.965880 1.132470 28.174900 -9.679200 10.190000
18.260500 1.833870 22.841900 -8.169600 8.060000
-8.083030 1.149130 28.589200 -9.679200 8.250000
-8.200170 1.165780 29.003500 -9.679200 10.490000
17.831000 1.887800 24.254800 -8.347200 4.260000
17.847900 1.914770 24.774400 -8.347200 7.370000
18.099300 1.941740 25.123400 -8.347200 9.230000
7.737230 0.559352 30.484100 -9.856800 8.680000
18.350700 1.968710 25.472300 -8.347200 6.840000
8.081160 0.567015 30.840400 -9.856800 7.690000
8.190360 0.574677 31.257100 -9.856800 11.490000
18.026500 2.321810 26.722200 -8.524800 7.480000
5.711910 0.582339 32.241200 -9.945600 11.970000
18.266900 2.352770 27.078500 -8.524800 4.960000
18.718100 2.383730 27.291300 -8.524800 17.810000
18.119000 2.235580 28.731500 -8.702400 13.500000
18.348300 2.263880 29.095200 -8.702400 11.120000
-8.375940 2.076710 33.819300 -9.768000 4.870000
18.577700 2.292180 29.458900 -8.702400 6.430000
-6.077870 2.076710 34.306800 -9.768000 4.310000
-7.552810 2.102350 34.453000 -9.856800 11.170000
-7.375910 2.127990 34.931100 -9.856800 6.750000
-6.984580 2.377080 35.435700 -9.856800 13.070000
-6.858910 2.518390 35.890300 -9.856800 5.370000
-6.732320 2.319300 36.366800 -9.856800 7.560000
18.441500 2.022010 33.070900 -8.968800 9.680000
18.651100 2.044990 33.446700 -8.968800 7.010000
18.860700 2.067960 33.822600 -8.968800 7.460000
8.090650 2.000110 38.316000 -9.945600 7.050000
18.545000 2.022090 34.979200 -9.146400 13.020000
7.740750 1.920290 39.272100 -9.945600 5.130000
18.746500 2.044070 35.359500 -9.146400 6.600000
-5.977990 2.284960 39.995800 -9.945600 12.810000
-6.041580 2.309260 40.421300 -9.945600 7.100000
-6.105180 2.333570 40.846800 -9.945600 8.100000
-6.169820 2.228810 41.279300 -9.945600 6.210000
18.678900 2.744960 37.290500 -9.235200 8.180000
-6.554670 2.251780 41.655600 -9.945600 7.060000
18.871500 2.773260 37.674900 -9.235200 9.970000
8.063790 3.361530 42.195100 -9.945600 12.640000
8.390640 3.395150 42.569200 -10.034400 12.180000
19.069000 1.888490 40.986200 -9.324000 10.060000
19.248000 2.047600 41.371000 -9.324000 7.200000
19.429600 2.066920 41.761300 -9.324000 8.740000
19.611200 2.086240 42.151600 -9.324000 7.490000
19.388000 3.020490 44.091800 -9.412800 12.830000
-23.142000 -2.722500 42.262700 -8.702400 12.680000
-23.348600 -2.746810 42.640100 -8.702400 8.220000
-24.186000 -3.680670 42.597200 -8.613600 6.600000
-24.705400 -4.285790 42.741400 -8.613600 6.290000
19.483900 2.086330 45.983300 -9.412800 6.650000
-24.920200 -4.323050 43.113000 -8.613600 7.060000
19.795400 1.678850 47.739300 -9.501600 8.500000
20.265200 2.281600 55.399000 -9.679200 6.160000
20.410600 2.482010 55.796400 -9.679200 9.070000
20.558500 2.500000 56.200700 -9.679200 7.530000
20.529400 2.160440 57.142600 -9.679200 8.800000
-11.130900 2.175770 60.127500 -10.922400 8.760000
20.675000 2.175770 57.547900 -9.679200 5.140000
-10.743400 2.000630 60.641900 -10.922400 8.930000
20.820600 2.191090 57.953200 -9.679200 9.760000
10.469800 0.911503 61.153100 -10.034400 6.120000
20.966200 2.206410 58.358400 -9.679200 7.190000
10.542500 0.917833 61.577800 -10.034400 7.570000
10.137000 0.924163 62.082500 -10.034400 8.130000
20.798300 2.431490 59.324200 -9.679200 8.020000
9.845360 0.734609 62.568200 -10.034400 6.450000
20.940800 2.448140 59.730500 -9.679200 5.220000
21.083200 2.464800 60.136900 -9.679200 9.960000
21.223000 2.679860 60.535700 -9.679200 9.920000
10.412900 1.549060 63.771900 -10.034400 7.340000
20.678500 2.715830 61.632700 -9.679200 15.450000
20.812700 2.936190 62.032600 -9.679200 12.310000
10.623500 -0.764593 65.061700 -10.034400 11.040000
20.752800 1.187670 63.472400 -9.768000 13.180000
20.886700 1.195330 63.881900 -9.768000 13.570000
21.020600 1.202990 64.291400 -9.768000 8.460000
21.409700 2.664650 65.481300 -9.768000 15.390000
21.162200 2.681300 66.014000 -9.768000 5.850000
21.674600 2.913670 66.291600 -9.768000 12.980000
18.715000 1.248960 67.685900 -8.524800 5.690000
18.304400 1.256630 68.244300 -8.524800 8.520000
20.746700 2.139270 69.771400 -9.768000 8.960000
20.992300 2.164590 70.597100 -9.768000 8.580000
20.824600 2.189900 71.544400 -9.856800 6.880000
20.945000 2.202560 71.958000 -9.768000 7.930000
21.065300 2.215220 72.371500 -9.768000 6.310000
21.183700 2.462310 72.778100 -9.768000 10.770000
21.976300 2.027400 73.906300 -9.768000 12.510000
21.648700 2.197290 80.712800 -9.856800 8.400000
21.756300 2.728130 81.114100 -9.856800 10.100000
21.867900 2.742120 81.530100 -9.856800 7.390000
21.979500 2.756110 81.946100 -9.856800 6.040000
22.096300 2.044760 82.381800 -9.856800 10.860000
22.207900 2.055090 82.797900 -9.856800 6.420000
22.319500 2.065420 83.214000 -9.856800 7.040000
-1.784040 3.007940 92.577500 -10.123200 6.170000
22.994500 1.405230 92.844400 -9.856800 11.710000
23.095600 2.005830 93.252300 -9.856800 16.010000
22.576900 2.023820 94.265500 -9.945600 15.690000
22.678500 1.731690 94.690100 -9.945600 10.920000
22.778900 1.739360 95.109100 -9.945600 8.550000
23.081100 1.455870 96.370800 -9.945600 10.620000
23.181500 1.462200 96.789900 -9.945600 5.090000
23.281800 1.468530 97.208900 -9.945600 5.810000
23.879600 2.457850 99.705000 -9.945600 7.020000
23.980000 2.468170 100.124000 -9.945600 6.760000
24.080300 2.478500 100.543000 -9.945600 9.610000
-26.318400 1.846630 100.440000 -9.768000 9.670000
21.178200 1.117750 129.702000 -10.034400 9.150000
21.247600 1.121420 130.127000 -10.034400 7.670000
21.317800 0.306843 130.557000 -10.034400 11.530000
21.387200 -0.307843 130.982000 -10.034400 15.950000
-54.642300 -15.176900 124.266000 -9.057600 11.070000
-53.852300 -15.224700 125.077000 -9.057600 7.770000
-54.040100 -14.850000 125.513000 -9.057600 9.180000
-54.948400 -19.445000 124.963000 -9.057600 11.790000
-54.152400 -19.505800 125.774000 -9.057600 10.100000
-3.603050 1.590500 186.969000 -10.123200 4.540000
-3.611350 1.594170 187.400000 -10.123200 4.010000
-3.619650 1.597830 187.831000 -10.123200 6.790000
-2.571240 1.298500 7.663630 2.397600 10.180000
-2.706570 1.366840 8.066980 2.397600 11.340000
-3.649690 1.573160 8.129420 2.308800 9.260000
-3.738300 0.710305 8.682580 2.308800 7.080000
-3.874780 1.488580 8.999560 2.308800 6.210000
-3.351460 0.926285 9.739530 2.397600 7.920000
-2.303300 1.106960 10.908100 2.486400 8.200000
6.247770 -0.839451 9.261580 -8.613600 5.430000
6.478370 1.077900 9.603420 2.575200 10.190000
5.732210 -0.251853 10.613500 -9.235200 2.440000
6.506800 0.578151 10.143800 -8.791200 10.660000
5.936930 -0.260848 10.992600 -9.235200 11.630000
6.658010 0.598799 10.557700 -8.880000 4.560000
5.171200 -1.436300 11.760200 -9.412800 10.270000
6.887590 0.619447 10.921800 -8.880000 7.080000
5.437070 -1.484170 12.110700 -9.412800 7.950000
6.761700 0.794792 11.492700 -9.057600 7.960000
5.512530 -1.606190 12.536500 -9.412800 8.450000
6.610820 0.820430 12.072900 -9.146400 2.200000
6.817410 0.846069 12.450200 -9.146400 6.100000
6.997590 1.537710 12.779200 -9.146400 8.270000
7.203410 1.582940 13.155100 -9.146400 11.890000
6.115770 -1.210150 14.204500 -9.590400 11.240000
6.288580 -1.145430 14.605800 -9.590400 6.850000
6.710900 -1.047050 14.424200 -9.412800 8.170000
6.371720 -1.176390 15.037700 -9.590400 11.840000
7.006250 -1.075340 14.760400 -9.412800 10.910000
5.657490 -1.556970 15.747400 -9.768000 11.170000
7.190620 -1.103640 15.148900 -9.412800 11.770000
5.804190 -1.543810 16.155700 -9.768000 9.840000
6.991790 2.377840 15.573700 -9.590400 11.330000
5.821490 -1.582400 16.605000 -9.768000 9.520000
7.548840 -1.487150 15.903500 -9.501600 10.630000
6.554920 -1.453690 16.806300 -9.679200 6.000000
6.712220 1.445460 17.209600 -9.679200 7.360000
-8.379140 1.944750 16.411000 -8.968800 4.860000
14.058400 -1.488300 11.977500 4.173600 11.290000
6.867060 1.522910 17.606600 -9.679200 5.970000
-8.574010 1.989980 16.792600 -8.968800 5.810000
7.157990 1.677050 17.942700 -9.679200 12.530000
-8.782130 1.736780 17.200300 -8.968800 9.160000
-9.107300 1.897460 17.502700 -8.968800 10.700000
6.960680 1.777320 19.854400 -9.768000 5.820000
7.102730 1.813590 20.259500 -9.768000 6.230000
14.089300 2.062450 16.168600 -8.080800 5.190000
14.211500 2.103700 16.629700 -8.080800 4.160000
7.077310 1.711190 21.645900 -9.856800 3.820000
6.927830 0.827404 22.197900 -9.856800 4.450000
13.870500 2.084140 18.565900 -8.436000 9.880000
17.649100 1.958680 15.036700 -6.926400 9.650000
6.924520 0.915972 22.646800 -9.856800 9.510000
14.127400 2.122740 18.909700 -8.436000 9.660000
17.975900 1.994950 15.315100 -6.926400 11.990000
6.861350 1.659180 23.074800 -9.856800 11.770000
14.235400 2.161330 19.363800 -8.436000 4.540000
17.547600 1.733620 16.472800 -7.370400 10.970000
7.794110 1.688810 23.230500 -9.856800 10.780000
17.864900 1.688810 16.770600 -7.370400 10.110000
7.760040 -1.043170 23.734000 -9.856800 10.250000
18.178300 1.718430 17.064800 -7.370400 10.970000
6.441880 -0.668249 24.584300 -9.945600 11.300000
18.985600 1.748060 16.817400 -7.370400 14.000000
6.551440 -0.619625 25.002500 -9.945600 7.330000
6.769560 -2.839660 25.239000 -9.945600 13.430000
14.324800 1.888410 21.957500 -8.791200 8.580000
7.912620 -2.886220 25.353400 -9.945600 9.980000
14.559600 1.919370 22.317400 -8.791200 9.800000
17.827200 -3.661930 20.142600 -7.992000 9.550000
-14.439900 2.034050 22.897500 -12.165600 12.000000
-14.675600 1.896200 23.271300 -12.165600 8.940000
18.368000 1.666500 21.078800 -7.992000 10.340000
-14.351400 2.012240 23.968000 -12.254400 10.140000
-8.180680 1.313560 28.105400 -9.768000 7.710000
18.111600 0.860771 23.017100 -8.258400 6.280000
-8.300990 1.332870 28.518700 -9.768000 5.060000
-8.196880 1.445380 28.991900 -9.768000 6.490000
7.737930 0.364806 30.486900 -10.034400 6.650000
7.843930 0.369803 30.904600 -10.034400 12.250000
17.790000 2.192480 26.371600 -8.702400 5.470000
7.949930 0.374801 31.322200 -10.034400 13.210000
18.034200 2.122390 26.733600 -8.702400 9.650000
8.056350 0.177242 31.741500 -10.034400 18.340000
7.736700 0.394790 33.147900 -10.034400 6.440000
7.835130 0.079959 33.569700 -10.034400 9.710000
7.552810 2.102350 34.453000 -10.123200 10.290000
-7.176370 1.907120 34.985400 -10.034400 10.720000
-6.784630 1.930100 35.501600 -10.034400 8.480000
-6.657620 1.953080 35.963300 -10.034400 6.100000
-12.991800 1.203180 34.684500 -13.675200 9.520000
-6.519740 2.924530 36.801000 -10.034400 11.610000
-13.139900 1.448900 35.080100 -13.586400 7.520000
5.156870 2.841220 37.459300 -10.212000 5.370000
18.698100 1.934170 32.931800 -9.146400 12.380000
5.434370 2.873510 37.854200 -10.123200 7.360000
18.910600 1.956150 33.306000 -9.146400 10.180000
-13.169200 1.126600 36.000500 -13.675200 5.250000
-6.606500 2.212030 38.588000 -10.034400 7.350000
-6.679100 2.236340 39.012100 -10.034400 9.870000
8.279120 0.216888 39.208600 -10.123200 8.380000
-6.515720 2.410010 39.904400 -10.034400 5.800000
-6.351800 2.435650 40.366300 -10.034400 8.430000
-6.419810 2.333570 40.798500 -10.034400 7.960000
-6.486690 2.357880 41.223500 -10.034400 4.950000
18.697800 2.002880 37.328200 -9.324000 6.740000
18.887700 2.153970 37.707300 -9.324000 6.730000
19.246600 1.951020 38.985000 -9.412800 11.990000
19.437200 1.970340 39.371000 -9.412800 8.230000
19.627700 1.989650 39.757000 -9.412800 7.420000
18.826500 2.168060 41.084400 -9.501600 9.330000
19.248000 2.047600 41.371000 -9.501600 10.920000
19.429600 2.066920 41.761300 -9.501600 5.250000
19.611200 2.086240 42.151600 -9.501600 5.760000
-22.515000 -4.322660 42.467600 -8.880000 13.190000
-22.709600 -4.511220 42.834600 -8.880000 5.130000
-23.243000 -4.551140 43.035800 -8.791200 5.330000
19.570700 2.527610 45.454900 -9.590400 9.550000
-24.123700 -1.455720 43.260600 -8.702400 5.610000
19.740900 2.549590 45.850200 -9.590400 5.790000
-24.669000 -1.468370 43.447900 -8.702400 7.020000
19.911100 2.571570 46.245400 -9.590400 5.920000
-25.218700 -1.481030 43.629400 -8.702400 5.170000
-25.172100 -1.363180 50.987300 -9.057600 8.380000
-24.966000 -1.373500 51.567500 -9.146400 7.250000
-26.247700 -1.517720 51.407500 -8.968800 8.880000
-25.742600 -1.529040 52.143100 -9.057600 7.650000
20.267600 2.099150 55.405300 -9.768000 6.470000
20.415500 2.114480 55.809700 -9.768000 6.460000
20.563400 2.129800 56.214200 -9.768000 6.670000
20.711400 2.145120 56.618600 -9.768000 6.480000
20.521700 2.723700 57.121300 -9.768000 7.020000
-11.130900 2.175770 60.127500 -11.188800 7.010000
20.670000 2.553960 57.534100 -9.768000 5.750000
-11.209300 2.191090 60.550900 -11.188800 11.210000
20.815600 2.571940 57.939300 -9.768000 6.250000
10.469300 1.103380 61.150100 -10.123200 10.810000
20.963700 2.398180 58.351700 -9.768000 5.660000
10.542000 1.111040 61.574700 -10.123200 6.650000
10.614700 1.118700 61.999400 -10.123200 5.450000
20.455000 2.431490 59.443500 -9.768000 6.460000
20.597500 2.252380 59.857500 -9.768000 6.180000
20.735200 2.464800 60.257700 -9.768000 17.030000
10.043500 1.698940 63.827300 -10.123200 9.120000
20.683400 2.313670 61.647500 -9.856800 7.220000
20.820400 2.328990 62.055800 -9.856800 7.440000
20.752800 1.187670 63.472400 -9.856800 13.340000
20.885500 1.403180 63.878100 -9.856800 10.630000
21.019400 1.412180 64.287600 -9.856800 16.370000
21.019100 3.516680 65.567600 -9.856800 15.070000
21.150500 3.538660 65.977400 -9.856800 8.750000
11.051300 0.604685 70.231800 -10.212000 9.970000
20.249300 2.747920 68.098500 -9.945600 11.520000
11.118500 0.387134 70.658900 -10.123200 7.640000
20.372000 2.764570 68.511300 -9.945600 9.660000
