VERSION .7
FIELDS x y z velocity intensity
SIZE 4 4 4 4 4
TYPE F F F F F
COUNT 1 1 1 1 1
WIDTH 832
HEIGHT 1
VIEWPOINT 0 0 0 1 0 0 0
POINTS 832
DATA ascii
-7.820220 1.448740 11.787500 -10.656000 5.760000
-6.992890 1.627800 12.770700 -11.277600 2.900000
-8.057190 1.492640 12.144700 -10.567200 4.880000
-7.010380 1.723550 13.730200 -11.366400 4.260000
-8.071270 0.083957 13.247000 -10.922400 4.130000
-6.836360 5.308260 13.389400 -11.544000 5.990000
-7.021130 5.451730 13.751200 -11.544000 6.080000
-7.179960 5.754190 14.062300 -11.632800 7.830000
-7.616570 1.025540 15.427800 -11.544000 8.460000
7.084690 1.527980 16.111900 -11.988000 7.010000
8.131760 -4.392830 15.056500 -11.810400 6.470000
-7.898260 1.051180 15.768100 -11.455200 5.800000
7.130060 1.565240 16.560300 -12.076800 9.260000
8.229440 0.153920 16.117800 -11.810400 14.790000
8.425380 0.157585 16.501500 -11.810400 17.280000
8.981200 -4.607120 15.537900 -11.544000 7.720000
8.621500 0.102614 16.885700 -11.810400 15.170000
5.213160 -2.971720 18.438600 -12.520800 7.160000
7.664770 -0.569628 17.802200 -12.254400 8.820000
8.817440 0.104946 17.269400 -11.810400 8.340000
7.199360 -0.582286 18.458500 -12.254400 10.230000
8.385650 4.750200 17.320600 -11.988000 9.520000
7.897820 -0.594945 18.639400 -12.165600 11.030000
8.065090 -0.671540 19.034100 -12.254400 9.950000
7.514120 -2.281040 19.599500 -12.343200 8.380000
7.782950 -2.327590 19.954800 -12.343200 7.280000
8.969660 0.766115 19.574100 -12.076800 7.890000
9.151680 0.577639 19.971300 -12.076800 10.480000
8.277050 1.640750 21.221700 -12.343200 8.970000
8.431300 1.743480 21.617100 -12.343200 6.670000
8.589390 1.702660 22.022500 -12.343200 5.850000
6.030510 1.537210 23.759800 -12.520800 5.270000
5.996450 1.564180 24.211700 -12.609600 8.080000
8.901850 1.512670 23.765600 -12.343200 11.050000
9.054360 1.458480 24.172700 -12.343200 11.420000
6.988300 1.807320 25.274400 -12.609600 5.900000
9.205260 1.482790 24.575600 -12.343200 8.950000
8.079450 1.216970 25.887900 -12.609600 6.980000
18.251200 1.470550 20.621700 -10.123200 6.840000
18.536400 1.493530 20.943900 -10.123200 11.740000
18.821600 1.516510 21.266100 -10.123200 11.930000
-16.584300 1.955460 23.020400 -12.609600 6.180000
19.106700 1.539480 21.588300 -10.123200 7.430000
-16.476800 1.896000 23.630800 -12.609600 6.620000
18.446000 1.562460 22.712700 -10.478400 9.320000
18.714100 1.677250 23.042800 -10.478400 12.620000
18.985300 1.701560 23.376700 -10.478400 11.400000
8.371360 6.865760 28.152900 -23.887200 10.950000
19.253000 1.820330 23.706400 -10.478400 5.970000
-6.532820 2.292350 29.800200 -12.609600 11.410000
15.951700 0.838143 27.597000 -10.567200 8.000000
15.309400 0.838143 27.958500 -10.389600 5.350000
-6.581160 1.429460 31.167300 -12.698400 7.030000
15.734200 0.849469 28.215900 -10.478400 7.140000
-6.670100 1.448780 31.588500 -12.698400 7.890000
18.915200 1.569270 26.687300 -11.011200 8.640000
18.915200 1.569270 26.687300 -10.922400 5.330000
-6.759030 1.468090 32.009700 -12.698400 7.020000
18.955100 1.589910 27.185300 -11.011200 7.020000
-10.386200 1.105240 32.399100 -12.520800 8.350000
18.813700 1.651860 28.838100 -11.188800 5.330000
-10.517700 1.119230 32.809200 -12.520800 6.720000
19.048800 1.672510 29.198600 -11.188800 5.110000
19.284000 1.693160 29.559100 -11.188800 9.700000
18.822200 1.713800 30.362800 -11.366400 11.420000
19.049000 1.734450 30.728600 -11.366400 8.370000
-10.300000 2.041870 34.639000 -12.698400 10.770000
19.275800 1.755100 31.094400 -11.366400 5.630000
9.481440 1.415590 35.349700 -12.698400 10.320000
19.502500 1.775750 31.460300 -11.366400 10.530000
9.597400 0.888129 35.782000 -12.698400 8.150000
-5.111170 0.898456 37.127400 -12.876000 10.750000
-10.253600 2.236340 38.228500 -12.520800 6.550000
-5.461780 1.424970 39.674200 -12.876000 10.980000
-5.211270 1.440300 40.142100 -12.876000 11.280000
19.231300 1.690650 35.607900 -11.721600 6.900000
19.435900 1.708630 35.986700 -11.721600 9.960000
19.640500 1.726620 36.365500 -11.721600 9.710000
8.936020 -2.357880 40.762800 -12.787200 7.900000
-10.040700 1.615440 40.541200 -12.609600 6.880000
19.845000 1.744600 36.744300 -11.721600 14.190000
8.160200 -1.632100 41.400100 -12.876000 5.210000
8.243470 -1.648750 41.822500 -12.876000 9.440000
10.809200 -1.121300 41.251700 -12.698400 15.350000
-20.053100 -2.589480 38.538800 -11.366400 8.090000
-18.952600 -1.547550 39.146800 -11.544000 7.070000
-21.072000 -2.615120 38.482400 -11.277600 7.440000
-19.140300 -1.562870 39.534400 -11.544000 6.410000
-19.327900 -1.578200 39.922000 -11.544000 4.660000
23.314800 -0.658308 38.265400 -11.366400 7.110000
-21.501600 -2.008970 39.267100 -11.188800 7.020000
19.823400 1.732020 40.153400 -11.899200 6.110000
25.277100 -2.028290 37.470300 -11.100000 8.650000
-22.619200 -2.028290 39.132100 -11.100000 7.640000
24.063100 -0.670967 38.817000 -11.277600 7.490000
24.586900 1.105000 38.987800 -11.366400 8.680000
-17.857000 -2.573470 44.761700 -11.988000 8.020000
-18.021400 -2.333250 45.173700 -11.988000 7.350000
-17.829100 -2.353900 45.712300 -11.988000 7.430000
-17.721200 -2.221460 46.223100 -11.988000 6.200000
10.396700 15.100900 47.425800 -12.876000 9.720000
10.302600 -0.753256 50.225800 -12.876000 6.250000
-13.463600 -4.188010 50.196200 -12.432000 8.830000
-14.251700 -4.425170 50.407300 -12.343200 5.920000
-14.752800 -4.747210 50.684300 -12.343200 8.380000
-28.852900 1.619660 54.422000 -11.366400 12.930000
-15.961300 0.905173 59.508700 -12.432000 6.470000
-29.054700 1.630980 54.802500 -11.366400 10.760000
20.526500 0.911503 58.549000 -12.432000 7.280000
-29.256400 1.642310 55.183100 -11.366400 7.750000
21.122800 0.917833 58.794500 -12.432000 7.540000
21.268500 0.924163 59.200000 -12.432000 5.930000
-17.583200 7.038480 92.007100 -12.698400 10.900000
-17.663900 7.070760 92.429100 -12.698400 9.870000
-17.744600 7.103050 92.851200 -12.698400 5.390000
-17.829300 6.841610 93.294400 -12.698400 9.260000
-16.133800 7.522770 98.808900 -12.787200 8.260000
-16.203100 7.555060 99.233000 -12.787200 10.940000
-16.276000 7.275020 99.679800 -12.787200 13.090000
-17.116300 7.305980 99.975000 -12.787200 7.560000
-8.761230 1.599150 137.600000 -12.964800 5.090000
-8.788610 1.604150 138.030000 -12.964800 10.130000
-8.815980 1.609140 138.460000 -12.964800 7.590000
-8.843830 0.753279 138.897000 -12.964800 6.090000
-8.189970 1.205700 141.524000 -12.964800 13.100000
-8.214870 1.209370 141.954000 -12.964800 14.530000
-8.239760 1.213030 142.385000 -12.964800 11.530000
-9.090060 1.216700 142.765000 -13.053600 6.160000
-51.746100 -17.595600 132.673000 -11.899200 5.750000
19.421200 2.747170 185.979000 -13.053600 5.280000
19.466700 2.173840 186.415000 -13.053600 8.790000
6.763350 -0.761457 6.598780 -8.968800 8.160000
7.011520 -0.650866 6.974020 -9.057600 9.130000
7.248730 -0.615323 7.350240 -9.146400 9.990000
7.739060 -0.247850 6.855230 -8.524800 9.740000
7.480160 -0.549481 7.732530 -9.324000 9.800000
7.994630 -0.024987 7.220250 -8.702400 6.950000
7.577000 3.175530 9.980600 -10.389600 9.570000
-7.946210 0.000000 12.818300 -10.656000 7.400000
-7.866230 0.000000 13.370000 -10.744800 6.540000
-8.084740 0.000000 13.741400 -10.744800 5.630000
-8.300860 0.392429 14.108700 -10.744800 5.920000
-7.222950 1.051180 16.088600 -11.455200 4.020000
-7.142850 1.132680 16.590000 -11.544000 6.200000
8.391770 0.337144 16.998000 -11.544000 4.480000
8.582490 0.344806 17.384300 -11.544000 7.410000
8.773650 0.291175 17.771500 -11.544000 17.480000
8.964750 0.234875 18.158600 -11.544000 8.130000
8.096460 0.516354 19.959200 -11.810400 4.480000
8.392770 5.710380 21.891300 -11.810400 5.640000
7.930850 1.718430 23.638100 -12.076800 8.810000
8.395970 1.618120 24.399200 -12.076800 7.970000
9.203610 1.563950 24.571200 -11.988000 8.850000
18.446800 1.604330 21.585600 -9.856800 7.500000
8.891640 -1.752960 26.501700 -12.165600 9.030000
18.726300 1.628640 21.912700 -9.856800 8.330000
7.605200 -1.752960 26.899100 -12.165600 11.520000
19.005800 1.652950 22.239800 -9.856800 13.650000
19.285300 1.677250 22.566800 -9.856800 14.180000
8.175880 1.652950 28.088800 -12.165600 8.350000
8.679770 1.677250 28.387400 -12.165600 11.470000
8.971890 1.701560 28.747500 -12.165600 5.690000
9.455850 1.750180 29.496800 -12.165600 6.520000
9.587190 1.774490 29.906500 -12.165600 7.990000
-7.140270 1.604490 30.592500 -12.343200 10.560000
18.915200 1.569270 26.687300 -10.478400 6.190000
-6.163140 1.035290 31.268200 -12.343200 8.200000
19.164100 1.589910 27.038400 -10.478400 10.530000
-6.247030 0.949380 31.693800 -12.343200 9.860000
19.475400 1.651860 28.395400 -10.744800 8.230000
-5.662720 1.896030 33.075400 -12.432000 6.270000
19.255900 1.651860 28.544700 -10.744800 7.860000
-5.735320 1.920330 33.499500 -12.432000 6.390000
19.054100 1.456830 29.206700 -10.833600 10.440000
19.060900 1.474820 29.715000 -10.833600 8.770000
19.293400 1.492810 30.077400 -10.833600 5.530000
19.525800 1.510790 30.439800 -10.833600 11.030000
-5.623330 1.175190 35.736800 -12.432000 6.000000
19.040800 1.528780 31.250800 -11.100000 7.480000
-5.895550 1.755100 36.106300 -12.432000 6.110000
19.262300 1.661260 31.614200 -11.100000 5.720000
-5.964910 1.775750 36.531000 -12.432000 6.600000
19.486200 1.680580 31.981800 -11.100000 12.400000
19.710200 1.699900 32.349400 -11.100000 5.890000
-20.571300 -1.548830 34.355800 -10.744800 13.030000
-14.336400 1.424970 37.394400 -12.432000 10.400000
-14.198800 1.440300 37.907000 -12.520800 7.680000
-9.421880 2.066050 39.339300 -12.254400 7.580000
-14.349900 1.455620 38.310300 -12.520800 6.550000
-9.522110 2.088030 39.757800 -12.254400 7.970000
-9.626490 1.726620 40.193600 -12.254400 5.150000
19.561300 1.744600 36.896200 -11.366400 7.760000
19.762900 1.762590 37.276600 -11.366400 5.990000
19.673800 1.780580 37.809700 -11.366400 7.110000
-20.281800 -1.053360 38.978200 -11.100000 8.500000
-20.179300 -0.789223 39.522100 -11.188800 13.880000
22.627600 -1.608840 39.146700 -11.100000 7.080000
24.808200 -1.654810 39.338600 -10.922400 8.330000
22.653100 1.510960 40.623500 -11.277600 11.620000
24.422900 -1.670130 40.084100 -11.011200 6.760000
19.993800 0.403123 42.973900 -11.632800 6.670000
19.923900 0.554705 43.479100 -11.721600 9.650000
20.102600 0.708947 43.869000 -11.721600 9.890000
-17.836300 -1.898560 45.730700 -11.721600 5.230000
-17.736200 -0.881171 46.262300 -11.721600 5.410000
-17.299900 -2.415840 47.292500 -11.721600 8.000000
-17.447700 -2.436490 47.696700 -11.721600 7.320000
11.888000 -10.647800 49.636300 -12.343200 7.150000
-17.886400 -2.780260 48.895900 -11.721600 6.920000
11.986300 -10.735800 50.046500 -12.432000 5.840000
12.084500 -10.823800 50.456800 -12.432000 10.520000
-15.932500 -5.070130 52.107600 -11.988000 9.350000
-19.086100 1.804760 52.175500 -11.810400 7.010000
-19.638700 1.818750 52.430100 -11.721600 9.920000
-18.675400 -0.130933 53.268900 -11.988000 5.470000
-20.198300 1.658250 52.684400 -11.721600 10.630000
-29.572400 2.381530 54.006200 -10.922400 6.270000
-16.535900 -0.335827 59.804700 -12.165600 7.490000
-16.650700 -0.338159 60.220000 -12.165600 8.600000
-16.295400 -1.118700 60.754000 -12.165600 8.440000
-15.685500 -1.331230 61.799800 -12.165600 10.420000
-16.270500 -1.340220 62.093800 -12.165600 10.520000
11.200100 0.000000 63.219600 -12.520800 11.370000
-16.740800 -1.349210 62.414800 -12.165600 12.800000
10.907200 0.000000 63.708100 -12.520800 13.050000
-15.656700 -0.155920 65.371500 -12.254400 6.710000
-14.955100 -2.210490 66.382600 -12.254400 10.470000
-14.147400 -2.224480 66.999600 -12.343200 10.420000
16.308000 1.951860 92.051500 -12.520800 7.810000
16.383200 1.960860 92.475700 -12.520800 9.540000
-17.748600 6.810660 92.872300 -12.343200 9.160000
-17.829300 6.841610 93.294400 -12.343200 8.210000
-17.909900 6.872570 93.716600 -12.343200 8.520000
18.036600 0.817241 94.379200 -12.520800 7.120000
18.114200 2.014830 94.785200 -12.520800 7.860000
18.747100 1.424220 95.112100 -12.520800 9.350000
18.035200 2.375230 97.423200 -12.520800 8.720000
18.100600 4.462230 97.776500 -12.520800 8.540000
-17.185000 7.651920 100.376000 -12.343200 10.060000
28.725800 1.354280 113.177000 -12.343200 5.650000
28.831800 1.359280 113.595000 -12.343200 5.860000
28.939300 0.636673 114.019000 -12.343200 6.290000
-61.733300 -13.697200 118.641000 -11.011200 7.270000
-61.931200 -13.741100 119.021000 -11.011200 8.360000
-63.206900 -14.663800 119.220000 -10.922400 7.350000
-63.407600 -14.710400 119.599000 -10.833600 5.270000
-8.789070 0.748615 138.037000 -12.609600 5.210000
-9.883400 0.750947 138.395000 -12.609600 5.380000
-8.843830 0.753279 138.897000 -12.609600 5.280000
-8.871020 1.187380 139.324000 -12.609600 6.290000
-10.006000 1.194710 140.111000 -12.609600 7.170000
-8.264400 1.659120 142.810000 -12.609600 8.530000
-8.289290 1.664120 143.240000 -12.609600 10.720000
-8.314180 1.669110 143.671000 -12.609600 8.320000
25.761000 1.359620 157.769000 -12.520800 5.110000
24.915600 1.363290 158.341000 -12.520800 6.600000
25.899100 1.864010 158.614000 -12.520800 6.380000
25.968500 1.869010 159.040000 -12.520800 5.870000
19.504400 5.519060 186.776000 -12.609600 9.450000
19.549100 5.531720 187.204000 -12.609600 8.690000
6.151230 -0.838368 6.583470 -9.412800 3.010000
6.390800 -0.878291 6.946430 -9.412800 8.080000
6.540120 -0.918213 7.389560 -9.590400 9.480000
6.764840 -0.958135 7.763220 -9.679200 8.320000
7.585490 0.495558 7.011660 -8.968800 5.480000
7.033330 1.196910 8.071330 -9.768000 5.560000
7.777730 -0.383057 7.443580 -9.057600 6.080000
-8.024240 1.525220 10.569700 -10.034400 3.860000
-8.329230 0.618144 10.971500 -10.034400 4.660000
-7.136000 1.397280 13.212700 -11.011200 4.910000
-6.837540 1.437200 13.849800 -11.277600 5.730000
-6.746960 1.207340 15.343800 -11.544000 4.280000
-7.161710 1.238300 15.628700 -11.455200 3.660000
-6.405730 1.160240 16.423800 -11.721600 5.110000
-7.563660 0.996629 15.934800 -11.366400 5.460000
-6.561970 1.188540 16.824300 -11.810400 5.120000
-7.748140 1.020940 16.323400 -11.366400 7.020000
8.297350 0.272185 16.564800 -11.632800 5.990000
8.392190 0.278515 16.998800 -11.632800 14.230000
8.582490 0.344806 17.384300 -11.632800 17.280000
8.635990 0.352469 17.837700 -11.632800 16.070000
8.684240 0.109610 18.295600 -11.632800 10.040000
8.179170 0.111942 18.996900 -11.810400 8.410000
8.231300 -0.816048 19.426400 -11.988000 8.620000
7.395160 -0.899280 20.216100 -12.076800 10.890000
9.031270 -0.052973 20.976000 -11.899200 10.580000
6.502730 0.197897 22.340600 -12.165600 8.570000
9.366120 0.053972 21.300200 -11.899200 9.670000
8.483570 0.201562 22.128100 -11.988000 8.720000
8.752000 -2.351190 22.828300 -11.988000 5.790000
8.546430 -2.392440 23.363300 -12.165600 5.300000
8.901850 1.512670 23.765600 -12.165600 5.870000
18.702100 1.300840 19.633700 -9.590400 4.880000
18.650300 1.321490 20.271800 -9.679200 4.550000
8.950100 1.981280 26.009500 -12.254400 7.780000
9.089950 2.012240 26.415900 -12.254400 7.990000
7.562690 1.867700 27.351700 -12.254400 4.430000
7.677280 1.896000 27.766100 -12.254400 8.430000
7.574430 1.924300 28.239800 -12.343200 7.030000
18.625900 1.608420 23.670600 -10.300800 9.770000
18.891900 1.631390 24.008700 -10.300800 8.790000
19.154800 1.750180 24.342800 -10.300800 9.150000
9.107770 1.182440 29.182800 -12.254400 13.260000
19.420800 1.774490 24.680900 -10.300800 8.000000
9.064820 1.199090 29.646700 -12.254400 6.900000
9.595300 1.215740 29.931800 -12.254400 7.240000
-25.098600 1.670420 20.969600 -7.992000 5.620000
-25.428900 1.692400 21.245600 -7.992000 5.310000
-6.676810 0.000000 31.620300 -12.432000 8.870000
19.250700 1.838190 28.536800 -10.833600 8.760000
-5.276520 2.550640 33.532800 -12.520800 11.200000
19.713400 1.861170 28.742500 -10.833600 7.180000
19.284000 1.693160 29.559100 -10.922400 9.490000
-10.832600 1.780320 33.131500 -12.076800 8.290000
19.516200 1.824280 29.914900 -10.922400 13.900000
-10.513000 1.802300 33.685400 -12.165600 5.600000
19.754400 1.734450 30.280000 -10.922400 8.650000
19.520400 1.734450 30.431400 -11.011200 10.730000
19.035500 1.755100 31.242100 -11.188800 8.090000
-5.460240 2.976610 36.531900 -12.609600 9.030000
19.262300 1.661260 31.614200 -11.188800 12.450000
-5.539730 0.985385 37.063600 -12.520800 7.610000
19.486200 1.680580 31.981800 -11.188800 12.540000
10.103200 0.791539 36.539900 -12.432000 5.460000
-20.521700 -1.690650 34.880100 -10.833600 8.590000
-10.368100 2.044070 38.655200 -12.254400 4.980000
-10.479500 2.066050 39.070900 -12.254400 9.230000
-22.065300 -0.223885 34.989300 -10.656000 7.960000
-9.296140 1.708630 39.829400 -12.343200 7.360000
-9.392730 1.854430 40.243200 -12.343200 7.890000
-20.850000 -0.097950 36.721800 -10.922400 7.300000
19.558600 1.873750 36.891200 -11.544000 10.220000
-21.062800 -0.098949 37.096500 -10.922400 7.260000
9.266050 -2.382190 41.130100 -12.432000 6.140000
19.760300 1.893070 37.271600 -11.544000 10.110000
9.360610 -2.406500 41.549800 -12.432000 9.660000
19.961900 1.912380 37.651900 -11.544000 7.540000
10.906700 -2.297740 41.623500 -12.432000 7.770000
19.580000 1.665400 38.348400 -11.632800 14.820000
10.683500 2.858150 42.092300 -12.432000 8.280000
19.775800 1.682060 38.731900 -11.632800 8.790000
10.791400 2.750800 42.517500 -12.432000 16.220000
-21.932400 -0.953445 40.053700 -11.011200 7.760000
-21.700500 -0.953445 40.179900 -11.100000 12.250000
10.734300 1.354450 44.818900 -12.520800 5.800000
10.837500 0.827535 45.250100 -12.520800 5.930000
10.937900 0.835197 45.669100 -12.520800 8.670000
19.918400 1.257210 43.467000 -11.810400 8.890000
-17.217800 -1.898560 45.967100 -11.810400 8.920000
-15.029200 -3.038500 51.633900 -12.076800 9.010000
-14.414900 -4.695730 52.133800 -12.165600 9.830000
-14.532200 -4.606530 52.558000 -12.165600 8.200000
-18.941600 1.449760 51.780400 -11.810400 5.490000
-19.089500 1.461090 52.185000 -11.810400 5.340000
-19.238600 1.342520 52.592600 -11.810400 6.060000
-19.386600 1.352850 52.997100 -11.721600 7.630000
20.978000 0.719617 58.391400 -12.165600 7.270000
21.269400 0.729612 59.202400 -12.165600 6.460000
21.415100 0.734609 59.607900 -12.165600 7.840000
-16.267100 -1.886100 62.080500 -12.254400 11.240000
-16.369000 -2.697840 62.469700 -12.254400 5.830000
21.691200 -1.025440 66.342200 -12.254400 6.520000
21.825100 -1.031770 66.751800 -12.254400 6.690000
16.378100 3.049910 92.447100 -12.609600 7.620000
-17.289700 6.841610 93.395900 -12.432000 7.950000
18.665600 0.522398 94.698200 -12.609600 8.980000
18.748900 0.524730 95.120900 -12.609600 9.150000
18.830500 1.430550 95.534800 -12.609600 6.450000
19.910300 2.068800 97.064400 -12.609600 5.690000
-17.188900 7.336930 100.399000 -12.432000 5.440000
-17.261400 7.367890 100.822000 -12.432000 5.700000
28.830600 1.721730 113.590000 -12.432000 5.120000
28.937800 1.364270 114.013000 -12.432000 6.250000
29.924800 1.369270 114.203000 -12.432000 6.430000
19.152000 2.572500 121.713000 -12.609600 7.710000
19.219000 2.581500 122.139000 -12.609600 8.460000
19.997800 1.055450 122.473000 -12.609600 8.240000
-63.086200 -12.952200 118.992000 -11.011200 9.010000
-63.268000 -13.411200 119.335000 -11.011200 6.850000
-62.544300 -13.453800 120.200000 -11.011200 5.940000
-8.843360 1.614140 138.890000 -12.698400 5.630000
-9.944260 1.619140 139.248000 -12.698400 6.890000
-9.974950 1.624140 139.677000 -12.698400 4.980000
-9.090060 1.216700 142.765000 -12.698400 9.520000
-9.117150 1.664120 143.190000 -12.698400 4.950000
-9.144530 1.669110 143.620000 -12.698400 4.590000
25.829600 1.859010 158.189000 -12.609600 6.760000
25.899100 1.864010 158.614000 -12.609600 5.280000
25.968500 1.869010 159.040000 -12.609600 7.250000
19.508500 3.921720 186.816000 -12.698400 6.290000
19.553300 3.930710 187.244000 -12.698400 4.880000
19.598000 3.939710 187.673000 -12.698400 5.410000
7.325800 -0.431655 7.286630 -9.324000 7.680000
7.557570 -0.449640 7.663400 -9.412800 5.670000
7.160930 1.339440 8.511350 -10.034400 3.210000
7.504250 1.390950 8.781140 -10.034400 3.830000
7.245750 1.405420 9.544260 -10.478400 5.150000
-8.027050 1.484170 10.573400 -10.034400 6.400000
-8.386340 1.317440 11.407600 -10.123200 9.080000
-8.733270 1.312240 11.689700 -10.123200 4.750000
-7.811140 1.443720 12.820000 -10.833600 7.370000
-8.034320 1.484970 13.186300 -10.833600 8.470000
-7.037980 3.857120 13.274900 -11.277600 6.920000
-8.361700 1.526210 13.488600 -10.833600 6.290000
-8.624840 0.392429 13.913000 -10.744800 4.640000
-7.684870 1.051180 15.873200 -11.455200 8.450000
-7.872310 1.076810 16.260300 -11.455200 10.780000
-7.145480 1.020940 16.596100 -11.632800 8.920000
-8.059740 1.102450 16.647500 -11.455200 9.480000
8.201790 0.214886 16.613200 -11.721600 10.310000
8.392530 0.219883 16.999500 -11.721600 16.410000
8.583270 0.224880 17.385900 -11.721600 18.140000
8.773650 0.291175 17.771500 -11.721600 15.630000
8.134420 1.330030 18.499100 -11.899200 8.570000
8.161630 1.358330 18.956200 -11.899200 8.110000
5.737810 -1.011760 20.294300 -12.254400 6.520000
18.001000 1.556420 15.336500 -8.702400 9.220000
18.328300 1.584720 15.615400 -8.702400 11.020000
8.308680 0.769473 22.182000 -12.076800 4.020000
18.655600 1.613020 15.894200 -8.702400 9.030000
8.380390 -2.861030 22.909400 -12.165600 7.050000
6.571940 1.669610 24.502200 -12.432000 6.990000
5.958870 1.888410 25.530800 -12.432000 5.500000
6.056550 1.919370 25.949300 -12.520800 4.840000
7.023520 1.384690 26.185800 -12.432000 6.480000
9.165440 1.447580 25.511600 -12.165600 8.620000
6.775570 1.406670 26.695300 -12.432000 8.220000
18.279900 1.604330 21.727200 -10.123200 8.570000
6.881430 1.428650 27.112400 -12.432000 8.400000
18.625900 1.608420 23.670600 -10.389600 6.390000
18.891900 1.631390 24.008700 -10.389600 10.580000
7.633370 1.701560 29.131500 -12.432000 7.510000
19.158000 1.654370 24.346900 -10.389600 8.640000
-5.647350 -0.167914 30.506000 -12.520800 6.820000
-6.498660 -0.170246 30.776600 -12.520800 8.530000
-25.425800 1.769260 21.243000 -7.992000 11.990000
-6.242540 1.548620 31.671000 -12.520800 9.010000
-25.756000 1.792240 21.518900 -7.992000 6.630000
-6.325780 1.569270 32.093300 -12.520800 8.700000
19.239700 1.315670 28.051800 -10.833600 8.580000
-10.812600 1.815210 32.227200 -12.165600 8.340000
19.058400 1.584000 29.711100 -11.011200 6.510000
-9.939330 1.456830 33.426000 -12.254400 8.140000
19.288000 1.713800 30.069100 -11.011200 6.250000
-10.517500 1.474820 33.699900 -12.343200 6.040000
19.520400 1.734450 30.431400 -11.011200 7.910000
-5.552080 1.824280 35.284000 -12.609600 7.320000
-10.645800 1.492810 34.110900 -12.343200 8.040000
19.752800 1.755100 30.793600 -11.011200 9.470000
-5.621390 1.510790 35.724500 -12.609600 6.350000
-5.198780 1.755100 36.213200 -12.609600 13.470000
19.271500 1.203180 31.629300 -11.188800 7.780000
-5.260700 1.661260 36.644500 -12.609600 12.770000
19.495600 1.217170 31.997100 -11.188800 5.450000
19.469600 1.231160 32.515900 -11.188800 7.050000
-10.253500 2.066050 39.130800 -12.343200 6.750000
-21.795000 -0.223885 35.158300 -10.744800 6.350000
-10.591000 2.088030 39.486500 -12.343200 6.360000
-20.916500 -0.226217 36.186500 -11.011200 5.230000
-5.083870 -1.726620 41.016500 -12.609600 5.820000
-9.622350 2.110010 40.176300 -12.432000 6.630000
19.357000 1.854430 36.510900 -11.544000 10.810000
-21.132200 -0.228549 36.559500 -10.922400 7.970000
10.273600 -1.744600 40.477400 -12.520800 9.740000
19.558600 1.873750 36.891200 -11.544000 6.270000
-21.062500 -0.230881 37.096000 -11.011200 6.500000
10.361800 -3.033840 40.824600 -12.520800 6.710000
19.762900 1.762590 37.276600 -11.544000 7.480000
19.964600 1.780580 37.656900 -11.544000 9.120000
11.021800 -1.816550 42.062900 -12.520800 15.660000
19.773300 1.816550 38.727100 -11.632800 9.410000
10.551200 -2.343690 42.602100 -12.520800 10.170000
19.969100 1.834530 39.110500 -11.632800 16.010000
-20.676500 -1.316470 39.736700 -11.188800 10.080000
10.073400 -2.366670 43.159600 -12.520800 11.740000
-21.491200 -1.329130 39.792300 -11.100000 9.120000
11.009000 -2.389650 43.374500 -12.432000 7.110000
-21.705200 -0.105946 40.188500 -11.100000 11.840000
-20.204600 -1.765330 40.925500 -11.366400 11.870000
-21.910000 -0.106945 40.567600 -11.100000 11.280000
10.630600 1.765330 44.386000 -12.609600 10.700000
10.474000 1.496970 44.875900 -12.609600 5.190000
9.958950 1.654810 45.429000 -12.609600 6.470000
19.593900 1.166960 44.560100 -11.988000 7.090000
12.388500 -2.415840 48.809700 -12.520800 7.630000
9.916310 6.658060 50.309600 -12.609600 14.410000
10.476100 -0.604678 51.072000 -12.609600 10.150000
10.562700 -0.609676 51.494100 -12.609600 7.000000
-14.165300 -5.443760 51.231300 -12.254400 6.290000
-14.279600 -5.487660 51.644400 -12.254400 6.560000
-19.244100 -0.129934 52.607500 -11.899200 5.030000
-19.085400 -0.130933 53.123400 -11.899200 8.670000
20.548800 1.540370 54.859900 -12.165600 12.650000
20.698200 1.734200 55.258600 -12.165600 5.380000
20.100900 1.241280 55.950000 -12.254400 12.730000
20.246600 1.250270 56.355400 -12.254400 6.140000
20.392200 1.259270 56.760900 -12.254400 10.740000
21.463900 -0.531390 58.675700 -12.254400 6.730000
21.270000 -0.535054 59.204300 -12.254400 7.020000
21.416400 -0.146925 59.611800 -12.254400 10.890000
21.561900 -0.345156 60.016600 -12.254400 9.340000
-16.628100 -1.538740 61.994400 -12.254400 5.550000
15.773600 2.457800 92.132500 -12.698400 6.970000
15.846300 2.469120 92.557000 -12.698400 6.180000
15.919000 2.480450 92.981600 -12.698400 5.360000
-17.748600 6.810660 92.872300 -12.520800 6.420000
-17.829300 6.841610 93.294400 -12.520800 6.960000
17.956300 0.000000 93.959400 -12.698400 6.160000
-17.909900 6.872570 93.716600 -12.520800 6.300000
18.036600 0.817241 94.379200 -12.698400 8.740000
18.117500 0.820905 94.802400 -12.698400 6.680000
18.198300 0.824570 95.225700 -12.698400 5.780000
-17.123600 6.678450 100.018000 -12.520800 8.220000
-17.192600 7.021880 100.420000 -12.520800 7.700000
-17.265200 7.051500 100.844000 -12.520800 5.370000
-16.556700 7.081130 101.399000 -12.609600 6.770000
28.071100 1.354280 113.342000 -12.520800 5.830000
28.175500 0.996814 113.763000 -12.520800 4.780000
28.278200 1.364270 114.178000 -12.520800 5.700000
19.146100 4.001260 121.675000 -12.698400 7.940000
19.213000 4.015250 122.101000 -12.698400 6.140000
18.335100 4.029240 122.671000 -12.698400 6.290000
-61.987300 -12.495700 119.129000 -11.188800 8.130000
-62.185400 -12.535600 119.510000 -11.188800 9.390000
-63.468800 -13.453800 119.714000 -11.011200 7.200000
-9.944260 1.619140 139.248000 -12.698400 8.540000
-8.115290 1.194710 140.234000 -12.787200 7.430000
-8.239760 1.213030 142.385000 -12.787200 5.510000
-8.264400 1.659120 142.810000 -12.787200 8.750000
-8.289290 1.664120 143.240000 -12.787200 11.990000
-8.314180 1.669110 143.671000 -12.787200 10.670000
25.831000 0.867554 158.197000 -12.698400 4.560000
25.899900 1.366950 158.619000 -12.698400 6.260000
19.508500 3.921720 186.816000 -12.787200 5.460000
19.553300 3.930710 187.244000 -12.787200 9.110000
19.598000 3.939710 187.673000 -12.787200 11.820000
-8.121070 1.303450 8.827140 -9.412800 2.790000
-8.322630 1.350000 9.223000 -9.412800 2.250000
-8.284230 1.556000 10.362600 -9.945600 3.240000
7.580800 1.447260 11.426600 -10.922400 2.210000
-8.559680 1.489660 10.707200 -9.945600 7.980000
-8.634370 1.536210 11.193200 -10.034400 7.800000
-7.899700 1.629320 12.743300 -10.744800 4.110000
-7.937010 1.389430 13.255500 -10.922400 4.320000
-8.128320 4.023930 13.112100 -10.922400 6.340000
-6.800970 4.262000 13.775700 -11.455200 3.780000
-6.765880 4.377190 14.254000 -11.455200 5.180000
-6.634330 0.791998 16.354700 -11.721600 5.620000
-6.699180 0.811315 16.792700 -11.810400 6.290000
-7.402600 0.923129 16.488800 -11.632800 7.520000
-7.578850 0.945108 16.881400 -11.632800 5.800000
8.260930 0.278515 17.063000 -11.810400 11.660000
8.448670 0.284845 17.450800 -11.810400 16.750000
8.636420 0.291175 17.838600 -11.810400 17.360000
9.394920 -1.424050 17.395300 -11.455200 7.470000
8.823200 0.422754 18.224400 -11.810400 13.700000
7.101800 -0.671540 19.414100 -12.254400 9.080000
6.991620 0.431749 19.460900 -11.988000 7.420000
7.249750 -0.685530 19.818600 -12.254400 6.890000
7.553350 -0.699521 20.165400 -12.254400 5.300000
9.537580 -0.049974 19.318900 -11.721600 7.460000
7.707650 -0.322824 20.577400 -12.254400 5.460000
9.842080 -0.050974 19.648700 -11.721600 8.130000
8.020250 -0.329154 20.919700 -12.254400 7.220000
8.886870 1.640750 20.973600 -12.076800 5.090000
9.175830 1.743480 21.311800 -12.165600 8.270000
-7.676630 1.743480 21.896500 -11.988000 9.810000
8.524280 -2.987980 23.302800 -12.254400 10.440000
8.212920 -3.039490 23.867200 -12.343200 7.910000
6.170830 -3.091010 24.915800 -12.432000 4.950000
8.526600 2.050540 24.778800 -12.343200 5.780000
8.811820 2.084150 25.134500 -12.343200 6.860000
9.297600 2.117770 25.416800 -12.254400 8.490000
8.524090 2.185000 26.590300 -12.432000 8.500000
18.450000 1.516510 21.589300 -10.123200 6.780000
8.657290 2.130910 27.005700 -12.432000 9.630000
18.729500 1.539480 21.916400 -10.123200 6.960000
19.009100 1.562460 22.243500 -10.123200 9.940000
19.288600 1.585440 22.570600 -10.123200 12.640000
19.158000 1.654370 24.346900 -10.389600 13.470000
19.185400 1.677350 24.871000 -10.478400 12.580000
9.181300 1.871610 30.027700 -12.432000 9.320000
18.608900 1.798790 25.830800 -10.744800 6.410000
18.860400 1.823100 26.179800 -10.744800 6.790000
19.115100 1.746280 26.533400 -10.744800 5.580000
-5.490500 9.046790 30.991400 -12.609600 8.420000
-7.959220 2.178990 32.136700 -12.520800 6.090000
18.777200 1.506730 27.835100 -10.922400 10.710000
-6.488200 1.999800 32.917300 -12.520800 11.600000
19.018000 1.526040 28.191900 -10.922400 8.970000
-6.378550 2.025440 33.376800 -12.520800 14.500000
19.258700 1.545360 28.548800 -10.922400 6.740000
-10.383500 1.861170 33.270600 -12.343200 7.690000
-11.531000 1.861170 32.890500 -12.165600 5.160000
19.058400 1.584000 29.711100 -11.100000 6.890000
-10.518800 1.365630 33.704100 -12.343200 7.050000
19.290800 1.603310 30.073400 -11.100000 10.880000
-10.645800 1.492810 34.110900 -12.343200 10.610000
19.523200 1.622630 30.435700 -11.100000 13.730000
-5.821450 2.265360 35.652500 -12.609600 9.920000
19.752800 1.755100 30.793600 -11.100000 12.170000
-5.678560 2.631390 36.087800 -12.609600 6.280000
-5.745370 2.662350 36.512400 -12.609600 5.940000
19.262300 1.661260 31.614200 -11.277600 8.630000
-5.528530 2.577650 36.988700 -12.698400 8.670000
19.486200 1.680580 31.981800 -11.277600 7.210000
-5.159160 2.607280 37.476000 -12.698400 6.800000
-21.895500 -2.281820 31.402400 -10.389600 6.050000
-10.141500 2.260650 38.703200 -12.343200 6.160000
-9.953140 1.940930 39.214700 -12.343200 8.850000
-10.059000 1.961580 39.631800 -12.343200 10.020000
-22.238600 -3.832540 34.668900 -10.656000 6.790000
-10.163400 2.110010 40.042900 -12.343200 12.140000
-9.174170 2.131990 40.722300 -12.432000 7.980000
19.561300 1.744600 36.896200 -11.544000 12.460000
19.762900 1.762590 37.276600 -11.544000 9.690000
9.684870 -2.044180 41.494900 -12.609600 6.070000
19.671100 1.912380 37.804600 -11.632800 7.270000
10.347100 -2.064820 41.778200 -12.520800 9.960000
19.869800 1.931700 38.186500 -11.632800 8.700000
7.910820 -2.320720 42.732900 -12.609600 6.900000
19.471600 1.951020 38.873100 -11.721600 5.710000
-19.640700 -1.166600 39.783200 -11.455200 14.380000
11.358300 -0.519724 43.347200 -12.520800 9.510000
-21.165400 -2.307820 39.922000 -11.188800 9.030000
-22.132500 -1.496970 40.419100 -11.100000 11.100000
-18.217100 -1.924460 42.311000 -11.632800 6.540000
-22.339300 -1.510960 40.796800 -11.100000 7.960000
-18.716000 -1.942450 42.563500 -11.632800 6.740000
22.855000 -1.960430 40.985500 -11.455200 8.100000
22.764700 0.256535 41.573700 -11.544000 6.210000
-19.252400 0.258867 43.783300 -11.632800 8.130000
19.768700 1.025400 44.957500 -11.988000 4.890000
19.942100 1.034400 45.351900 -11.988000 8.390000
20.114100 1.197940 45.743100 -11.988000 5.890000
20.286300 1.325170 46.134700 -11.988000 6.190000
-13.893700 -4.990290 51.799900 -12.254400 7.310000
-15.059100 -6.657800 51.736600 -12.165600 7.120000
-14.791200 -6.248490 52.315600 -12.165600 10.090000
-14.602600 -6.297690 52.812900 -12.254400 14.020000
-18.941600 1.449760 51.780400 -11.988000 13.210000
11.886000 2.964080 54.219500 -12.698400 7.780000
-19.090700 1.332190 52.188000 -11.988000 5.630000
11.556700 2.987060 54.730500 -12.698400 7.370000
-19.644800 1.169320 52.446300 -11.988000 8.650000
-16.815200 0.829214 53.878800 -12.165600 9.070000
-19.798100 0.829214 52.855600 -11.899200 7.410000
-16.942700 1.011430 54.287400 -12.165600 10.070000
12.029000 1.944670 58.642500 -12.698400 6.310000
-16.881300 -0.335827 59.708100 -12.343200 14.370000
-28.827800 1.835470 55.402200 -11.277600 10.250000
-16.650300 0.531390 60.218700 -12.343200 9.950000
-29.030800 1.507750 55.792300 -11.277600 6.340000
21.270000 0.535054 59.204300 -12.254400 9.740000
-29.229600 1.518080 56.174500 -11.277600 6.000000
21.416400 0.146925 59.611800 -12.254400 7.220000
-29.430500 1.331230 56.560500 -11.277600 7.070000
21.562100 0.147925 60.017300 -12.254400 4.960000
21.704400 1.141690 60.413400 -12.254400 7.440000
-14.559800 -3.472720 66.416400 -12.520800 12.340000
-15.042500 -3.071410 66.770800 -12.432000 12.860000
20.374400 -2.543500 68.519100 -12.432000 5.570000
-17.281600 7.428990 93.352500 -12.520800 5.880000
-17.364000 7.167620 93.797200 -12.520800 6.210000
-17.446200 6.903530 94.241200 -12.520800 10.660000
17.726600 0.225885 95.756200 -12.698400 5.550000
17.283800 2.375230 97.559300 -12.698400 6.830000
-16.421500 6.706750 100.571000 -12.609600 6.680000
-16.487400 7.051500 100.974000 -12.609600 5.420000
-16.549300 7.716490 101.353000 -12.609600 8.860000
28.175500 0.996814 113.763000 -12.609600 7.460000
28.278200 1.364270 114.178000 -12.609600 8.760000
-62.684300 -12.869700 118.234000 -11.188800 5.380000
-63.797600 -12.910900 118.125000 -11.100000 9.500000
-64.020100 -12.535600 118.537000 -11.100000 10.490000
-8.871320 0.323835 139.329000 -12.787200 7.340000
-8.898700 0.324834 139.759000 -12.787200 6.350000
-8.264650 1.216700 142.815000 -12.787200 4.370000
-8.264400 1.659120 142.810000 -12.787200 7.280000
-8.289290 1.664120 143.240000 -12.787200 7.580000
-8.314180 1.669110 143.671000 -12.787200 7.800000
19.508500 3.921720 186.816000 -12.876000 8.030000
19.553300 3.930710 187.244000 -12.876000 7.810000
6.941030 1.356800 10.820700 -11.100000 3.560000
7.172400 1.402030 11.181400 -11.100000 4.480000
-7.975900 0.918473 10.675900 -10.123200 3.530000
7.222590 1.489660 11.651000 -11.188800 3.530000
-8.233190 0.948101 11.020300 -10.212000 6.370000
-8.577820 0.977730 11.298900 -10.123200 6.170000
-8.837750 1.007360 11.641300 -10.123200 2.380000
7.188910 1.627800 12.661400 -11.455200 3.860000
-8.105450 1.443720 12.636000 -10.656000 3.330000
7.407710 1.536550 13.046700 -11.455200 4.260000
-7.651510 0.695413 13.476100 -11.100000 7.490000
-7.856370 0.734047 14.347600 -11.188800 4.190000
-6.659980 4.241440 14.834600 -11.632800 3.660000
-7.140000 4.453280 15.042200 -11.632800 6.070000
-6.632610 0.157585 17.300200 -11.899200 7.520000
8.261520 0.161249 17.064200 -11.899200 14.430000
8.449280 0.164914 17.452000 -11.899200 18.120000
8.637040 0.168579 17.839900 -11.899200 17.150000
9.193150 -1.205010 18.005300 -11.721600 9.860000
8.043270 -1.661360 18.982600 -12.165600 9.000000
7.908290 -1.230650 19.072000 -11.721600 6.690000
8.216160 -1.516920 19.390700 -12.165600 7.550000
8.097500 -0.383118 19.961700 -12.165600 8.030000
6.220920 -2.559870 20.921000 -12.432000 6.650000
8.259450 -0.390780 20.361000 -12.165600 7.490000
6.342890 -2.610060 21.331200 -12.432000 7.750000
9.155350 1.540660 20.392900 -12.076800 7.010000
10.142600 -1.483270 21.368000 -12.165600 10.160000
8.621190 -1.510240 22.487100 -12.254400 7.550000
8.214440 -2.853640 23.430500 -12.343200 5.670000
8.356070 -2.902840 23.834500 -12.343200 8.280000
8.380940 2.236060 24.355500 -12.432000 6.640000
8.993660 2.354310 24.585900 -12.343200 7.140000
9.307740 1.699020 25.444500 -12.343200 10.620000
18.283000 1.516510 21.730900 -10.212000 8.480000
5.488970 1.779930 27.847800 -12.698400 6.740000
8.671720 1.362780 27.050800 -12.520800 6.300000
18.560000 1.539480 22.060100 -10.212000 8.370000
-15.178500 1.896000 24.485000 -12.876000 11.400000
18.833900 1.652950 22.385600 -10.300800 8.590000
-15.596100 1.924300 24.730900 -12.787200 11.550000
19.116400 1.516570 22.721400 -10.212000 9.610000
-15.825400 1.952600 25.094600 -12.787200 7.210000
18.628100 1.538550 23.673500 -10.567200 8.210000
6.680590 6.774890 28.623000 -23.976000 9.240000
18.662000 1.560530 24.192600 -10.567200 5.890000
18.924900 1.582510 24.533300 -10.567200 7.230000
8.453570 6.898310 29.042900 -23.887200 11.980000
16.166000 0.665613 27.476800 -10.389600 4.340000
16.384400 0.674607 27.848100 -10.389600 5.910000
16.602900 0.683602 28.219400 -10.389600 8.860000
-6.578230 0.860796 32.069400 -12.609600 7.970000
-6.413000 1.077260 32.535800 -12.698400 8.690000
18.766200 1.896030 27.818700 -11.011200 4.900000
-6.305660 1.091250 32.995400 -12.698400 7.170000
19.006800 1.920330 28.175300 -11.011200 10.720000
19.247400 1.944640 28.532000 -11.011200 11.920000
-10.644100 1.564680 33.203400 -12.432000 7.690000
19.055600 1.693160 29.706800 -11.188800 13.930000
-10.517500 1.474820 33.699900 -12.432000 7.590000
19.055700 1.713800 30.216800 -11.188800 11.670000
-10.644400 1.603310 34.106300 -12.432000 5.280000
19.285300 1.734450 30.580900 -11.188800 6.950000
19.517700 1.641950 30.949400 -11.188800 8.580000
19.267200 1.432250 31.622400 -11.366400 5.510000
19.488800 1.564750 31.986100 -11.366400 5.430000
-4.758990 2.666540 38.395400 -12.787200 10.670000
-21.626100 2.236340 33.149100 -10.656000 5.860000
-21.861200 2.260650 33.509400 -10.656000 5.390000
-10.150100 1.548830 38.736000 -12.432000 8.030000
-9.625200 1.854430 40.188300 -12.520800 6.950000
-9.725470 1.873750 40.606900 -12.520800 8.770000
19.273700 1.873750 37.040900 -11.721600 10.500000
10.137400 -2.251780 40.931400 -12.698400 12.750000
19.475000 1.762590 37.427800 -11.721600 7.670000
8.800850 -2.274760 41.679400 -12.787200 8.200000
19.673800 1.780580 37.809700 -11.721600 13.450000
19.580000 1.665400 38.348400 -11.810400 15.950000
19.478900 1.547550 38.887600 -11.810400 8.250000
19.671800 1.562870 39.272600 -11.810400 11.390000
19.866700 1.441010 39.661800 -11.810400 12.660000
-19.312600 -2.366670 39.890400 -11.544000 11.870000
-19.185900 -2.528040 40.419900 -11.544000 11.650000
-21.454100 -2.971350 39.723500 -11.277600 12.520000
-21.653900 -3.140590 40.093500 -11.188800 8.080000
23.159200 -0.670967 39.363000 -11.455200 8.760000
-21.843200 -3.596840 40.444100 -11.188800 9.640000
23.377700 -0.677297 39.734300 -11.455200 6.680000
22.556500 0.544710 41.193500 -11.544000 5.390000
19.738900 1.245890 43.075400 -11.988000 8.830000
-20.981300 0.549708 42.498800 -11.455200 8.370000
19.918400 1.257210 43.467000 -11.988000 6.710000
-19.246000 -1.257210 43.768800 -11.721600 5.360000
-21.419600 0.554705 42.762000 -11.455200 8.170000
23.170900 -1.268540 42.315500 -11.632800 9.040000
-4.680310 1.881910 48.429700 -12.876000 8.530000
-17.018600 -2.844040 47.370700 -12.076800 5.920000
-17.422700 -3.652990 47.628200 -11.988000 9.370000
-17.570300 -3.683950 48.031800 -11.988000 7.630000
10.922000 14.284400 48.480700 -12.787200 7.620000
-13.799900 -4.168300 51.450200 -12.343200 6.570000
-13.611200 -4.201920 51.944700 -12.343200 10.440000
-15.824000 -4.361070 51.752800 -12.254400 6.460000
-15.959900 -3.931610 52.197400 -12.165600 7.700000
-19.093100 0.988444 52.194700 -12.076800 7.350000
-19.240000 1.169320 52.596200 -12.076800 9.290000
-17.538500 1.178310 53.641200 -12.165600 9.410000
12.185700 2.464030 57.709300 -12.787200 11.720000
12.274600 2.482010 58.130600 -12.787200 5.850000
12.024900 2.500000 58.622300 -12.787200 7.660000
-28.633100 1.487100 55.028100 -11.366400 6.680000
-16.881500 0.000000 59.709000 -12.432000 6.230000
-28.830300 1.642310 55.407000 -11.366400 7.090000
-16.650900 0.144926 60.220800 -12.432000 5.450000
-29.029100 1.653630 55.789100 -11.366400 6.530000
-17.116000 0.145926 60.538100 -12.432000 7.860000
-29.229600 1.518080 56.174500 -11.366400 5.460000
21.416400 0.146925 59.611800 -12.432000 5.600000
-29.428500 1.528410 56.556600 -11.366400 10.560000
21.561900 0.345156 60.016600 -12.432000 12.330000
35.134700 0.487416 82.920300 -12.165600 6.990000
35.302800 0.489748 83.317000 -12.165600 5.010000
35.471000 0.492080 83.713800 -12.165600 7.470000
-17.211400 6.810660 92.973300 -12.609600 8.000000
17.875400 -0.220887 93.535900 -12.876000 7.370000
-17.829300 6.841610 93.294400 -12.609600 6.660000
17.956300 -0.221887 93.959100 -12.876000 6.010000
-17.909900 6.872570 93.716600 -12.609600 6.040000
18.037200 0.222886 94.382400 -12.876000 7.060000
18.118100 0.223886 94.805600 -12.876000 7.070000
18.198900 0.224885 95.228900 -12.876000 9.740000
17.961900 0.228883 97.027300 -12.876000 8.260000
18.040100 0.536391 97.449800 -12.876000 8.790000
18.118600 0.538723 97.873500 -12.876000 9.450000
-17.192600 7.021880 100.420000 -12.698400 8.480000
-17.257500 7.684210 100.799000 -12.698400 8.990000
16.734800 -0.240877 102.489000 -12.876000 4.540000
-61.950500 -13.326100 119.059000 -11.277600 6.210000
-62.148400 -13.368700 119.439000 -11.188800 6.670000
-8.816260 1.180050 138.464000 -12.964800 6.560000
-8.871210 0.755611 139.327000 -12.964800 5.630000
-8.239760 1.213030 142.385000 -12.964800 5.660000
-8.264400 1.659120 142.810000 -12.964800 11.120000
-8.289290 1.664120 143.240000 -12.964800 11.840000
-8.314180 1.669110 143.671000 -12.964800 8.620000
-51.322700 -16.814800 133.868000 -11.899200 5.650000
-51.475900 -16.865000 134.267000 -11.899200 4.910000
19.509700 3.340790 186.827000 -12.964800 14.830000
18.110600 3.348450 187.400000 -12.964800 10.730000
