VERSION .7
FIELDS x y z velocity SNR
SIZE 4 4 4 4 4
TYPE F F F F F
COUNT 1 1 1 1 1
WIDTH 217
HEIGHT 1
VIEWPOINT 0 0 0 1 0 0 0
POINTS 217
DATA ascii
-6.94769919777975 4.94978101383399 -2.11322720245165 -4.02258238958491 6.4717205622007
-7.08185446839015 7.10698764755893 -0.467441961832623 1.701861780209 5.76781005821785
-7.38052265296508 7.24538357612935 -0.562391110329875 1.701861780209 7.97207611721806
-7.39925939721675 7.58906060385255 -1.24164271111791 0.928288243750363 6.13863407127928
-7.07564226818653 7.73777432072471 1.98662833778865 0.928288243750363 6.13863407127928
-6.87021631795349 8.16564957285989 0.0827761807411935 0.928288243750363 6.13863407127928
-6.6203013258136 8.36627159425674 -0.248328542223582 0.928288243750363 6.13863407127928
7.60417485457009 7.46494065419388 0.579433265188356 0.928288243750363 6.13863407127928
7.98180685792564 6.9880143635988 1.15886653037671 0.928288243750363 6.13863407127928
-7.69610029125831 7.38870288618579 -0.248328542223582 1.701861780209 6.11604380606611
-7.93135872080202 7.44467526122956 -1.53379393726329 0.928288243750363 5.83865940557407
-7.63567620723369 7.83154183104982 -1.02252929150886 0.928288243750363 5.83865940557407
-6.81686194339242 8.61467109006023 -0 0.928288243750363 5.83865940557407
-7.0277211333632 9.62971302301872 -0.370058219784161 -0.309429414583454 5.56296196119827
-7.11582852005221 9.94899579570454 -0.474745742486258 -0.618858829166909 5.44022995797257
-7.20549049518725 9.87330093810031 -0.664644039480761 -0.464144121875182 15.1964394488816
-7.20831615532569 9.87717279011569 -0.56969489098351 -0.309429414583454 9.75474455659028
-7.39024666173052 10.1264625006157 -0.681686194339242 -0.464144121875182 16.1376056979929
-7.39024666173052 10.1264625006157 -0.681686194339242 -0.309429414583454 10.3635123992803
-7.67768357029798 10.3101875170264 -0.598910013598049 -0.309429414583454 5.44087526072327
-7.73526282091099 18.8246535350905 1.42423722745878 -2.78486473125109 5.67559965067695
-8.1869837323137 18.5734062309038 2.05723155077378 -2.63015002395936 8.3796279594481
-8.3667128471078 18.5526275163063 1.42423722745878 -2.47543531666763 5.17683586931279
-8.01867572329602 19.0573960600968 1.28546539503972 -2.78486473125109 8.62976576023405
-8.16495818651864 18.956404591985 1.76751491817961 -2.63015002395936 18.7066293593835
-8.16495818651864 18.956404591985 1.76751491817961 -2.47543531666763 6.21368842340573
7.57796981258111 18.8901696183921 3.85639618511914 -1.39243236562554 5.1644873930309
8.43279416576458 18.699158431521 2.89229713883936 -1.39243236562554 5.1644873930309
8.31293732819545 18.8591509421485 2.08888126693953 -1.23771765833382 6.67013014495234
-12.6292701716815 16.2872353765739 -2.08888126693953 1.54714707291727 12.2762537688492
-11.7266955102095 17.070095690906 0.482049523139894 1.54714707291727 12.2762537688492
-7.53368454331739 19.2428734274682 -1.44614856941968 1.54714707291727 12.2762537688492
1.58928602496544 20.4276627974558 -3.05298031321932 1.54714707291727 12.2762537688492
15.0751103597965 14.1500725293804 -1.28546539503972 1.54714707291727 12.2762537688492
-12.6388621411163 16.2996055818023 -1.92819809255957 1.701861780209 6.1274559408035
-6.98819537713058 18.2963436243099 6.7486933239585 1.701861780209 6.1274559408035
1.59109323882351 20.4508915647863 -2.89229713883936 1.701861780209 6.1274559408035
-8.2987105365943 19.2669344936995 1.46805991138058 -2.78486473125109 5.44104212362611
-8.28289066670397 19.2302058482634 1.95741321517411 -2.63015002395936 12.6464593413052
7.69278753701416 19.1763843095798 3.91482643034822 -1.39243236562554 8.95459476223185
8.39904370312287 19.0544962283844 2.93611982276116 -1.39243236562554 8.95459476223185
8.44530028761973 19.1594362603675 1.95741321517411 -1.23771765833382 9.22096425735097
-12.4503935314014 16.7193517151605 -2.77300205482999 1.39243236562554 22.5933741368307
0.804696136598402 20.7329968708117 -3.42547312655469 1.39243236562554 22.5933741368307
-12.4857918678103 16.7668873400433 -2.28364875103646 1.54714707291727 72.6345827124579
0.805715045976195 20.7592490720845 -3.26235535862352 1.54714707291727 72.6345827124579
-12.4960500221912 16.7806627834147 -2.12053098310528 1.701861780209 33.9103268260011
0.968019669751675 20.7773007278016 -3.09923759069234 1.701861780209 33.9103268260011
0.983584911272712 21.1113886746575 -2.97994250668297 1.39243236562554 57.7651875279764
0.984640542898191 21.1340464536529 -2.81439014520059 1.54714707291727 193.786739481476
0.984640542898191 21.1340464536529 -2.81439014520059 1.701861780209 101.849436962631
3.50974539293566 21.259056884715 -2.18383041543679 -1.85657648750073 5.64029841321089
5.20195285298301 20.9990168325876 -1.00792173020159 -1.85657648750073 5.64029841321089
5.87883589486886 20.8413372336596 -0.335973910067197 -1.85657648750073 5.64029841321089
6.38177576333943 20.6894632406708 -0.503960865100798 -1.85657648750073 5.64029841321089
6.87419200642559 20.4932758826165 1.34389564026879 -1.85657648750073 5.64029841321089
8.44167275815043 19.5988467523149 3.69571301073918 -1.85657648750073 5.64029841321089
0.999120550881988 21.4448412544419 -2.85577823557118 1.39243236562554 32.8217892834228
1.00012944684471 21.4664959123744 -2.68779128053758 1.54714707291727 163.084921112427
1.00012944684471 21.4664959123744 -2.68779128053758 1.701861780209 54.3573615716065
1.34516369103017 21.6358731800493 3.57885252028102 1.39243236562554 6.04893063843493
-10.3685601646934 19.7191143140694 0.518568426408068 -1.54714707291727 12.8191675137947
7.66988619508479 20.0811319391363 5.87710883262475 -1.54714707291727 12.8191675137947
-2.02827433295716 21.6961645324947 4.6671158376726 -1.39243236562554 7.68298903588598
0.17252302313758 22.2413440804195 -1.38284913708818 1.54714707291727 6.61183891549505
0.861128982832478 22.1869892179453 -1.90141756349624 1.54714707291727 6.61183891549505
-12.0859610555964 19.0753399000711 -0.876453678436169 -1.701861780209 8.00262121346046
-10.3421534055468 20.0934586601515 -0 -1.701861780209 8.00262121346046
-4.88312402495397 21.9469697554581 2.27877956393404 -1.701861780209 8.00262121346046
-10.5171277439968 20.0016628100144 0.175290735687233 -1.54714707291727 19.4327672240003
-10.517444141234 20.002264539974 -0 -1.39243236562554 8.67989604241164
-13.2642603828517 18.175311530657 -2.1034888282468 -1.23771765833382 5.80376172726195
-11.0379996748392 19.7073121378093 0.701162942748936 -1.23771765833382 5.80376172726195
-4.15604656551303 21.934989357856 3.50581471374468 -1.23771765833382 5.80376172726195
-10.1903091582653 18.9736286022924 7.8199144864916 -1.701861780209 8.3608005974481
-10.6631989626635 20.2794636823757 -0.177725329238445 -1.54714707291727 11.9126185908391
-10.8412450835452 20.1856248526842 -0 -1.39243236562554 5.92121822652093
15.373970530724 17.1699094497635 2.88255876463451 4.02258238958491 5.43863817285058
16.1968237498209 16.6122946133697 1.08095953673794 4.02258238958491 5.43863817285058
1.78586765133496 22.9543968859527 3.06271868742417 4.17729709687663 6.51907439333605
15.2664977075503 17.0498819891596 3.96351830137245 4.17729709687663 6.51907439333605
16.4092647916714 16.830185060886 1.27816161438608 4.02258238958491 10.0600272140732
16.9193652260747 16.2435724519243 2.00853967974955 4.02258238958491 10.0600272140732
15.531658880344 17.3460184567926 3.4692958104765 4.17729709687663 16.3819082592331
16.8659589201264 16.1922992990329 2.73891774511303 4.17729709687663 16.3819082592331
17.0746737446821 16.3926776423786 2.96046575827328 4.17729709687663 7.84082450975075
7.95242128248994 25.7814335538967 0.837500181616785 -2.16600590208418 5.22074751924835
-12.0265303368853 27.2839962553744 0.231286387365099 -2.63015002395936 8.10025025454365
-10.9880988940002 27.3908523027794 6.07674550382411 -2.63015002395936 12.0626416141824
7.02989538724179 29.3809654635484 -3.77848919148037 -2.78486473125109 6.10659006774805
-11.3269393467908 28.2355051299998 1.18077787233762 -2.63015002395936 14.8749273229261
7.07101404690649 29.5528180805459 -1.88924459574019 -2.63015002395936 14.8749273229261
9.39807600040744 28.7956363158029 3.0700224680778 -2.63015002395936 14.8749273229261
8.57269331872374 29.4790414310879 1.90872134414988 -2.78486473125109 6.83606890900204
7.14391109893645 29.8574863081804 1.90872134414988 -2.63015002395936 12.5636613802168
8.5682911247014 29.4639035444113 2.14731151216861 -2.63015002395936 12.5636613802168
-12.6391909856955 28.0265627313984 0.954360672074941 -2.01129119479245 7.66564275690874
-11.6821225823216 28.4297916254592 -1.19295084009367 -2.01129119479245 7.66564275690874
-12.880380373605 27.9236753601505 0.715770504056206 -1.85657648750073 6.12306621649553
-11.6877525612342 28.4434928279772 -0.715770504056206 -1.85657648750073 6.12306621649553
-12.7727751305908 28.3227766600484 0.482049523139891 -2.01129119479245 6.87689999302984
-11.7974162177749 28.7103719744996 -1.44614856941968 -2.01129119479245 6.87689999302984
-13.0149455831961 28.2154023991355 0.241024761569946 -1.85657648750073 5.59600663349812
-11.7974162177749 28.7103719744996 -1.44614856941968 -1.85657648750073 5.59600663349812
-15.2043478821715 30.1828677647409 2.62936103530851 -2.16600590208418 5.06987918423014
-13.3952109930951 31.0993679795418 1.5776166211851 -2.16600590208418 5.06987918423014
7.61555082036887 35.5570091463869 5.12725401885159 -2.93957943854282 13.5127902802087
9.36568733159491 35.3702197078688 3.1333219004093 -2.93957943854282 13.5127902802087
7.68888423939617 35.8994029026094 4.88379466373043 -2.93957943854282 12.8946364101153
9.44573594126667 35.6725292780215 3.16010242947263 -2.93957943854282 12.8946364101153
9.44573594126667 35.6725292780215 3.16010242947263 -2.78486473125109 5.47162173460634
-20.1938054214579 37.5994249225435 7.39142602147836 -2.93957943854282 5.54617404469637
-14.9709707659272 38.2395219601548 13.7749303127551 -2.93957943854282 5.54617404469637
-20.1056327451334 38.2372541761402 6.09135306513137 -3.09429414583454 5.6237652227237
-17.070376713606 39.6319197390389 6.42976156874979 -3.09429414583454 5.6237652227237
-9.72815203044757 42.13900027435 5.75294456151296 -3.09429414583454 5.6237652227237
8.3678317223559 42.3328030682162 6.42976156874979 -3.09429414583454 5.6237652227237
-20.0827961336542 38.1938230974608 6.42976156874979 -2.93957943854282 21.6364411041631
-17.0283310816301 39.5343033161675 7.1065785759866 -2.93957943854282 21.6364411041631
-9.68277649739749 41.9424491109161 7.1065785759866 -2.93957943854282 21.6364411041631
8.3678317223559 42.3328030682162 6.42976156874979 -2.93957943854282 21.6364411041631
8.43761566042768 42.6858395304368 6.13517574905318 -3.09429414583454 16.8318140159141
8.42803195057429 42.6373556082753 6.47601884622281 -2.93957943854282 76.0322790262583
8.40727306893853 42.5323365690115 7.15770504056205 -2.78486473125109 12.8781071815868
8.82776146594439 42.8733972113416 6.52227612369583 -3.09429414583454 10.8852477276453
10.6028022083402 42.8009304078672 3.77605459792916 -3.09429414583454 10.8852477276453
8.48823217879268 42.9419081483344 6.52227612369583 -2.93957943854282 48.8888799061913
8.44426735688953 42.7194904170382 7.89538688657915 -2.78486473125109 10.0510502940964
-8.97119720315421 43.5700151885516 2.76569827417636 -3.55843826770973 5.28861024058059
-41.8427710026308 22.9815060526722 5.21489938669521 -2.16600590208418 12.6759762037391
43.3595253822921 20.0665128620199 4.84240657335983 -2.16600590208418 12.6759762037391
44.8050910736135 16.4763745864437 5.21489938669521 -2.16600590208418 12.6759762037391
-21.6927370538075 43.0632749937352 3.37434666197925 -2.32072060937591 21.2080679388131
-21.6802738319853 43.038533664538 3.74927406886583 -2.16600590208418 67.0284982766225
-21.6802738319853 43.038533664538 3.74927406886583 -2.01129119479245 11.9735492686295
8.63508787150838 47.6258068260854 4.90570600569133 -3.09429414583454 5.21519275329493
10.935264682952 47.3677960657657 1.88681000218897 -3.09429414583454 5.21519275329493
-21.8335989827283 43.3429066495387 3.39625800394016 -2.32072060937591 24.4149594653395
-21.8335989827283 43.3429066495387 3.39625800394016 -2.16600590208418 67.8765571246533
-21.8210548308943 43.3180046623596 3.77362000437795 -2.01129119479245 11.5992881201192
-21.9744609116492 43.6225383053422 3.41816934590106 -2.16600590208418 8.20444750685578
-20.1286139322606 44.633858425517 0.379796593989005 -2.16600590208418 8.20444750685578
26.3317339642908 42.4135614061447 5.45348955471394 0.773573536458636 7.59345253982412
29.1271032225508 40.7240599862128 3.89534968193853 0.773573536458636 7.59345253982412
26.3317339642908 42.4135614061447 5.45348955471394 0.928288243750363 10.3403535755309
29.1271032225508 40.7240599862128 3.89534968193853 0.928288243750363 10.3403535755309
8.60981002066313 49.7142280965208 6.31046648474042 -3.403723560418 7.99180323312808
10.6373734356932 49.6658998761898 2.36642493177765 -3.403723560418 7.99180323312808
8.60981002066313 49.7142280965208 6.31046648474042 -3.24900885312627 13.8758247409783
10.6409004946011 49.6823677153269 1.97202077648138 -3.24900885312627 13.8758247409783
8.60981002066313 49.7142280965208 6.31046648474042 -3.09429414583454 5.02745024942794
10.6409004946011 49.6823677153269 1.97202077648138 -3.09429414583454 5.02745024942794
8.65421810498263 49.9706464876224 6.74625873040729 -3.403723560418 5.21500054181061
10.6988406441697 49.9528902916642 2.77787124193241 -3.403723560418 5.21500054181061
8.65421810498263 49.9706464876224 6.74625873040729 -3.24900885312627 8.95286417819664
10.7030362346789 49.9724795050552 2.38103249308492 -3.24900885312627 8.95286417819664
-27.1194986706115 46.4522782132318 4.60625099889231 -3.403723560418 5.71722383731503
-23.364491162373 48.4497875337775 4.60625099889231 -3.403723560418 5.71722383731503
-14.1946083037898 51.9179818449867 4.18750090808392 -3.403723560418 5.71722383731503
-27.0338954447331 46.3056506920982 6.28125136212588 -3.24900885312627 5.3422132138158
-23.364491162373 48.4497875337775 4.60625099889231 -3.24900885312627 5.3422132138158
-14.1756934793342 51.848799272867 5.0250010897007 -3.24900885312627 5.3422132138158
8.38712370699319 53.4097182191285 5.05421621231524 -3.403723560418 34.7096879106696
8.38712370699319 53.4097182191285 5.05421621231524 -3.24900885312627 29.6902341145857
8.3738786320263 53.3253727693073 5.89658558103445 -3.09429414583454 6.51901814087497
8.43560419084864 53.7184449140368 5.08343133492978 -3.403723560418 42.7682288046744
8.42920218593245 53.6776765540415 5.50705061284059 -3.24900885312627 36.5013305195118
8.41484402036415 53.5862428749952 6.35428916866223 -3.09429414583454 8.01538002009276
8.47068647748326 53.9418510672183 5.96475420046837 -3.403723560418 6.27738422270187
10.6462188221828 53.859147718821 1.70421548584811 -3.403723560418 6.27738422270187
8.45520063757604 53.843236288812 6.81686194339242 -3.24900885312627 5.63797930262497
10.6398053912112 53.8267022156938 2.55632322877216 -3.24900885312627 5.63797930262497
19.2165177521095 70.286040898467 6.23986327175528 -2.93957943854282 5.70056623544527
19.2165177521095 70.286040898467 6.23986327175528 -2.78486473125109 7.34999230795626
-0.969443065323689 2.81343480753129 -0.998183355996748 0 5.18699469465383
-0.600519504924181 3.03802404064368 -0.511264645754432 0 5.18699469465383
-0.497229838986183 3.0117960844286 -0.730378065363474 0 5.18699469465383
0.0727207257831781 3.12425425380603 -0.29215122614539 0 5.18699469465383
-7.998828355324 4.56007966674775 -1.97202077648138 -0.31146513441624 6.72418644724278
-5.76444611057668 7.13787617507555 -2.11809638955407 -0.31146513441624 6.72418644724278
-6.47666023707807 6.78762422929606 0.803415871899821 -0.20764342294416 6.84698084288038
-8.39549955135181 4.78621931808644 1.13208600131339 -0.31146513441624 5.96137057750069
-6.72598505502664 6.89851584638376 1.35850320157606 -0.20764342294416 9.95542837937146
-7.84889348301986 5.75005233028147 0.0754724000875587 -0.10382171147208 5.9957164055373
-6.76725173365796 6.79126840204072 1.6603928019263 -0.10382171147208 5.9957164055373
-6.91798469672656 7.0954405436483 1.63604686641418 -0.20764342294416 5.94554930211241
-7.30638735844343 17.3645527594807 -3.41573475234985 -2.595542786802 9.43988143467721
9.13125020093517 16.6475756358158 5.52165817414786 -1.97261251796952 6.93502915235311
9.1837238242709 16.7432425591991 6.23255949110165 -1.97261251796952 5.69848560064251
8.88296886997287 17.6340002766635 -6.26664380081861 -2.0764342294416 5.24714344762419
-12.6557263501983 16.3213543716393 -1.60683174379964 0.62293026883248 13.0913255973844
-11.9460065866325 16.7023093615799 2.73161396445939 0.62293026883248 13.0913255973844
-7.70141494222443 19.1978904849565 -1.12478222065975 0.62293026883248 13.0913255973844
-12.6630016791931 16.3307369403997 -1.44614856941968 0.726751980304561 14.7982828074845
-7.70443508099588 19.205419009756 -0.964099046279785 0.726751980304561 14.7982828074845
-8.50570879932808 18.032316247004 6.68782848517821 -2.0764342294416 12.4270704668444
18.5664789523393 8.17106229238694 -5.54600410965998 -2.0764342294416 12.4270704668444
-8.94690691195503 18.5527575137947 -4.24106196621057 -1.97261251796952 5.66354264973229
0.808467112428662 20.8301560673492 -2.77300205482999 0.62293026883248 78.9394384088054
0.809283489596563 20.8511900260047 -2.60988428689881 0.726751980304561 90.1291079790114
0.808467112428662 20.8301560673492 -2.77300205482999 0.830573691776641 9.8229703797412
-10.7941764965408 18.1124528542615 -3.31104722964775 -1.97261251796952 11.587751198272
0.821362347650243 21.1624018174376 -2.6488377837182 0.62293026883248 289.726077000332
0.821362347650243 21.1624018174376 -2.6488377837182 0.726751980304561 336.036931185782
0.822139933024083 21.1824363054752 -2.48328542223581 0.830573691776641 35.6539490756432
-10.7999209423788 18.498901413688 -3.19175214563838 -1.97261251796952 12.6080648792964
0.83423022615679 21.4939427217322 -2.51980432550399 0.62293026883248 315.942795518368
0.834967667066206 21.5129428875985 -2.35181737047039 0.726751980304561 381.4437298759
0.834967667066206 21.5129428875985 -2.35181737047039 0.830573691776641 23.6532148508018
-7.99027148533663 20.4091081806481 -1.5337939372633 -2.0764342294416 5.71526551506916
0.698118967518509 22.4898906766509 -2.1034888282468 0.62293026883248 5.03896566656826
29.2577510932272 39.2895718266686 -5.35123662556306 -1.14203882619288 18.1899671539458
29.3040284664279 39.3517166638617 -4.58677425048262 -1.0382171147208 8.61267759159807
29.4682970672569 39.5723092504406 -5.00065515418858 -1.14203882619288 11.1119377199146
29.4682970672569 39.5723092504406 -5.00065515418858 -1.0382171147208 5.7127597068201
-39.5770356338287 32.2033601151991 -16.6526198902872 -3.01082963269032 6.55725608718409
10.141155194533 51.3040343040644 -12.0731494204582 -3.01082963269032 6.55725608718409
