VERSION .7
FIELDS x y z velocity intensity
SIZE 4 4 4 4 4
TYPE F F F F F
COUNT 1 1 1 1 1
WIDTH 776
HEIGHT 1
VIEWPOINT 0 0 0 1 0 0 0
POINTS 776
DATA ascii
7.683840 0.680625 9.277090 -11.011200 4.600000
7.790450 0.704933 9.744970 -11.188800 4.130000
7.958270 0.704933 9.608410 -11.011200 4.790000
8.173810 1.902270 10.940800 -11.544000 3.430000
-7.181810 1.751570 12.648900 -11.899200 3.840000
8.248500 1.402470 12.026400 -11.721600 3.380000
-7.393040 1.803090 13.020900 -11.899200 3.760000
-7.508240 1.723550 13.464400 -11.899200 3.200000
-6.906940 0.139261 14.845500 -12.432000 8.020000
-7.627490 1.718620 14.386900 -12.076800 7.070000
-7.083660 0.649507 15.225400 -12.432000 8.320000
8.805440 1.763850 14.204400 -12.076800 7.870000
-7.265290 0.666161 15.615700 -12.432000 5.630000
8.918670 1.809070 14.637800 -12.076800 5.560000
-7.815890 0.628214 15.831500 -12.343200 5.770000
-7.144200 1.076810 16.593100 -12.609600 5.570000
-0.213446 1.559690 18.461700 1.154400 7.640000
-0.109207 1.595960 18.892000 1.154400 15.600000
-6.619910 1.814960 17.673400 -12.876000 8.120000
-11.593200 4.951980 14.733200 -12.165600 10.650000
-0.228099 1.897460 19.729100 1.154400 15.840000
-11.841100 5.121270 15.048200 -12.165600 10.590000
-1.048310 1.938700 20.132000 1.154400 8.220000
-6.414260 1.876350 19.117900 -13.053600 7.840000
-0.398210 0.799394 20.663900 1.154400 8.040000
-6.550730 1.916270 19.524600 -13.053600 7.130000
-0.403893 2.524330 20.958800 1.154400 4.730000
-6.701600 1.386630 19.974300 -13.053600 7.710000
-1.242950 1.148870 21.478400 1.154400 3.580000
-11.044200 1.414930 18.444800 -13.142400 10.060000
0.549633 1.171850 21.937700 1.154400 6.650000
-11.102100 1.900650 18.869900 -13.053600 4.710000
-11.104300 1.849860 18.873600 -12.609600 10.500000
0.560214 1.333200 22.360100 1.154400 7.310000
-11.319800 1.937920 19.239900 -13.053600 6.680000
-11.173400 1.886140 19.330400 -12.609600 8.350000
-0.570988 1.358840 22.790100 1.154400 6.360000
-11.372900 2.256490 19.675500 -13.320000 5.220000
-14.657900 1.781610 17.422200 -12.343200 4.970000
-5.705840 1.869030 22.480600 -13.320000 5.300000
-14.934500 1.815230 17.750900 -12.254400 6.630000
-5.813950 1.775760 22.906600 -13.320000 7.120000
8.610210 1.938250 22.458500 -13.142400 5.250000
-10.689200 1.795540 22.519500 -12.609600 4.800000
-6.252570 0.609298 24.634700 -13.408800 6.340000
-11.049700 1.826490 22.823300 -12.609600 4.500000
-6.213630 0.619625 25.088600 -13.408800 8.320000
-11.239400 1.777690 23.215200 -12.609600 9.180000
-6.296570 2.212580 25.423500 -13.408800 10.920000
-11.426800 1.807320 23.602100 -12.609600 9.530000
9.121160 -2.968340 24.934500 -13.142400 5.850000
9.127800 -2.849290 25.406900 -13.142400 4.930000
8.728800 -8.027280 24.897700 -13.320000 7.060000
9.117370 -7.570740 25.377800 -13.320000 6.830000
7.449360 -7.687210 26.347900 -13.497600 10.420000
9.038290 -1.187050 26.938800 -13.231200 10.850000
8.805550 -1.205040 27.468200 -13.320000 8.700000
9.082230 2.575300 29.101000 -13.408800 6.060000
10.221800 1.604490 29.705200 -13.320000 10.190000
-5.629630 1.723300 31.776700 -13.586400 5.930000
-5.703720 1.847410 32.194900 -13.586400 7.170000
-5.590120 1.871720 32.651400 -13.586400 6.380000
-4.692060 2.157490 34.083000 -13.675200 7.860000
18.834900 1.133220 29.362800 -11.988000 5.070000
19.067500 1.147210 29.725300 -11.988000 7.750000
-19.767600 -0.746565 29.795900 -11.366400 5.640000
19.300000 1.161200 30.087800 -11.988000 8.850000
-17.246300 -4.549610 31.495800 -0.444000 8.220000
-17.969900 -4.549610 31.088700 -0.266400 11.260000
-20.081500 -4.549610 29.768400 -0.444000 8.150000
-19.270500 -1.953080 31.085900 -11.632800 7.620000
10.353600 0.888129 35.570600 -13.497600 8.510000
10.681800 0.898456 35.923000 -13.497600 8.150000
10.804600 0.908783 36.335900 -13.497600 8.160000
10.927400 0.919110 36.748800 -13.497600 12.450000
-18.415200 -1.498860 34.096900 -12.076800 6.370000
-19.356600 -0.818524 34.091400 -11.899200 5.220000
18.814000 2.022090 34.835300 -12.432000 16.980000
-19.567900 -0.950092 34.463700 -11.899200 6.680000
10.887200 2.136900 38.507200 -13.497600 16.760000
19.018500 2.044070 35.213900 -12.432000 6.580000
19.225900 1.940930 35.598000 -12.432000 8.680000
11.122600 2.088030 39.340100 -13.497600 8.100000
19.427500 2.088030 35.971200 -12.432000 6.960000
-20.203100 1.202550 35.582400 -11.988000 6.890000
11.023700 -0.351817 39.869000 -13.497600 9.160000
-20.415700 1.215210 35.956900 -11.988000 7.310000
-20.347800 1.227860 36.489400 -11.988000 6.050000
-20.557600 1.240520 36.865600 -11.899200 5.570000
-19.885500 0.899476 38.216600 -12.165600 13.370000
-8.573090 2.126770 43.494900 -13.586400 17.270000
-8.402320 2.147420 43.966400 -13.586400 16.850000
-8.226380 2.168060 44.437500 -13.586400 7.520000
19.901300 0.670967 41.106300 -12.787200 12.590000
-18.154700 -0.403123 43.782500 -12.698400 6.360000
19.925200 0.000000 43.482000 -12.876000 8.100000
-18.319700 -0.406788 44.180600 -12.698400 5.620000
20.104700 0.000000 43.873700 -12.876000 9.550000
20.284200 0.112942 44.265300 -12.876000 4.980000
11.441400 -0.113942 47.771400 -13.675200 6.330000
20.463700 0.113942 44.657100 -12.876000 7.740000
-19.557800 -3.101390 45.424900 -12.609600 8.220000
-3.255460 2.140290 51.128900 -13.852800 15.190000
-2.984730 2.158270 51.576600 -13.852800 10.310000
-3.009980 2.015140 52.012900 -13.852800 13.710000
-16.945600 -2.498440 49.245000 -13.053600 17.570000
-3.337950 2.031790 52.424400 -13.852800 10.110000
-15.643700 -2.519080 50.125000 -13.142400 10.020000
-16.839400 -2.539730 50.190200 -13.053600 15.260000
-16.976300 -2.560380 50.598300 -13.053600 7.850000
-16.736200 -0.957795 51.187400 -13.053600 8.730000
-16.870100 -0.965457 51.596900 -13.053600 6.140000
12.287200 3.505920 54.540200 -13.675200 7.780000
12.381700 3.532890 54.959800 -13.675200 6.060000
16.004700 0.168914 71.041400 -13.675200 9.030000
16.099400 0.169913 71.461800 -13.675200 7.290000
15.778300 0.170913 71.974500 -13.675200 7.270000
-14.395900 1.126720 75.328700 -13.586400 5.570000
-14.476800 1.133050 75.751900 -13.586400 5.590000
16.607600 0.899522 75.757800 -13.675200 8.800000
16.699200 1.145710 76.175600 -13.675200 6.370000
16.198900 1.637050 76.715100 -13.675200 7.980000
16.881900 1.646040 77.008800 -13.675200 5.240000
16.379300 0.919511 77.569800 -13.675200 5.580000
16.468900 0.677980 77.993800 -13.675200 5.370000
16.735900 0.688974 79.258600 -13.675200 6.360000
16.825500 0.188904 79.682800 -13.675200 7.240000
16.914500 0.189903 80.104500 -13.675200 7.360000
17.003400 0.445438 80.525100 -13.675200 5.360000
17.092000 0.703633 80.944900 -13.675200 6.310000
16.709900 0.964487 81.462000 -13.764000 9.970000
16.797000 0.710963 81.886600 -13.764000 10.330000
16.883600 0.714627 82.308700 -13.675200 5.530000
17.448100 0.718292 82.631300 -13.675200 7.910000
17.013300 6.098630 82.941000 -13.675200 9.000000
17.099600 6.129590 83.362000 -13.675200 11.420000
17.203100 4.837300 83.866300 -13.675200 13.060000
15.409300 0.478087 86.978800 -13.764000 9.840000
16.156800 1.029450 87.276500 -13.764000 7.740000
18.427700 0.482752 87.270600 -13.675200 7.310000
17.967200 6.162660 87.591300 -13.675200 14.040000
18.057300 5.914390 88.030800 -13.675200 18.020000
18.654700 5.942690 88.345600 -13.764000 16.790000
26.340500 1.808320 98.205200 -13.586400 11.260000
26.452100 1.815980 98.621300 -13.497600 8.900000
17.290100 -0.580701 105.890000 -13.764000 9.630000
17.359500 -0.583034 106.315000 -13.764000 11.030000
17.429200 -0.250872 106.742000 -13.764000 11.920000
18.323500 0.923518 107.026000 -13.764000 8.250000
-11.321000 1.938580 108.411000 -13.764000 8.310000
-11.994700 1.946240 108.772000 -13.764000 8.040000
-12.673000 1.953900 109.129000 -13.764000 9.050000
16.576200 3.597910 171.523000 -13.852800 7.180000
16.618700 3.072610 171.962000 -13.852800 9.800000
6.461360 -0.017991 4.290580 -4.084800 5.080000
6.820330 -0.018990 4.528950 -4.351200 11.610000
7.179290 -0.019990 4.767310 -4.706400 13.030000
6.655690 0.265818 4.760230 -7.992000 4.750000
7.538280 0.000000 5.005690 -4.884000 10.080000
7.175530 0.279808 4.764810 -7.725600 5.790000
6.776400 -0.306446 5.315670 -8.524800 2.870000
7.473390 0.377698 5.088070 -7.814400 6.320000
7.061120 -0.321768 5.649740 -8.613600 6.840000
7.326690 -0.395683 6.002470 -8.791200 8.300000
7.925880 0.527502 6.621990 -8.880000 7.490000
8.340950 0.119936 6.112520 -8.258400 8.170000
8.189290 0.549481 6.977130 -8.968800 7.580000
8.614300 0.124934 6.467230 -8.347200 8.170000
8.527390 0.129931 7.265180 -8.968800 5.700000
8.958870 0.129931 6.725920 -8.436000 6.550000
7.854550 1.317040 10.182300 -10.922400 7.150000
8.231030 1.124430 10.460400 -10.833600 9.300000
8.308020 1.160700 10.943500 -10.922400 10.710000
8.042810 0.032983 11.726600 -11.366400 9.220000
8.379410 -0.033983 12.017700 -11.366400 15.710000
8.529970 -0.128266 12.436800 -11.455200 17.040000
8.364150 1.477130 13.492500 -11.721600 8.440000
8.696750 1.517050 13.790600 -11.632800 6.640000
8.841750 0.896118 14.263000 -11.721600 7.270000
8.955450 0.919096 14.698100 -11.721600 6.490000
9.181850 0.846578 15.069700 -11.721600 10.000000
9.285120 0.923129 15.506900 -11.810400 6.360000
-11.660900 1.661360 17.001700 -11.810400 8.260000
-11.397400 1.661360 17.179500 -11.899200 8.830000
-12.304200 1.647150 17.079200 -11.544000 9.440000
-11.363200 1.695970 17.714600 -11.988000 10.230000
-12.420600 1.680770 17.524000 -11.632800 8.960000
18.381100 1.499820 13.470300 -8.347200 9.400000
-11.174000 1.730580 18.339400 -12.254400 9.690000
-11.455400 1.730580 18.165000 -12.076800 8.750000
-12.806400 1.714380 17.776300 -11.544000 8.060000
18.731600 1.456310 13.727100 -8.347200 8.080000
-9.408460 1.239710 19.821300 -12.609600 7.450000
-11.684500 1.765200 18.528300 -12.076800 8.980000
18.303500 1.336940 14.995300 -8.968800 4.650000
18.639500 1.286730 15.270600 -8.968800 8.620000
-10.700300 2.012460 20.564100 -12.432000 11.020000
18.965700 1.461390 15.537800 -8.968800 6.440000
8.214170 0.575665 26.319600 -13.053600 6.150000
-10.196500 1.811110 25.559300 -12.609600 7.950000
8.326320 1.839400 26.678900 -12.964800 8.780000
9.803320 1.839400 26.172300 -12.876000 8.000000
9.920580 -2.984970 26.485300 -12.787200 7.110000
18.678700 1.041920 22.551700 -10.656000 7.150000
9.316270 -0.860771 27.767400 -12.964800 6.780000
18.955400 0.965339 22.885800 -10.656000 9.300000
19.005500 0.979329 23.401700 -10.833600 10.670000
18.941400 0.911405 24.554700 -11.011200 6.230000
19.202600 1.021300 24.893300 -11.011200 7.000000
9.010200 -0.311504 35.499600 -13.142400 6.280000
9.116210 -0.315169 35.917200 -13.142400 7.590000
10.596900 1.582130 39.508400 -13.142400 7.080000
10.707100 1.726620 39.919400 -13.142400 6.540000
10.921500 0.499734 41.680000 -13.231200 9.320000
11.031000 0.370140 42.098100 -13.231200 7.490000
11.140200 0.373805 42.514900 -13.231200 8.250000
12.016300 -0.270528 48.517800 -13.320000 9.190000
12.119900 -0.272860 48.936000 -13.320000 16.610000
12.222300 -0.746926 49.349700 -13.231200 7.910000
11.653500 -0.753256 49.929600 -13.320000 17.710000
19.312500 -3.281720 51.559200 -12.876000 6.580000
21.121600 -1.151330 50.937700 -12.698400 5.640000
19.894200 -1.160320 51.891100 -12.787200 7.290000
22.369800 -1.160320 50.873000 -12.609600 7.640000
20.035300 -2.338130 52.259200 -12.787200 5.970000
22.528500 -2.338130 51.233800 -12.609600 6.270000
20.191900 -2.181680 52.667700 -12.787200 7.950000
22.704600 -2.181680 51.634400 -12.609600 7.660000
20.352500 -1.670910 53.086500 -12.876000 8.940000
19.679800 -1.683570 53.798500 -12.876000 5.650000
-14.344400 -2.000630 59.892400 -13.053600 5.960000
16.822900 1.448190 79.670500 -13.320000 7.030000
16.912800 1.202680 80.096000 -13.320000 5.720000
16.536100 1.209010 80.614500 -13.320000 4.320000
16.969600 0.979479 82.728200 -13.320000 5.910000
17.055500 1.246990 83.146900 -13.320000 5.750000
17.142100 1.253320 83.569000 -13.320000 7.380000
17.229400 0.994471 83.994500 -13.320000 7.040000
17.316900 0.466427 84.421000 -13.320000 10.250000
17.350700 6.756680 84.585800 -13.320000 12.810000
17.441100 6.521890 85.026700 -13.320000 9.870000
17.527500 6.554180 85.447700 -13.320000 9.220000
17.132300 5.555530 86.919000 -13.320000 18.510000
17.208400 6.133030 87.305400 -13.320000 18.250000
15.760300 5.104690 88.959600 -13.408800 8.860000
18.320100 2.266680 107.006000 -13.408800 6.960000
17.564300 2.275680 107.569000 -13.408800 11.130000
17.633700 2.284670 107.995000 -13.408800 11.040000
17.701900 2.633410 108.412000 -13.408800 7.010000
-11.066200 1.797690 121.861000 -13.408800 7.000000
-11.811900 1.804020 122.224000 -13.408800 12.780000
-11.144100 1.810350 122.719000 -13.408800 9.420000
16.658000 4.151490 172.369000 -13.497600 5.030000
16.700600 3.624890 172.810000 -13.497600 4.660000
6.820330 0.018990 4.528950 -4.884000 8.840000
7.179310 0.000000 4.767320 -5.150400 11.170000
7.538280 0.000000 5.005690 -5.416800 9.150000
8.043000 0.773938 7.124460 -9.235200 6.430000
8.021950 1.479510 8.889790 -10.389600 3.400000
7.836050 1.585190 10.158300 -11.011200 5.880000
8.313940 0.579510 9.881800 -10.656000 7.080000
8.589840 0.640095 10.209700 -10.656000 7.480000
7.740250 1.690870 11.285400 -11.366400 7.820000
8.942310 0.820430 10.463900 -10.656000 6.840000
7.934770 1.437200 13.251700 -11.721600 11.060000
8.247040 1.722420 13.535500 -11.810400 11.670000
-11.548000 1.579920 16.562100 -11.810400 6.880000
-11.663000 1.613540 17.004900 -11.899200 5.590000
-11.903800 1.695970 17.355900 -11.899200 11.880000
-11.872300 1.730580 17.895300 -11.899200 7.330000
18.535600 1.499820 13.256900 -8.347200 7.610000
-11.823200 1.849860 18.431800 -12.076800 9.490000
18.727900 1.528120 13.724400 -8.347200 6.380000
-10.826900 1.570290 20.046700 -12.787200 5.260000
18.331900 1.510240 15.618500 -9.146400 9.190000
18.659300 1.537210 15.897400 -9.146400 7.950000
-10.739900 1.807320 23.922400 -12.343200 5.790000
-10.916000 1.836950 24.314600 -12.343200 8.260000
-11.092100 1.866570 24.706800 -12.343200 7.120000
-10.879900 1.896200 25.269700 -12.520800 9.030000
9.439280 -2.249760 26.273800 -12.964800 6.320000
9.588540 -2.130910 26.689300 -12.964800 7.080000
18.714100 1.677250 23.042800 -10.744800 5.460000
9.495660 -3.118980 27.085000 -12.964800 8.440000
18.988500 1.608420 23.380700 -10.744800 12.240000
9.637380 -3.165530 27.489300 -12.964800 12.080000
19.259800 1.631390 23.714700 -10.744800 12.560000
9.813400 -2.044340 27.991300 -12.964800 7.690000
10.174200 -2.073970 28.319400 -12.964800 13.130000
18.662000 1.560530 24.192600 -11.011200 8.210000
18.924900 1.582510 24.533300 -11.011200 10.710000
19.182100 1.774490 24.866800 -11.011200 4.820000
9.322120 0.567015 30.488200 -13.142400 6.290000
9.864000 0.574677 30.770000 -13.053600 6.210000
9.646040 -0.083957 34.886500 -13.231200 7.140000
10.236100 -0.084957 35.167000 -13.231200 7.220000
11.016700 0.970746 38.965500 -13.231200 6.310000
11.133900 0.981073 39.380100 -13.231200 8.260000
11.249500 1.215210 39.788800 -13.231200 6.670000
10.358600 -0.366476 41.824800 -13.320000 10.000000
10.462200 -0.370140 42.243000 -13.320000 7.350000
19.712600 0.804548 40.716500 -12.520800 5.870000
20.463700 -0.113942 44.657100 -12.609600 10.420000
20.295400 -0.114941 45.206600 -12.609600 7.080000
20.471900 -0.115941 45.599700 -12.609600 5.660000
20.293000 -0.272860 46.150000 -12.609600 8.040000
12.118700 -0.740596 48.931500 -13.320000 13.110000
12.506800 -0.904158 49.275700 -13.320000 5.020000
10.978500 -0.911821 50.079800 -13.320000 13.720000
10.678300 -1.519010 50.570600 -13.408800 9.110000
10.770800 -0.765916 51.008500 -13.408800 10.020000
-3.036070 1.381800 52.463900 -13.497600 19.390000
20.351600 -0.996107 52.179700 -12.787200 9.090000
24.013700 -1.342520 50.591000 -12.520800 6.880000
20.508100 -1.003770 52.581100 -12.787200 10.850000
24.198400 -1.352850 50.980100 -12.432000 7.020000
24.778300 -1.363180 51.179800 -12.432000 7.260000
23.240400 0.669644 52.852800 -12.520800 6.840000
-15.288700 -1.072730 58.346700 -13.053600 8.280000
-15.395900 -1.456120 58.755800 -13.053600 6.900000
-15.613400 -1.619660 59.585800 -13.053600 7.930000
-1.693930 1.621350 67.610600 -13.586400 8.230000
-1.311610 1.000120 68.062200 -13.586400 7.130000
15.868900 1.088740 72.387800 -13.320000 5.920000
15.959400 1.556090 72.800700 -13.408800 6.080000
15.407900 2.588230 78.170400 -13.408800 6.330000
15.496900 1.425200 78.622000 -13.408800 8.040000
16.644900 1.432860 78.827400 -13.408800 6.360000
16.734700 1.190020 79.252900 -13.408800 6.890000
16.823700 1.196350 79.674500 -13.408800 6.310000
16.883000 0.974482 82.306100 -13.408800 14.460000
16.969600 0.979479 82.728200 -13.408800 10.160000
17.056200 0.984476 83.150300 -13.408800 9.600000
17.142800 0.989474 83.572400 -13.408800 11.250000
17.230300 0.464095 83.998900 -13.320000 8.750000
17.268400 6.457320 84.184900 -13.408800 6.070000
17.358700 6.222460 84.625100 -13.408800 5.880000
17.456000 5.447660 85.099300 -13.408800 10.470000
17.531400 6.284380 85.467100 -13.408800 16.620000
16.955300 6.315330 86.021400 -13.408800 17.680000
17.030500 6.891140 86.402900 -13.408800 13.800000
17.496500 1.609100 88.766800 -13.320000 10.400000
18.243600 4.848230 88.938700 -13.408800 8.490000
17.724000 4.894180 89.921000 -13.408800 8.230000
17.494900 2.266680 107.144000 -13.497600 13.270000
17.564300 2.275680 107.569000 -13.497600 14.610000
18.464200 2.623080 107.848000 -13.497600 11.740000
-10.988700 1.409250 121.008000 -13.497600 8.810000
-11.027700 1.414250 121.437000 -13.497600 9.980000
-11.066600 1.419250 121.866000 -13.497600 12.060000
-11.105600 1.424240 122.295000 -13.497600 9.880000
-9.146260 1.489210 128.073000 -13.497600 6.760000
-9.176960 1.494210 128.503000 -13.497600 6.850000
-53.499800 -14.760200 116.750000 -12.076800 9.350000
-9.207940 1.099430 128.937000 -13.497600 6.120000
31.075900 1.099430 125.474000 -13.320000 8.000000
-53.678100 -14.809400 117.139000 -12.076800 8.840000
16.701600 3.087930 172.820000 -13.497600 6.610000
7.836370 0.887689 6.002110 -8.702400 4.920000
8.104130 0.926285 6.357190 -8.791200 7.350000
8.434390 1.064380 6.616260 -8.880000 6.220000
7.812290 1.609030 9.619340 -10.922400 3.590000
7.672520 1.664520 10.269800 -11.188800 4.330000
8.177180 1.664520 9.872710 -10.833600 5.070000
8.399410 0.959683 10.342300 -11.011200 6.870000
8.498660 0.959683 10.260900 -10.833600 6.490000
8.102560 1.733180 11.021600 -11.277600 6.740000
8.400250 0.990641 10.889700 -11.011200 7.090000
7.658740 1.606190 11.353200 -11.544000 8.140000
8.483120 1.142190 11.354800 -11.100000 4.200000
7.922420 1.229830 11.744100 -11.544000 9.870000
8.444430 1.176800 11.914100 -11.188800 3.430000
8.162490 1.267100 12.099900 -11.544000 7.060000
6.722330 1.628160 13.885000 -12.254400 4.870000
6.798870 1.673390 14.323500 -12.254400 6.100000
6.987050 1.617860 14.720000 -12.254400 6.510000
-7.060200 -0.209888 16.662500 -12.520800 8.030000
18.144100 1.629550 15.159200 -9.146400 4.490000
18.474000 1.659180 15.434800 -9.146400 9.900000
18.807800 1.613020 15.713700 -9.146400 12.830000
19.137800 1.641310 15.989400 -9.146400 5.610000
-10.559200 1.937200 23.519800 -12.520800 6.140000
-10.735100 1.969480 23.911800 -12.520800 4.560000
-11.098100 2.001770 24.219000 -12.520800 12.380000
-6.160360 1.531410 26.394100 -13.231200 7.600000
-11.286700 1.699020 24.630600 -12.432000 13.230000
8.374800 -2.809680 26.124600 -13.053600 10.200000
-11.802300 1.725990 24.864600 -12.343200 4.240000
18.823800 1.450630 21.268700 -10.478400 5.160000
19.109100 1.472610 21.591000 -10.478400 5.640000
9.832440 -0.873429 28.045600 -13.053600 6.870000
9.203880 -0.886088 28.710800 -13.053600 11.930000
18.743300 1.294960 24.689100 -11.188800 9.520000
9.233660 1.390830 29.586200 -13.231200 11.410000
19.003600 1.312950 25.032000 -11.188800 6.340000
-6.492230 1.410140 30.746100 -13.320000 7.460000
-5.448850 1.348920 31.826300 -13.408800 7.600000
10.828800 1.618700 37.203300 -13.320000 7.010000
10.949100 1.636690 37.616600 -13.320000 6.160000
-4.863690 2.848090 39.240100 -13.497600 9.380000
-4.916550 2.879050 39.666600 -13.497600 7.130000
10.922200 0.000000 41.682800 -13.320000 8.410000
11.031300 0.235546 42.099000 -13.320000 8.760000
10.812500 0.237878 42.600400 -13.408800 14.590000
-8.145790 2.389650 44.002200 -13.320000 5.350000
19.515600 1.593520 40.309600 -12.520800 17.580000
-8.226380 2.168060 44.437500 -13.320000 8.780000
-8.304720 2.188710 44.860700 -13.320000 9.970000
-10.728100 2.066920 44.793200 -13.320000 11.850000
19.765100 1.105000 41.640200 -12.609600 9.200000
-7.493820 1.798640 45.894600 -13.408800 10.040000
-7.563210 1.815290 46.319600 -13.408800 5.310000
19.772900 0.113942 44.967200 -12.787200 9.810000
19.946400 0.000000 45.361800 -12.787200 5.490000
20.119800 -0.115941 45.756100 -12.787200 10.490000
10.679800 -1.239250 50.577900 -13.408800 14.610000
10.473800 -1.249580 51.060800 -13.408800 14.820000
-15.915900 -0.950133 50.997200 -12.964800 13.820000
-16.036600 -1.915290 51.384100 -12.964800 18.010000
-15.865300 -1.930610 51.887800 -12.964800 8.320000
20.587900 -1.632930 51.607000 -12.964800 8.930000
-15.651900 1.169320 53.773200 -12.964800 10.630000
23.983000 -1.670910 51.548200 -12.609600 8.730000
23.462000 -1.683570 52.259900 -12.698400 5.250000
24.676700 -3.486830 53.039100 -12.609600 7.910000
-15.960200 -0.879853 57.722800 -13.053600 10.170000
-6.260890 2.331560 59.954900 -13.497600 10.560000
-6.305610 2.348220 60.383200 -13.497600 9.070000
15.043500 0.929506 78.717400 -13.497600 7.090000
17.253500 0.934503 78.703900 -13.497600 6.510000
16.735400 0.939500 79.256100 -13.497600 4.680000
16.824400 0.944498 79.677700 -13.497600 6.070000
16.913400 0.949495 80.099300 -13.408800 6.620000
17.003400 0.445438 80.525100 -13.497600 7.690000
17.092000 0.703633 80.944900 -13.497600 7.490000
17.806400 1.221670 81.225900 -13.408800 6.960000
17.209400 7.036740 81.500800 -13.497600 8.120000
16.969600 0.979479 82.728200 -13.497600 6.800000
17.056200 0.984476 83.150300 -13.497600 9.490000
17.142800 0.989474 83.572400 -13.497600 8.110000
17.714600 0.994471 83.893500 -13.408800 7.890000
17.924800 6.991560 84.888700 -13.497600 7.580000
18.057300 5.914390 88.030800 -13.408800 5.620000
18.421500 4.398070 89.806400 -13.497600 16.950000
16.875200 2.266680 107.244000 -13.586400 14.200000
16.942200 2.275680 107.669000 -13.586400 9.580000
17.010200 1.946240 108.101000 -13.586400 12.450000
17.079600 0.594694 108.542000 -13.586400 11.800000
-10.325100 1.791360 121.494000 -13.586400 6.270000
-10.361600 1.797690 121.923000 -13.586400 9.350000
-10.396900 2.563510 122.339000 -13.497600 9.580000
-10.433400 2.572500 122.768000 -13.586400 9.330000
-9.144890 2.680440 128.054000 -13.586400 12.770000
-9.175570 2.689430 128.484000 -13.586400 12.350000
-9.950600 3.098130 128.849000 -13.586400 10.060000
-9.983770 3.108450 129.279000 -13.586400 7.640000
7.646910 0.659378 10.401800 -11.277600 5.610000
7.983480 0.659378 10.145800 -11.100000 5.550000
7.889870 1.000880 10.732300 -11.366400 9.440000
8.249590 0.681357 10.484000 -11.100000 8.730000
8.144380 1.033170 11.078500 -11.366400 9.550000
8.398340 1.033170 10.887200 -11.188800 8.560000
7.815110 1.536210 11.779800 -11.721600 7.840000
8.093180 1.404990 11.607200 -11.455200 7.120000
8.660790 1.065460 11.227400 -11.188800 6.920000
8.051930 1.582760 12.136800 -11.721600 9.910000
8.200120 1.490140 12.569400 -11.721600 7.430000
8.359170 1.575290 13.484500 -11.810400 4.840000
8.585100 1.617860 13.848900 -11.810400 4.070000
8.590890 1.660440 14.347500 -11.988000 5.870000
8.847880 0.666161 14.776700 -12.076800 7.870000
-7.060200 -0.209888 16.662500 -12.520800 8.810000
-7.214610 1.159650 17.027000 -12.520800 9.250000
-6.504150 1.011010 17.780300 -12.698400 5.690000
-7.386370 1.011010 17.432300 -12.520800 6.300000
-7.278530 1.033980 17.942800 -12.609600 7.190000
-6.645680 1.333270 18.167200 -12.787200 6.510000
-7.433250 1.362900 18.324200 -12.609600 5.640000
-6.542270 1.362900 18.660900 -12.787200 6.150000
8.590060 1.613540 18.745700 -12.698400 7.430000
8.769020 1.647150 19.136300 -12.698400 6.460000
8.058670 1.777320 19.434600 -12.876000 6.290000
-6.532960 1.443220 20.932700 -13.053600 9.090000
9.171970 1.869030 21.302800 -12.787200 10.640000
-5.676110 2.049720 22.918300 -13.231200 8.100000
9.048330 1.903640 21.821300 -12.964800 8.110000
-5.779310 2.086990 23.335000 -13.231200 9.750000
-5.700410 2.067500 23.801000 -13.320000 8.850000
-5.473240 2.103770 24.294600 -13.320000 5.690000
-10.555200 1.807320 24.004500 -12.698400 8.090000
-10.725900 1.919370 24.392700 -12.698400 11.490000
-10.896500 2.034050 24.780500 -12.698400 15.080000
-10.875100 2.066340 25.258400 -12.698400 14.200000
18.522700 1.839400 20.928500 -10.656000 7.760000
8.190920 -2.151380 26.245100 -13.231200 8.770000
18.807700 1.867700 21.250500 -10.656000 7.490000
19.092700 1.896000 21.572400 -10.656000 8.640000
9.388690 -1.867700 26.779900 -13.142400 9.180000
18.719500 1.516570 23.049500 -10.922400 10.890000
9.694120 0.000000 27.651100 -13.142400 11.450000
18.990800 1.538550 23.383500 -10.922400 9.110000
9.804900 -2.388210 27.967100 -13.231200 6.700000
-5.816680 2.260060 29.510400 -13.408800 8.420000
10.333100 -2.260060 28.247600 -13.142400 5.690000
-5.725290 2.386690 29.958500 -13.408800 6.970000
10.314900 -2.292350 28.711200 -13.053600 5.620000
-5.805930 2.420300 30.380400 -13.408800 9.770000
-5.076150 2.453780 32.259400 -13.497600 10.580000
-5.144110 2.383730 32.691300 -13.497600 4.990000
-19.435400 -2.025440 27.874000 -11.100000 6.820000
-5.402260 2.414690 33.085200 -13.497600 10.060000
-5.925500 2.235580 33.446800 -13.497600 9.410000
-8.580090 1.348980 33.805000 -13.231200 6.100000
-10.196700 1.456830 33.348400 -13.053600 8.760000
-8.474290 2.429510 34.216400 -13.231200 8.070000
-8.310450 2.459140 34.698700 -13.231200 8.500000
-17.807000 -1.101280 32.970800 -11.899200 7.170000
9.607400 1.113940 36.665000 -13.408800 9.930000
19.419400 2.044990 33.006600 -12.076800 7.220000
10.713200 1.126600 36.806100 -13.320000 7.930000
-18.405000 -1.978130 34.078000 -11.899200 7.700000
10.546400 1.139260 37.302000 -13.320000 13.400000
-4.510500 2.938080 38.840700 -13.586400 6.000000
10.954000 1.151910 37.633200 -13.320000 14.950000
-4.560070 2.970370 39.267500 -13.586400 11.640000
-4.150430 3.002650 39.744900 -13.586400 6.710000
-19.853800 1.227860 36.760500 -11.899200 10.010000
-20.058500 1.240520 37.139500 -11.899200 8.510000
-20.263100 1.253180 37.518400 -11.899200 6.470000
19.587800 1.132630 38.363800 -12.432000 14.850000
-20.469600 1.132630 37.900700 -11.899200 17.320000
19.782000 1.278500 38.744100 -12.432000 10.700000
-20.674300 1.143950 38.279700 -11.899200 15.480000
19.977900 1.291160 39.127700 -12.432000 12.020000
-8.397080 2.666400 43.939000 -13.408800 11.660000
-8.483110 2.168060 44.389200 -13.408800 7.570000
-8.563900 2.188710 44.812000 -13.408800 13.800000
-7.423510 1.924460 45.464000 -13.497600 10.840000
19.628800 0.683627 42.189500 -12.698400 9.870000
-7.848230 1.654810 45.840800 -13.497600 7.270000
19.809600 0.835197 42.578000 -12.698400 8.840000
-7.920900 1.670130 46.265200 -13.497600 8.260000
-17.690200 -0.865847 45.356200 -12.698400 9.010000
-17.846800 -0.873509 45.757600 -12.698400 6.440000
19.945700 -0.421447 45.360100 -12.787200 9.970000
-17.824000 -1.808030 47.585400 -12.698400 11.260000
-30.133200 0.810225 46.189000 -11.366400 9.060000
-16.415400 -2.472580 52.597700 -12.964800 7.050000
-30.368700 0.816555 46.549900 -11.366400 7.330000
20.021500 -2.472580 51.333400 -12.964800 6.490000
20.576100 -2.491890 51.577400 -12.964800 6.240000
-30.604100 0.822885 46.910700 -11.366400 7.790000
20.747500 -1.645590 52.007100 -12.964800 6.050000
20.907100 -1.658250 52.407200 -12.964800 7.540000
21.069700 -1.363180 52.814800 -12.964800 6.020000
21.536600 -1.373500 53.091300 -12.876000 9.490000
24.463900 -4.538070 52.581800 -12.698400 8.830000
20.816900 -1.529040 54.297700 -12.964800 7.480000
23.928400 -4.571690 53.298900 -12.698400 8.980000
-15.172300 -2.129800 57.902400 -13.231200 6.290000
-15.623700 -1.445790 58.249800 -13.142400 7.610000
-15.735300 -1.456120 58.665800 -13.142400 8.400000
14.428200 1.900180 77.938600 -13.586400 5.780000
14.506600 1.910510 78.362200 -13.586400 6.220000
16.103800 0.929506 78.507400 -13.497600 7.860000
16.646400 0.934503 78.834600 -13.497600 6.100000
16.735400 0.939500 79.256100 -13.497600 8.470000
16.363600 0.944498 79.773600 -13.497600 7.880000
16.913400 0.949495 80.099300 -13.497600 7.460000
17.001800 1.209010 80.517600 -13.497600 16.590000
16.622600 1.215340 81.036600 -13.497600 19.470000
16.707400 1.735990 81.449700 -13.497600 17.030000
16.883600 0.714627 82.308700 -13.586400 14.750000
16.970200 0.718292 82.730800 -13.586400 15.970000
17.056700 0.721957 83.152900 -13.586400 10.010000
17.143700 0.461763 83.576800 -13.586400 7.270000
17.229900 0.729286 83.997100 -13.586400 14.820000
17.316500 0.732951 84.419200 -13.586400 20.110000
17.125300 6.103400 86.883700 -13.497600 11.470000
17.208400 6.133030 87.305400 -13.497600 8.900000
17.495900 1.930910 107.151000 -13.586400 8.050000
17.567500 0.927183 107.589000 -13.586400 13.810000
-11.105200 1.804020 122.290000 -13.675200 8.150000
-11.144100 1.810350 122.719000 -13.675200 9.490000
-9.886440 1.489210 128.018000 -13.675200 7.950000
-9.918710 2.291050 128.436000 -13.675200 4.690000
-9.951890 2.298710 128.866000 -13.675200 7.340000
30.105800 1.898960 125.701000 -13.408800 6.930000
16.657000 4.553160 172.359000 -13.675200 5.550000
16.699400 4.161810 172.798000 -13.675200 5.250000
7.985640 0.640095 10.688900 -11.366400 7.410000
8.157960 0.660744 11.096900 -11.455200 5.130000
7.985150 1.700060 11.642500 -11.810400 7.820000
8.134420 1.751570 12.058300 -11.810400 8.910000
-7.015100 1.628160 13.739400 -12.076800 5.380000
8.034680 1.771430 13.656300 -12.165600 4.270000
6.814400 0.734047 14.870800 -12.432000 4.160000
8.365310 1.718620 13.970800 -12.165600 3.270000
8.694210 1.567460 13.786500 -11.988000 4.170000
-6.584370 0.734047 14.974000 -12.432000 3.600000
-6.261220 0.413083 16.053200 -12.698400 4.880000
-7.261260 0.879170 15.607100 -12.343200 6.450000
-7.109290 0.423410 16.167800 -12.609600 5.660000
-7.560870 1.105710 15.928900 -12.343200 7.580000
9.176120 1.051180 15.060300 -12.165600 6.960000
-7.156400 0.209888 16.621400 -12.609600 8.800000
-7.870820 1.132680 16.257200 -12.343200 8.020000
-0.461945 1.773710 18.437800 1.154400 4.680000
-7.457730 0.214886 16.960200 -12.520800 8.030000
-7.996250 4.953140 15.963700 -12.343200 6.590000
-0.581738 1.814960 18.863600 1.154400 11.530000
-7.007100 1.362130 17.564500 -12.698400 8.980000
-0.594960 1.856210 19.292300 1.154400 13.620000
-7.170830 1.213590 17.974900 -12.698400 10.510000
-0.760381 1.836430 19.721500 1.154400 11.480000
-6.436910 1.240560 18.706000 -12.964800 8.750000
-7.436270 1.240560 18.331700 -12.698400 8.500000
-0.233718 1.205010 20.215100 1.243200 9.830000
-6.576840 1.267520 19.112700 -12.964800 7.080000
8.387430 2.187940 18.303500 -12.787200 5.970000
-11.536800 1.813970 16.545900 -12.343200 8.700000
-0.119347 1.230650 20.646200 1.154400 6.340000
-11.249300 1.979950 17.243200 -13.053600 6.190000
9.875680 2.234490 18.035300 -12.698400 5.640000
-11.782200 1.852570 16.898000 -12.343200 10.620000
-11.347600 2.021200 17.690400 -13.053600 7.250000
-12.027700 1.891160 17.250000 -12.343200 8.780000
-6.002910 1.680770 20.623500 -13.231200 6.470000
-0.252398 2.509230 21.830700 1.243200 7.840000
-6.127150 1.511040 21.050300 -13.231200 8.100000
-0.257346 2.558440 22.258800 1.243200 7.670000
-6.252140 1.264020 21.479700 -13.142400 8.690000
-0.699359 2.607640 22.677600 1.243200 4.770000
-11.113000 0.953237 19.928700 -13.231200 9.300000
-6.203450 1.288330 21.941200 -13.231200 8.440000
-0.712555 2.656840 23.105400 1.243200 5.940000
-11.133700 2.012460 20.332700 -13.231200 8.540000
-11.225800 1.903640 20.785200 -13.320000 6.570000
8.452080 2.049720 22.046000 -13.142400 6.920000
-5.612360 1.286730 23.433400 -13.320000 4.470000
9.703280 1.081750 22.067000 -12.876000 6.800000
-5.705930 1.764580 23.824100 -13.320000 5.180000
-14.809600 1.840340 19.507600 -12.609600 6.390000
-5.806040 1.795540 24.242000 -13.320000 4.190000
-10.563900 1.777690 23.530300 -12.698400 3.850000
-6.100440 2.212580 25.471300 -13.408800 4.730000
-10.739900 1.807320 23.922400 -12.698400 10.370000
-10.918300 1.754510 24.319700 -12.698400 11.860000
-11.094400 1.782810 24.711900 -12.698400 9.280000
18.538600 1.428650 20.946500 -10.744800 6.720000
8.875720 -2.422400 26.454300 -13.320000 9.000000
18.823800 1.450630 21.268700 -10.744800 7.530000
8.990160 -3.159850 26.795400 -13.320000 10.760000
7.689470 -3.159850 27.197200 -13.320000 10.410000
8.907650 -3.451630 27.244000 -13.320000 10.740000
8.880620 -3.503140 27.702400 -13.320000 9.370000
9.663220 -1.424730 28.081800 -13.231200 7.710000
-5.081010 1.794690 29.677800 -13.586400 5.490000
9.760330 -3.165880 28.364100 -13.231200 7.250000
-5.334160 0.993319 30.108900 -13.586400 4.440000
10.111600 -1.371510 28.842000 -13.142400 4.770000
-5.997660 0.815491 30.428600 -13.497600 5.930000
-6.076950 1.410140 30.830900 -13.497600 5.540000
-5.792930 1.995680 31.292400 -13.586400 5.620000
10.137300 1.035290 30.214500 -13.320000 5.510000
10.272100 1.249050 30.616100 -13.320000 5.630000
-5.592600 1.589910 32.665900 -13.586400 6.960000
-5.665240 1.610560 33.090100 -13.586400 9.150000
-5.734290 2.025440 33.493500 -13.586400 9.190000
-5.085770 2.157490 34.026400 -13.675200 10.200000
18.824900 1.603310 30.367200 -12.076800 7.620000
19.051700 1.622630 30.733000 -12.076800 6.220000
-18.247100 -3.910360 31.014100 -0.088800 5.320000
19.278500 1.641950 31.098900 -12.076800 4.920000
19.505300 1.661260 31.464800 -12.076800 6.140000
-18.271000 -1.976060 32.179500 -11.810400 10.820000
-18.483400 -1.999030 32.553600 -11.810400 10.470000
-17.990800 -2.139110 33.311000 -11.988000 9.610000
10.714100 1.008040 36.809300 -13.497600 5.920000
-18.389600 -2.163410 33.583800 -11.899200 7.980000
10.834500 1.019360 37.222800 -13.497600 7.950000
-18.596300 -2.187720 33.961100 -11.899200 11.160000
10.954900 1.030690 37.636400 -13.408800 9.250000
11.063400 2.113920 38.009000 -13.408800 8.440000
-18.545000 -2.022090 34.979200 -12.076800 8.850000
10.904500 1.202550 39.438100 -13.497600 13.670000
19.155400 1.835120 36.130600 -12.520800 8.400000
-19.497000 -5.270970 35.606200 -0.444000 7.930000
11.020900 0.991400 39.858900 -13.497600 7.180000
19.359600 1.726620 36.515800 -12.520800 7.230000
11.135700 1.001730 40.274100 -13.497600 6.400000
19.561300 1.744600 36.896200 -12.520800 8.730000
-19.856600 1.001730 36.765800 -11.988000 12.060000
-20.060200 1.109970 37.142700 -11.988000 10.850000
-20.264900 1.121300 37.521700 -11.988000 5.140000
19.294000 0.899476 38.518600 -12.609600 8.490000
-20.469600 1.132630 37.900700 -12.076800 13.150000
-20.378600 1.143950 38.437900 -12.076800 15.210000
-8.386350 3.496000 43.882900 -13.586400 6.130000
19.519500 1.316470 40.317700 -12.698400 7.890000
-8.825240 1.906470 44.774100 -13.497600 8.400000
-7.773700 1.924460 45.405500 -13.586400 5.270000
19.442500 1.211910 41.788900 -12.787200 4.930000
19.624200 1.223240 42.179500 -12.787200 8.760000
-7.919990 1.815290 46.259900 -13.586400 6.740000
19.807000 1.125650 42.572500 -12.787200 5.370000
-17.275600 -0.410453 45.060900 -12.787200 6.440000
-17.429900 -0.414117 45.463300 -12.787200 8.490000
20.119000 0.000000 44.813600 -12.876000 5.890000
-29.341200 1.302520 39.911700 -11.011200 10.120000
20.295400 0.000000 45.206700 -12.876000 6.180000
-29.596400 1.313850 40.258800 -11.011200 8.330000
20.468700 -0.888834 45.592600 -12.876000 4.980000
-18.024000 -2.571570 47.013000 -12.787200 7.800000
-30.106700 1.336500 40.952900 -11.011200 10.990000
-30.361800 1.347820 41.299900 -11.011200 11.280000
-30.618700 1.239250 41.649400 -10.922400 8.360000
-3.365690 1.884640 52.860100 -13.764000 13.120000
-3.803680 1.899960 53.262200 -13.764000 11.720000
-3.835940 1.124350 53.714000 -13.764000 12.530000
-15.869800 -1.427110 51.902700 -13.142400 9.950000
-17.259000 -1.930610 51.441000 -12.964800 5.130000
-15.592100 -1.438430 52.436300 -13.142400 8.890000
20.191200 -1.461090 51.768700 -13.053600 8.240000
20.331400 -2.684270 52.128000 -13.053600 10.910000
13.007400 3.055990 55.730300 -13.586400 6.710000
24.048700 -1.205300 52.480300 -12.787200 10.640000
24.136000 -5.210350 52.671000 -12.787200 6.980000
-15.179500 -1.065070 57.929900 -13.320000 9.170000
-15.287800 -1.259270 58.343200 -13.320000 7.570000
-14.603000 -1.268260 58.962200 -13.408800 6.730000
-13.903400 -1.466450 59.569200 -13.320000 9.160000
32.489500 0.663321 70.900500 -12.787200 7.480000
15.757500 0.909516 76.819000 -13.675200 6.080000
32.669700 0.424448 71.293800 -12.876000 7.160000
16.290300 0.914514 77.148300 -13.675200 6.040000
15.931500 0.429113 77.667300 -13.675200 7.530000
15.415800 0.431445 78.210500 -13.675200 8.440000
16.646400 0.934503 78.834600 -13.675200 5.620000
16.735400 0.939500 79.256100 -13.675200 8.320000
16.824400 0.944498 79.677700 -13.675200 10.930000
16.913400 0.949495 80.099300 -13.675200 9.330000
17.003000 0.699968 80.523400 -13.675200 7.330000
17.092000 0.703633 80.944900 -13.675200 6.820000
17.181000 0.707298 81.366500 -13.675200 8.900000
16.797000 0.710963 81.886600 -13.675200 9.140000
16.883000 0.974482 82.306100 -13.675200 10.780000
16.969600 0.979479 82.728200 -13.675200 8.710000
17.056700 0.721957 83.152900 -13.675200 12.710000
17.143300 0.725622 83.575000 -13.675200 11.160000
17.229900 0.729286 83.997100 -13.675200 8.780000
17.316500 0.732951 84.419200 -13.675200 16.030000
17.551900 4.664410 85.566600 -13.675200 14.740000
16.991900 2.582310 86.207000 -13.675200 15.440000
17.078900 1.843930 86.648100 -13.675200 11.770000
18.006900 1.593770 87.785200 -13.675200 12.630000
18.093500 1.601430 88.207300 -13.675200 19.850000
17.445900 7.059220 88.510300 -13.675200 21.710000
17.544600 5.970990 89.011000 -13.675200 19.070000
27.328700 1.189370 98.838700 -13.497600 6.680000
27.443500 1.194360 99.254000 -13.497600 8.860000
27.558300 1.199360 99.669300 -13.497600 8.650000
17.497500 1.259330 107.160000 -13.764000 8.350000
17.567800 0.590030 107.591000 -13.764000 8.180000
17.637500 0.000000 108.018000 -13.764000 6.920000
-13.564100 2.899520 109.435000 -13.764000 5.830000
-13.617100 2.910850 109.862000 -13.764000 6.170000
-11.104600 2.183770 122.284000 -13.764000 6.100000
-11.143600 2.191430 122.713000 -13.764000 6.060000
-9.886040 1.886300 128.013000 -13.852800 5.080000
-9.919210 1.892630 128.443000 -13.764000 6.620000
-9.952390 1.898960 128.872000 -13.764000 7.950000
-43.174500 -19.977000 164.768000 -13.231200 5.280000
16.658000 4.151490 172.369000 -13.852800 7.370000
16.699400 4.161810 172.798000 -13.852800 9.420000
16.742000 3.633880 173.239000 -13.852800 7.470000
