VERSION .7
FIELDS x y z velocity intensity
SIZE 4 4 4 4 4
TYPE F F F F F
COUNT 1 1 1 1 1
WIDTH 929
HEIGHT 1
VIEWPOINT 0 0 0 1 0 0 0
POINTS 929
DATA ascii
6.873240 -1.038350 10.899000 -10.922400 8.160000
7.109980 -0.877254 11.274400 -10.922400 9.130000
7.342190 -0.820430 11.642600 -10.922400 9.990000
7.884260 -0.330467 11.307500 -10.656000 9.740000
7.575190 -0.725316 12.012100 -11.011200 9.800000
8.132950 -0.032983 11.664200 -10.656000 6.950000
-7.940270 0.582891 12.808700 -10.656000 5.400000
-8.160230 0.875089 13.163600 -10.656000 5.920000
-8.274150 1.145430 13.580000 -10.656000 4.480000
-1.036770 1.378330 16.283100 1.953600 7.050000
7.542700 4.022340 13.965800 -11.455200 9.570000
-7.727960 1.453440 14.851900 -11.100000 4.930000
-1.064060 1.414600 16.711600 1.953600 6.750000
-7.926110 1.490710 15.232700 -11.100000 14.910000
-1.882520 1.450870 17.071300 1.864800 9.790000
-8.125880 1.487150 15.616600 -11.100000 16.310000
-1.929200 1.527980 17.494700 1.864800 9.990000
-7.579390 4.999540 15.655300 -11.366400 14.240000
-8.326730 1.453690 16.002600 -11.100000 4.130000
-1.872630 1.565240 17.932500 1.864800 6.590000
-7.759850 5.118580 16.028000 -11.366400 9.600000
-7.997800 0.000000 17.190200 -11.366400 7.400000
-7.941700 0.000000 17.689600 -11.455200 6.540000
-8.118180 0.000000 18.082700 -11.455200 5.630000
-6.681510 1.517470 19.058100 -11.810400 7.880000
-8.292280 0.485373 18.470500 -11.455200 5.920000
-7.115400 1.281920 20.295700 -11.899200 4.020000
-7.136570 1.375400 20.739300 -11.899200 6.200000
8.460900 0.406105 21.208700 -11.988000 4.480000
8.620540 0.413767 21.608900 -11.988000 7.410000
8.780620 0.348143 22.010100 -11.988000 17.480000
8.940630 0.279851 22.411200 -11.988000 8.130000
8.084400 0.609298 24.095800 -12.165600 4.480000
-12.469600 2.248860 23.519900 -14.740800 5.530000
-12.670700 2.285130 23.899300 -14.740800 6.120000
-12.871800 2.321400 24.278600 -14.740800 5.580000
8.307290 6.628110 25.914000 -12.076800 5.640000
8.049400 1.985090 27.654300 -12.254400 8.810000
8.457610 1.860830 28.443000 -12.254400 7.970000
9.191540 1.794690 28.672300 -12.254400 8.850000
18.608900 1.798790 25.830800 -10.567200 7.500000
8.894000 -1.995680 30.556000 -12.343200 9.030000
18.860400 1.823100 26.179800 -10.567200 8.330000
7.754030 -2.022650 31.308200 -12.343200 11.520000
19.111800 1.847410 26.528900 -10.567200 13.650000
19.363300 1.871720 26.878000 -10.567200 14.180000
-15.055300 2.178990 29.486500 -13.053600 4.340000
-15.250800 2.207290 29.869500 -13.053600 10.180000
8.255320 1.896030 32.525400 -12.343200 8.350000
-15.449400 2.130520 30.258400 -13.142400 8.040000
8.804710 1.920330 32.826600 -12.343200 11.470000
-14.746900 2.370250 31.068100 -13.320000 7.670000
-15.408300 2.157490 30.761100 -13.053600 10.860000
9.172100 1.944640 33.172400 -12.343200 5.690000
-15.173300 2.399880 31.340500 -13.231200 6.980000
9.480750 1.968950 33.532800 -12.343200 6.520000
9.597790 1.993260 33.946800 -12.343200 7.990000
-7.177240 1.824280 34.989600 -12.432000 10.560000
19.049000 1.734450 30.728600 -11.011200 6.190000
-6.104820 1.175190 35.657700 -12.432000 8.200000
19.275800 1.755100 31.094400 -11.011200 10.530000
-6.178090 1.075960 36.085600 -12.432000 9.860000
17.811900 0.666625 32.979800 -10.389600 6.760000
19.457500 1.817040 32.495700 -11.188800 8.230000
18.016600 0.674288 33.358900 -10.389600 5.450000
-5.596410 2.139110 37.442900 -12.520800 6.270000
19.424700 1.837690 33.015600 -11.188800 7.860000
-5.660010 2.163410 37.868400 -12.520800 6.390000
19.131300 1.618700 33.694800 -11.277600 10.440000
19.343900 1.636690 34.069200 -11.277600 8.770000
19.556500 1.654680 34.443500 -11.277600 5.530000
19.769100 1.672660 34.817900 -11.277600 11.030000
-5.521090 1.315100 40.105000 -12.520800 6.000000
19.231300 1.690650 35.607900 -11.455200 7.480000
-5.810410 1.961580 40.473500 -12.520800 6.110000
19.433300 1.835120 35.981900 -11.455200 5.720000
-5.871570 1.982230 40.899600 -12.520800 6.600000
19.637800 1.854430 36.360600 -11.455200 12.400000
19.842400 1.873750 36.739400 -11.455200 5.890000
-22.239800 -1.240520 35.875800 -10.656000 9.620000
-22.466700 -1.253180 36.241900 -10.656000 10.740000
-21.554400 -1.265840 37.290100 -10.833600 8.140000
-22.689100 -1.532230 36.600600 -10.567200 10.280000
-20.370400 -1.682060 38.422500 -11.100000 13.030000
-21.770000 -1.278500 37.663000 -10.744800 6.410000
-20.870600 -1.698710 38.643200 -11.011200 13.090000
-23.715600 -1.562870 36.971500 -10.478400 7.060000
-14.108600 1.578200 42.050900 -12.698400 10.400000
-22.426000 0.242542 38.797900 -10.833600 6.460000
-14.245600 1.593520 42.459200 -12.698400 7.680000
-9.246450 2.285840 43.789700 -12.343200 7.580000
-14.382500 1.608840 42.867500 -12.698400 6.550000
-9.335360 2.307820 44.210700 -12.343200 7.970000
-9.428330 1.906470 44.651000 -12.343200 5.150000
19.569000 1.906470 41.227000 -11.632800 7.760000
19.753600 1.924460 41.615900 -11.632800 5.990000
19.938200 1.942450 42.004800 -11.632800 7.110000
-23.502000 0.689957 40.659400 -10.833600 5.300000
-23.717600 0.696287 41.032400 -10.833600 9.260000
-20.170500 -1.146310 43.353600 -11.366400 8.500000
-23.933200 0.702617 41.405400 -10.833600 11.540000
-20.101600 -0.858184 43.866800 -11.455200 13.880000
-21.184100 -2.746810 43.755800 -11.277600 5.900000
22.995000 -1.746740 43.372900 -11.366400 7.080000
-21.779700 -0.579692 44.986100 -11.277600 8.980000
24.876700 -1.792710 43.813700 -11.277600 8.330000
22.913600 1.636880 44.877500 -11.544000 11.620000
24.748000 -1.808030 44.380200 -11.277600 6.760000
-22.312700 -2.734310 46.087000 -11.277600 5.900000
20.004500 0.436106 47.212000 -11.899200 6.670000
-18.611100 -2.457140 47.717200 -11.632800 9.140000
20.172000 0.599681 47.607200 -11.899200 9.650000
20.339300 0.765916 48.002000 -11.899200 9.890000
-17.521900 -2.048450 49.978600 -11.899200 5.230000
-17.674700 -0.950133 50.414700 -11.899200 5.410000
-17.250100 -2.601680 51.414400 -11.899200 8.000000
-17.387000 -2.622330 51.822400 -11.899200 7.320000
12.051900 -11.439800 53.495700 -12.432000 7.150000
-17.792900 -2.987060 53.032000 -11.899200 6.920000
12.144600 -11.527700 53.907200 -12.520800 5.840000
12.237300 -11.615700 54.318700 -12.520800 10.520000
-15.875100 -5.429430 56.149300 -12.076800 9.350000
-18.904700 1.930680 56.346000 -11.988000 7.010000
-19.478600 1.944670 56.605900 -11.899200 9.920000
-18.415700 -0.139929 57.446200 -12.165600 5.470000
-19.949900 1.772180 56.904200 -11.899200 10.630000
-29.311400 2.531410 58.517200 -11.188800 6.270000
-16.218700 -0.356817 63.900600 -12.254400 7.490000
-16.324700 -0.359149 64.318300 -12.254400 8.600000
-16.053900 -1.187670 64.820500 -12.254400 8.440000
-15.373100 -1.412180 65.866300 -12.254400 10.420000
-15.854000 -1.421170 66.195300 -12.254400 10.520000
11.561600 0.000000 67.530500 -12.609600 11.370000
-16.467300 -1.430170 66.489300 -12.254400 12.800000
11.110300 0.000000 68.042900 -12.609600 13.050000
-15.720600 -0.165915 69.780300 -12.343200 6.710000
-14.948200 -2.350390 70.792000 -12.343200 10.470000
-14.075300 -2.364380 71.409800 -12.432000 10.420000
16.502700 2.041810 96.390500 -12.609600 7.810000
16.575300 2.050810 96.815100 -12.609600 9.540000
-17.244100 7.120230 97.335200 -12.432000 9.160000
-17.319100 7.151190 97.758400 -12.432000 8.210000
-17.394100 7.182150 98.181600 -12.432000 8.520000
18.275100 0.853888 98.718800 -12.609600 7.120000
18.350200 2.104770 99.124400 -12.609600 7.860000
19.005800 1.487520 99.450800 -12.609600 9.350000
18.035300 2.478500 101.801000 -12.609600 8.720000
18.097400 4.655400 102.152000 -12.609600 8.540000
-17.103300 7.974790 104.746000 -12.432000 10.060000
29.106900 1.404250 117.524000 -12.432000 5.650000
29.210500 1.409250 117.942000 -12.432000 5.860000
29.315600 0.659994 118.367000 -12.432000 6.290000
-61.625000 -14.092300 123.028000 -11.100000 7.270000
-61.817000 -14.136200 123.411000 -11.100000 8.360000
-62.920200 -15.036300 123.232000 -11.100000 7.350000
-63.115000 -15.082800 123.614000 -11.011200 5.270000
-8.239940 0.771936 142.388000 -12.698400 5.210000
-9.090250 0.774269 142.768000 -12.698400 5.380000
-8.289730 0.776601 143.248000 -12.698400 5.280000
-8.314440 1.224030 143.675000 -12.698400 6.290000
-9.199570 1.231360 144.485000 -12.698400 7.170000
-7.662800 1.709090 147.159000 -12.698400 8.530000
-7.685210 1.714090 147.589000 -12.698400 10.720000
-7.707610 1.719090 148.019000 -12.698400 8.320000
26.455400 1.396270 162.021000 -12.609600 5.110000
25.585300 1.399940 162.597000 -12.609600 6.600000
26.593400 1.913980 162.867000 -12.609600 6.380000
26.662800 1.918980 163.292000 -12.609600 5.870000
19.951700 5.645640 191.060000 -12.698400 9.450000
19.996400 5.658300 191.488000 -12.698400 8.690000
5.364310 -0.559016 3.562100 -5.949600 4.440000
5.364310 -0.559016 3.562100 -5.416800 4.600000
5.364310 -0.559016 3.562100 -6.216000 5.480000
5.721930 -0.596283 3.799570 -5.772000 3.540000
5.721930 -0.596283 3.799570 -6.482400 2.670000
7.059250 0.965828 6.253060 -8.524800 7.040000
6.300520 -1.191560 6.982130 -9.501600 5.230000
6.998680 0.965828 6.320780 -8.613600 8.830000
6.387630 -1.245730 7.474510 -9.679200 6.410000
6.309250 -0.495558 8.179020 -9.856800 4.490000
6.889980 1.085440 7.635360 -9.412800 8.700000
6.440030 -0.516206 8.620110 -10.034400 5.300000
7.100100 1.130670 8.022270 -9.501600 8.040000
7.847210 -0.449640 7.366540 -8.613600 8.340000
7.124600 -0.873999 8.601880 -9.679200 8.670000
7.464140 1.175900 8.271640 -9.412800 8.630000
8.086910 -0.467626 7.739470 -8.702400 8.380000
7.402060 -0.835853 8.936880 -9.679200 8.280000
-7.823510 1.355220 8.503710 -9.057600 6.980000
-8.027930 1.405420 8.896410 -9.057600 8.970000
7.453160 1.448740 12.023000 -10.656000 11.180000
7.266950 1.448740 12.136400 -10.744800 7.480000
7.426010 -0.430386 12.621800 -10.744800 9.650000
8.132250 -0.769274 12.677800 -10.567200 10.910000
-7.622160 1.526210 13.919800 -10.656000 4.900000
7.731480 1.477130 13.864700 -10.922400 7.500000
-7.949220 1.608710 14.718500 -10.744800 4.720000
7.830450 1.517050 14.300200 -11.011200 7.460000
-8.031740 1.660440 14.667800 -10.744800 5.590000
7.471660 1.756050 15.432800 -11.277600 4.710000
17.181900 1.549760 11.409400 -6.748800 6.990000
-6.924920 1.333270 18.062700 -11.455200 7.260000
17.539900 1.582040 11.647100 -6.748800 4.330000
-7.078810 1.362900 18.464000 -11.455200 6.510000
17.901900 1.547880 11.887500 -6.748800 6.320000
-7.078680 1.704780 18.898200 -11.455200 5.240000
18.263900 1.511040 12.127900 -6.926400 5.250000
-7.229290 1.741050 19.300300 -11.455200 3.320000
18.166300 1.799810 12.992700 -7.459200 4.050000
8.057070 1.826120 19.430800 -11.544000 5.830000
-7.227830 1.777320 19.758700 -11.455200 11.330000
18.519100 1.781610 13.245000 -7.459200 5.180000
-6.552390 1.863390 20.439700 -11.721600 8.270000
18.877200 1.671710 13.501200 -7.459200 12.470000
7.854340 1.239710 20.486900 -11.632800 6.630000
17.970700 1.312630 14.722700 -8.080800 9.270000
-6.949690 1.402370 21.255600 -11.632800 5.790000
18.296800 1.483270 14.989800 -8.080800 8.750000
-7.084680 1.358840 21.668400 -11.632800 5.300000
18.629400 1.510240 15.262400 -8.080800 5.520000
-7.066240 2.370670 22.042600 -11.632800 11.380000
18.807800 1.613020 15.713700 -8.169600 4.670000
18.331600 1.197600 16.944900 -8.613600 4.310000
8.767280 0.354473 22.478600 -11.632800 7.720000
18.511400 1.296780 17.377600 -8.702400 7.160000
8.791430 0.360803 22.931200 -11.632800 12.230000
8.945660 0.367133 23.333500 -11.632800 10.760000
6.574490 -1.512670 24.511700 -11.810400 12.120000
6.199350 -1.857450 25.030900 -11.810400 7.380000
18.795400 2.130910 21.236600 -9.590400 9.760000
9.184510 1.677350 30.038200 -11.899200 8.800000
9.487330 1.626470 30.399000 -11.899200 10.900000
18.706100 1.670420 26.828100 -10.389600 10.900000
6.669140 1.548620 31.583900 -12.076800 6.650000
18.952200 1.692400 27.181100 -10.389600 10.460000
9.564580 1.569270 31.281200 -11.899200 7.710000
19.198400 1.714380 27.534100 -10.389600 7.650000
9.016570 1.589910 31.891100 -11.899200 5.090000
19.444500 1.736360 27.887100 -10.389600 8.430000
9.133660 1.610560 32.305200 -11.899200 7.660000
19.472400 1.758340 28.391100 -10.389600 5.200000
19.276100 1.564680 29.055100 -10.567200 6.890000
19.511300 1.693160 29.409500 -10.567200 10.560000
19.519200 1.713800 29.919500 -10.567200 6.590000
19.281100 1.528780 31.103100 -10.744800 8.090000
19.508000 1.546760 31.469000 -10.744800 8.450000
19.218400 1.231160 32.665000 -10.833600 11.570000
19.181600 1.245150 33.185000 -10.833600 13.950000
19.395100 1.379010 33.554300 -10.833600 11.970000
-5.569220 1.273130 38.793500 -12.165600 5.970000
19.295000 1.409650 34.601500 -11.100000 6.000000
19.504800 1.424970 34.977600 -11.011200 11.940000
19.714500 1.440300 35.353700 -11.011200 10.220000
19.921900 1.582130 35.725700 -11.011200 15.210000
10.354500 1.265840 41.808200 -12.076800 10.720000
10.458100 1.278500 42.226300 -12.076800 13.990000
-21.282200 -1.593520 39.405400 -10.744800 7.350000
-22.241800 -0.812210 39.885900 -10.656000 13.710000
-8.825240 1.906470 44.774100 -11.988000 7.040000
-9.256580 1.924460 45.126500 -11.988000 6.380000
-9.343090 1.942450 45.548300 -11.988000 7.200000
-9.076140 1.815290 46.047100 -12.076800 7.440000
9.332780 0.261199 47.349100 -12.165600 7.130000
19.757500 1.417740 44.008400 -11.455200 4.870000
8.850720 -2.596440 47.810100 -12.165600 5.760000
19.933900 1.430400 44.401300 -11.455200 4.490000
20.110300 1.443060 44.794200 -11.455200 7.630000
19.930100 1.325170 46.289700 -11.544000 7.470000
20.101600 1.218600 46.688100 -11.544000 8.070000
20.272000 1.228920 47.083700 -11.544000 6.140000
-18.350700 1.228920 47.865200 -11.366400 10.100000
11.071300 0.759586 50.503100 -12.165600 5.870000
-18.132400 1.239250 48.408700 -11.455200 8.140000
11.163600 0.765916 50.924000 -12.165600 9.150000
-21.299900 -0.291517 49.471200 -11.188800 11.530000
20.403100 1.301210 50.297100 -11.632800 8.470000
20.565000 1.311540 50.696200 -11.632800 7.300000
20.726900 1.321870 51.095400 -11.632800 7.120000
20.048400 1.169320 52.293400 -11.632800 7.250000
20.967200 1.902700 54.690000 -11.632800 11.120000
20.417700 1.930680 55.815600 -11.721600 7.630000
20.567600 1.759520 56.225500 -11.721600 5.800000
20.715600 1.772180 56.630000 -11.721600 7.790000
-18.743400 1.259270 57.326500 -11.632800 9.220000
-18.877300 1.268260 57.736000 -11.632800 7.040000
-19.011100 1.277260 58.145400 -11.632800 5.650000
-18.017200 -0.142927 58.925600 -11.721600 6.780000
-16.488900 -1.358210 62.927300 -11.810400 8.180000
-28.816400 1.611030 60.709100 -11.011200 9.240000
-29.003200 1.412180 61.102500 -11.011200 7.230000
21.023200 -0.575367 64.299200 -11.899200 12.140000
-29.187900 1.421170 61.491700 -11.011200 16.180000
21.157800 0.157919 64.711000 -11.899200 15.600000
21.291700 0.158919 65.120500 -11.899200 14.740000
21.425700 0.000000 65.530300 -11.899200 16.170000
22.065700 -0.804572 65.767300 -11.899200 12.950000
-17.483300 5.973760 98.685100 -12.076800 5.310000
-17.558300 5.999400 99.108600 -12.076800 5.850000
-17.626500 6.650150 99.493600 -12.076800 6.360000
-16.645300 6.715190 105.782000 -12.076800 7.600000
-16.712100 6.742150 106.207000 -12.076800 7.650000
-17.398300 6.435250 106.553000 -12.076800 5.610000
29.311400 2.168450 118.350000 -12.076800 7.030000
29.415000 2.176110 118.768000 -12.076800 5.240000
29.521200 1.424240 119.197000 -12.076800 7.050000
30.317300 0.666990 119.448000 -12.076800 7.630000
18.916700 1.484210 126.563000 -12.254400 8.110000
18.980400 1.489210 126.989000 -12.254400 6.200000
19.044100 1.494210 127.415000 -12.254400 5.150000
-62.257400 -12.934800 124.290000 -10.833600 6.020000
-62.431300 -13.405900 124.638000 -10.833600 5.710000
-62.584900 -14.311800 124.944000 -10.833600 6.150000
-62.776900 -14.355700 125.328000 -10.833600 5.810000
-9.090060 1.216700 142.765000 -12.254400 7.170000
-9.117440 1.220360 143.195000 -12.254400 7.700000
-9.144820 1.224030 143.625000 -12.254400 10.320000
-7.506200 1.227690 144.151000 -12.254400 8.630000
-9.199570 1.231360 144.485000 -12.254400 12.250000
-7.551010 1.235020 145.012000 -12.254400 9.910000
-7.685610 0.799922 147.597000 -12.254400 5.000000
-7.708020 0.802254 148.027000 -12.254400 8.590000
-7.730430 0.804586 148.457000 -12.254400 9.270000
-7.752830 0.806918 148.887000 -12.254400 5.760000
6.156150 1.692790 7.580120 -9.856800 9.750000
6.423810 1.766390 7.909690 -9.856800 8.700000
6.418040 1.839990 8.453990 -10.123200 8.970000
8.480860 1.175900 7.225540 -8.347200 4.720000
7.062900 -0.025987 8.696600 -9.856800 7.960000
8.660840 1.221120 7.671740 -8.524800 5.910000
7.298680 1.149530 8.986920 -9.856800 4.230000
-7.814520 0.941229 9.144200 -9.235200 5.620000
-8.500000 -1.269520 12.393100 -10.034400 8.930000
7.104600 -1.357360 12.740600 -11.011200 11.410000
-8.741120 -1.341640 12.744700 -10.034400 5.640000
7.212260 -1.397280 13.171300 -11.011200 9.490000
-7.440030 1.378910 14.033300 -10.833600 4.160000
7.339890 -1.437200 13.590300 -11.011200 7.520000
-7.418050 1.416170 14.528600 -10.833600 3.990000
7.336800 1.243770 14.100100 -11.188800 6.210000
-8.266390 1.453440 14.559000 -10.656000 7.010000
7.426710 1.176390 14.545600 -11.188800 4.030000
7.424570 1.527980 15.958100 -11.455200 3.770000
-7.337340 1.378230 16.012000 -11.100000 4.340000
-7.535310 0.587597 16.444000 -11.100000 3.420000
-7.003840 1.479070 17.556300 -11.366400 3.420000
-7.024420 1.512690 18.010000 -11.455200 5.840000
17.551300 1.386630 11.654700 -6.748800 8.320000
7.565280 1.668510 18.244700 -11.632800 4.840000
-7.180520 1.546310 18.410200 -11.455200 4.250000
-7.239540 1.079940 18.883300 -11.366400 8.450000
17.679900 1.578830 12.956400 -7.636800 6.880000
18.026600 1.609790 13.210500 -7.636800 7.280000
18.373200 1.640750 13.464500 -7.636800 7.130000
18.719900 1.671710 13.718600 -7.636800 10.290000
18.293100 1.556420 14.986800 -8.258400 4.760000
-7.088020 1.164900 21.678600 -11.721600 5.590000
18.625700 1.584720 15.259300 -8.258400 9.210000
-6.794850 1.186880 22.222700 -11.810400 6.890000
18.807800 1.613020 15.713700 -8.258400 9.840000
8.609170 0.567990 22.073200 -11.721600 6.000000
18.205500 1.043170 17.090400 -8.791200 5.790000
8.767630 0.279851 22.479500 -11.721600 9.500000
18.511400 1.296780 17.377600 -8.791200 6.770000
8.924200 0.284849 22.880900 -11.721600 15.910000
18.825200 1.318760 17.672100 -8.791200 10.090000
8.946310 0.212556 23.335100 -11.721600 17.240000
18.514800 2.012240 20.919600 -9.590400 10.240000
18.799700 2.043200 21.241400 -9.590400 12.070000
8.584800 1.608420 28.870800 -11.988000 10.900000
8.707450 1.631390 29.283200 -11.988000 4.950000
18.824500 0.462081 25.196900 -10.212000 8.700000
8.432290 1.390830 29.824500 -12.076800 5.730000
19.081400 0.567015 25.540800 -10.212000 12.830000
8.956470 1.410140 30.120700 -11.988000 6.920000
19.339300 0.574677 25.886000 -10.212000 12.430000
9.072190 1.897250 30.509900 -11.988000 10.820000
18.709000 1.569270 26.832200 -10.478400 7.590000
9.432840 1.922880 30.850400 -11.988000 11.600000
18.957900 1.487410 27.189200 -10.478400 6.610000
18.991200 1.506730 27.689500 -10.478400 13.860000
19.234700 1.526040 28.044500 -10.478400 15.610000
19.281100 1.348980 29.062600 -10.656000 6.640000
19.516700 1.474820 29.417700 -10.656000 10.790000
19.754700 1.492810 29.776500 -10.656000 12.870000
-6.538970 0.550700 36.909500 -12.165600 7.020000
19.181600 1.245150 33.185000 -11.011200 8.960000
-6.398210 0.557030 37.371400 -12.165600 7.350000
19.179600 1.363680 33.181500 -11.011200 9.980000
19.395100 1.379010 33.554300 -11.011200 10.820000
19.610600 1.394330 33.927200 -11.011200 14.050000
19.357000 1.854430 36.510900 -11.277600 8.870000
19.561300 1.744600 36.896200 -11.277600 13.070000
19.762900 1.762590 37.276600 -11.277600 8.070000
-9.680000 1.888490 44.156500 -12.076800 8.710000
-10.029700 1.906470 44.519800 -12.076800 9.420000
-10.470400 1.924460 44.860400 -12.076800 9.110000
-8.990550 2.086240 45.612800 -12.165600 7.030000
10.133600 -2.673880 46.225800 -12.165600 9.600000
10.227500 -2.550490 46.654000 -12.165600 11.280000
-19.916500 -2.483660 44.362700 -11.188800 5.900000
-20.437100 -2.505640 44.599100 -11.188800 6.200000
-18.337600 -2.527610 45.966200 -11.277600 8.900000
19.931300 1.208270 46.292400 -11.544000 6.870000
20.103000 1.061380 46.691300 -11.544000 5.120000
20.243800 0.957795 49.904300 -11.721600 10.660000
20.405700 0.965457 50.303600 -11.632800 7.020000
20.567700 0.973120 50.702800 -11.632800 7.460000
20.433900 0.980782 51.221000 -11.632800 7.400000
20.656700 2.053190 53.880100 -11.810400 6.440000
20.810900 2.068510 54.282200 -11.810400 8.530000
-12.864700 -2.808160 57.103900 -11.988000 9.160000
20.967200 1.902700 54.690000 -11.810400 7.200000
-12.959300 -2.828810 57.523800 -11.988000 7.900000
20.419600 1.746860 55.821000 -11.810400 9.980000
20.569400 1.574350 56.230300 -11.899200 6.200000
-18.608200 1.435460 56.913100 -11.721600 11.320000
-18.742100 1.445790 57.322500 -11.721600 8.510000
-18.876000 1.456120 57.732000 -11.721600 8.160000
-19.009800 1.466450 58.141400 -11.721600 8.900000
-28.633700 1.394190 60.324200 -11.100000 6.870000
-28.818400 1.403180 60.713400 -11.100000 7.220000
-29.003200 1.412180 61.102500 -11.100000 6.840000
-29.187900 1.421170 61.491700 -11.100000 6.950000
22.152000 0.579031 64.375000 -11.988000 7.430000
22.291500 0.794577 64.780400 -11.899200 12.440000
21.930100 0.000000 65.363200 -11.988000 6.770000
17.283800 2.375230 97.559300 -12.254400 6.800000
17.359000 2.385560 97.983500 -12.254400 6.110000
-17.476500 6.593560 98.646800 -12.165600 7.530000
-17.551500 6.621860 99.070200 -12.165600 7.050000
-17.626500 6.650150 99.493600 -12.165600 7.720000
-16.641900 7.046330 105.761000 -12.165600 7.840000
-16.708800 7.074630 106.186000 -12.165600 8.560000
-16.775600 7.102930 106.611000 -12.165600 5.450000
29.999300 0.659994 118.195000 -12.165600 6.750000
29.418500 1.040790 118.782000 -12.165600 4.980000
29.522100 1.044460 119.201000 -12.165600 7.560000
29.625700 1.048120 119.619000 -12.165600 7.720000
19.957800 1.886300 126.834000 -12.343200 7.890000
20.023800 2.291050 127.253000 -12.343200 4.660000
20.089500 2.698430 127.671000 -12.343200 8.090000
19.168600 2.707420 128.248000 -12.343200 11.310000
-62.239200 -13.364700 124.254000 -10.833600 7.340000
-62.467200 -12.543400 124.709000 -10.833600 5.540000
-61.935300 -12.582000 125.453000 -10.833600 4.480000
-9.117630 0.776601 143.198000 -12.343200 5.840000
-8.314620 0.778933 143.678000 -12.343200 5.590000
-8.339510 0.781265 144.108000 -12.343200 6.180000
-7.528060 2.126840 144.571000 -12.343200 10.150000
-8.388520 2.133170 144.955000 -12.343200 9.910000
-8.413410 2.139500 145.385000 -12.343200 4.860000
-7.708110 0.343825 148.029000 -12.343200 6.660000
-7.730430 0.804586 148.457000 -12.343200 8.920000
-7.752830 0.806918 148.887000 -12.343200 8.200000
-7.775330 0.346823 149.320000 -12.343200 6.240000
5.859090 -0.307789 7.446000 -9.856800 5.450000
6.185230 -0.321780 7.737020 -9.856800 6.910000
6.180740 -0.551457 8.273030 -10.212000 9.110000
6.514750 -0.399697 8.021660 -9.856800 5.720000
6.438270 -0.574435 8.617740 -10.212000 8.830000
6.725150 -0.224869 8.412400 -9.945600 5.670000
6.626520 -0.597412 9.013790 -10.300800 4.160000
6.994160 -0.233864 8.748900 -9.945600 5.640000
8.797710 3.213990 6.901260 -8.613600 3.840000
7.300890 1.113720 8.989640 -9.856800 3.760000
-7.989900 1.077900 8.387880 -8.791200 2.780000
6.601150 -1.107570 12.055300 -11.100000 6.690000
6.728230 -1.317440 12.457700 -11.188800 9.250000
7.220860 1.428020 14.142400 -11.277600 5.110000
-8.161290 1.466620 14.119400 -10.656000 7.860000
7.832670 1.466620 14.304300 -11.100000 5.470000
-8.376060 1.505210 14.490900 -10.656000 8.040000
-8.244920 1.543810 15.057100 -10.833600 3.850000
-8.476030 1.543810 14.928300 -10.656000 4.110000
-8.197150 0.658859 16.603800 -11.100000 8.150000
-8.256590 0.674181 17.054100 -11.100000 7.170000
-7.383710 2.094830 17.806900 -11.455200 4.670000
-7.407270 2.141390 18.260200 -11.455200 7.170000
-7.582260 1.813970 18.691600 -11.455200 5.710000
-7.764710 1.055000 19.141300 -11.455200 9.360000
-7.924170 1.191090 19.534400 -11.455200 10.050000
-8.239280 1.215400 19.870200 -11.455200 6.090000
-7.284450 0.935252 21.169000 -11.632800 6.100000
18.306600 1.263760 14.997900 -8.258400 4.760000
18.641700 1.230840 15.272400 -8.258400 5.650000
8.329320 0.197897 21.725800 -11.899200 5.280000
8.483570 0.201562 22.128100 -11.810400 7.090000
18.007500 1.385560 16.645300 -8.880000 5.950000
8.637810 0.205226 22.530500 -11.810400 12.050000
18.323500 1.409870 16.937300 -8.880000 7.380000
8.924480 0.208891 22.881600 -11.810400 17.560000
18.639400 1.434170 17.229300 -8.880000 11.290000
9.081240 0.135264 23.283500 -11.810400 17.640000
18.955300 1.458480 17.521400 -8.880000 12.590000
9.024250 -0.934660 24.669500 -11.810400 10.000000
6.766870 -1.981280 26.661000 -12.165600 7.200000
18.751500 0.911405 24.699900 -10.212000 4.710000
18.818400 0.924063 25.188800 -10.300800 5.400000
8.026880 1.582510 29.926600 -12.076800 6.330000
19.076200 0.936721 25.533800 -10.300800 9.560000
8.779600 1.604490 30.163000 -12.165600 6.090000
19.532900 0.949380 25.729100 -10.300800 8.890000
6.158370 1.626470 31.243900 -12.254400 8.310000
18.504300 1.468090 26.979500 -10.567200 4.870000
6.241590 1.648440 31.666200 -12.254400 9.250000
18.747700 1.487410 27.334500 -10.567200 7.910000
8.721870 1.164490 31.544100 -12.165600 8.930000
18.991200 1.506730 27.689500 -10.567200 14.000000
8.801620 -3.176180 31.832500 -12.165600 10.730000
19.234700 1.526040 28.044500 -10.567200 15.210000
8.667130 -3.217420 32.313700 -12.165600 11.540000
19.038100 1.545360 28.696400 -10.656000 12.000000
8.591430 -3.153860 32.787800 -12.165600 10.810000
19.051600 1.564680 29.202800 -10.744800 5.770000
5.987630 -3.193780 33.797400 -12.165600 8.470000
19.286800 1.584000 29.563300 -10.744800 12.370000
19.522000 1.603310 29.923800 -10.744800 5.750000
19.054300 1.510790 30.737200 -10.833600 11.010000
19.281100 1.528780 31.103100 -10.833600 6.110000
19.502500 1.775750 31.460300 -10.833600 6.000000
19.729300 1.796400 31.826100 -10.833600 9.190000
19.956100 1.817040 32.191900 -10.833600 6.900000
-5.445620 1.482210 37.932600 -12.254400 7.980000
-5.506810 1.498860 38.358800 -12.254400 4.990000
19.232400 1.548830 35.122900 -11.188800 7.410000
19.439200 1.565480 35.500600 -11.188800 7.740000
19.646000 1.582130 35.878200 -11.188800 7.860000
19.850300 1.726620 36.251400 -11.188800 11.940000
19.563700 1.615440 36.900800 -11.277600 15.410000
19.765400 1.632100 37.281200 -11.277600 14.340000
19.967100 1.648750 37.661600 -11.277600 12.010000
-21.987400 -1.155280 38.039200 -10.656000 13.520000
-21.309000 -1.166600 38.915200 -10.744800 4.940000
-23.458000 -3.808550 38.500400 -10.567200 6.730000
-9.932330 2.168060 44.087600 -12.076800 5.940000
-10.026900 2.188710 44.507400 -12.076800 7.150000
-8.908500 1.924460 45.196500 -12.165600 6.120000
-8.991760 1.942450 45.618900 -12.165600 11.060000
19.800200 1.670130 42.557800 -11.544000 10.430000
10.139600 -2.124870 46.253000 -12.254400 10.590000
12.374800 -2.439700 46.136900 -12.254400 11.980000
10.949800 -2.871510 46.914400 -12.343200 9.080000
-19.142700 -2.353900 45.178000 -11.366400 13.980000
20.101400 2.050360 44.774500 -11.632800 14.060000
-19.310600 -2.374550 45.574200 -11.366400 8.650000
-19.743900 -2.395200 45.857200 -11.366400 9.600000
-7.099230 -1.622890 49.451100 -12.343200 7.310000
-20.430500 -3.025340 46.462700 -11.277600 6.630000
19.932700 1.052390 46.295600 -11.721600 5.840000
-20.603600 -3.050980 46.856400 -11.277600 8.140000
20.104200 0.904158 46.694100 -11.721600 7.290000
20.131500 1.097360 48.550000 -11.721600 6.110000
20.296500 1.106360 48.947900 -11.721600 6.040000
20.242500 1.124350 49.901300 -11.810400 12.680000
20.404500 1.133340 50.300600 -11.810400 9.280000
20.565000 1.311540 50.696200 -11.810400 6.020000
12.946700 -0.300845 54.056500 -12.254400 14.550000
-17.268500 -1.461090 52.815500 -11.721600 13.130000
13.047100 -0.303177 54.475600 -12.165600 9.160000
20.346000 1.645590 52.165500 -11.810400 7.840000
11.661400 -0.654652 55.226300 -12.254400 8.140000
20.500600 1.832740 52.561700 -11.810400 6.240000
11.428500 -0.659649 55.714900 -12.343200 8.430000
20.093800 1.683570 53.645200 -11.899200 9.030000
20.660900 1.696230 53.890900 -11.899200 7.720000
20.815100 1.708880 54.293100 -11.899200 6.640000
20.971100 1.540370 54.699900 -11.899200 7.060000
-19.046300 1.435460 56.768000 -11.721600 8.070000
-19.183300 1.445790 57.176400 -11.721600 6.350000
-19.321700 1.268260 57.588800 -11.721600 7.040000
-19.460900 0.898843 58.003600 -11.721600 16.000000
-28.812300 1.974710 60.700400 -11.188800 11.470000
-28.999500 1.778220 61.094700 -11.188800 9.860000
-16.537000 0.000000 65.154500 -11.988000 8.660000
-29.185900 1.631680 61.487500 -11.188800 7.850000
-29.370600 1.642010 61.876600 -11.188800 6.330000
12.395000 2.528180 69.964100 -12.343200 6.540000
-6.878260 1.880160 71.173100 -12.432000 7.370000
16.644500 2.898770 97.219000 -12.343200 7.410000
16.718600 2.605040 97.651900 -12.343200 8.920000
16.034900 2.616370 98.203000 -12.343200 7.350000
-18.161600 6.256720 98.105900 -12.165600 7.660000
-18.236300 6.593560 98.509200 -12.165600 8.950000
-18.314500 6.621860 98.932000 -12.165600 7.180000
-18.392800 6.650150 99.354800 -12.165600 5.520000
-16.645300 6.715190 105.782000 -12.254400 5.260000
-16.708800 7.074630 106.186000 -12.254400 5.750000
29.314100 1.414250 118.360000 -12.254400 4.710000
29.417600 1.419250 118.779000 -12.254400 6.180000
29.522800 0.664658 119.203000 -12.254400 6.940000
18.979700 1.886300 126.984000 -12.343200 4.710000
19.044100 1.494210 127.415000 -12.343200 7.400000
19.108400 1.099430 127.845000 -12.343200 5.880000
-62.292000 -12.074700 124.360000 -10.922400 9.010000
-62.412400 -13.837000 124.600000 -10.922400 7.520000
-8.289730 0.776601 143.248000 -12.432000 7.180000
-8.314620 0.778933 143.678000 -12.432000 9.420000
-8.339510 0.781265 144.108000 -12.432000 7.250000
-8.361640 3.805620 144.491000 -12.432000 7.250000
-8.387600 3.031240 144.939000 -12.432000 10.170000
-7.685210 1.714090 147.589000 -12.432000 10.670000
-7.708020 0.802254 148.027000 -12.432000 8.310000
-7.730430 0.804586 148.457000 -12.432000 5.220000
-7.752830 0.806918 148.887000 -12.432000 6.970000
20.042900 5.074160 191.933000 -12.432000 5.280000
20.087600 5.085490 192.361000 -12.432000 9.370000
20.132400 5.096820 192.790000 -12.432000 8.420000
5.911000 -0.505503 7.393990 -10.034400 1.290000
5.853840 -0.505503 7.439330 -9.856800 1.640000
6.791170 -0.058303 8.362020 -9.945600 4.370000
7.062820 -0.060636 8.696500 -9.945600 5.710000
7.161450 1.113720 9.101110 -10.034400 4.150000
-8.018510 1.533740 8.289040 -8.880000 4.040000
-8.309780 0.643367 8.723690 -8.880000 3.530000
-8.459800 0.643367 8.578280 -8.702400 3.530000
7.272890 1.157750 10.095400 -10.389600 5.030000
6.938740 1.396560 10.817200 -10.744800 3.800000
7.523680 1.197670 10.443500 -10.389600 4.220000
7.083660 1.443110 11.232700 -10.744800 3.700000
6.688580 -1.235050 11.994500 -11.100000 7.300000
6.730130 -1.273640 12.461300 -11.188800 8.690000
7.571080 1.706580 12.426000 -11.100000 6.390000
7.495940 1.756770 12.968300 -11.011200 6.750000
-8.077680 0.683453 14.226700 -10.656000 9.520000
7.363260 1.490710 15.512600 -11.455200 5.050000
7.547340 1.527980 15.900400 -11.455200 5.200000
-7.179200 1.592140 18.406900 -11.455200 6.060000
-7.806980 1.775380 18.132500 -11.277600 6.620000
-7.492300 1.142480 18.780700 -11.544000 7.410000
-7.503650 1.166790 19.238700 -11.455200 6.380000
7.921250 1.321460 19.527200 -11.721600 9.100000
-7.248990 0.750793 19.816500 -11.632800 5.690000
-6.957990 1.429340 21.704900 -11.810400 4.740000
-7.089280 1.456310 22.114500 -11.810400 6.640000
8.611340 0.201562 22.078700 -11.810400 10.090000
8.637810 0.205226 22.530500 -11.899200 9.380000
17.872100 1.537210 16.777400 -8.880000 14.790000
8.792060 0.208891 22.932800 -11.899200 6.260000
18.185700 1.564180 17.071800 -8.880000 17.590000
8.946310 0.212556 23.335100 -11.899200 11.270000
18.499200 1.591150 17.366100 -8.880000 15.770000
8.242890 -2.140040 23.954300 -11.899200 5.520000
8.392550 -1.777690 24.389200 -11.988000 6.860000
8.532430 -1.807320 24.795700 -11.988000 6.370000
8.300070 -0.640279 25.385700 -12.076800 9.270000
6.962180 -2.809970 27.430500 -12.165600 6.280000
18.722400 1.424730 23.053000 -9.945600 5.210000
18.993700 1.445380 23.387100 -9.945600 7.110000
18.498800 1.670420 26.971500 -10.567200 8.380000
18.745100 1.589910 27.330600 -10.567200 7.870000
7.966060 1.692400 32.164300 -12.254400 8.730000
18.991200 1.506730 27.689500 -10.567200 8.130000
7.800560 -2.829210 32.569800 -12.165600 9.940000
19.234700 1.526040 28.044500 -10.567200 5.920000
7.896840 -3.049020 32.971800 -12.254400 15.680000
18.818900 1.438850 28.846100 -10.744800 8.420000
8.253910 -3.087620 33.326500 -12.254400 9.490000
19.051600 1.564680 29.202800 -10.744800 12.870000
19.286800 1.584000 29.563300 -10.744800 7.200000
19.524600 1.492810 29.927800 -10.744800 5.640000
19.281100 1.528780 31.103100 -10.922400 9.480000
19.508000 1.546760 31.469000 -10.922400 7.510000
19.734800 1.564750 31.834900 -10.922400 4.740000
19.172400 1.719210 33.169100 -11.011200 11.270000
19.387900 1.738530 33.541800 -11.011200 9.400000
-5.728450 1.498860 38.326300 -12.254400 9.330000
19.603300 1.757850 33.914500 -11.011200 8.150000
19.236600 1.301110 35.130600 -11.188800 11.870000
19.716600 1.315100 35.357500 -11.188800 7.030000
19.926300 1.329090 35.733600 -11.188800 11.680000
19.565900 1.486260 36.905000 -11.277600 8.610000
19.765400 1.632100 37.281200 -11.277600 6.190000
19.967100 1.648750 37.661600 -11.277600 12.700000
-22.126700 -1.265840 36.953400 -10.567200 4.830000
-22.343500 -1.547550 37.315500 -10.567200 15.000000
-21.687400 -1.562870 38.196500 -10.567200 12.820000
-21.852300 -3.325520 38.486900 -10.656000 11.430000
-20.967100 -2.147420 39.547800 -10.922400 13.270000
-21.138300 -3.250540 39.870700 -10.833600 10.700000
-9.675830 2.307820 44.137500 -12.165600 6.760000
-21.649200 -3.281500 40.084800 -10.833600 6.520000
-9.767980 2.329800 44.557800 -12.165600 5.810000
-9.514640 2.209360 45.059800 -12.165600 9.190000
-9.340500 2.230010 45.535600 -12.165600 8.450000
19.620600 1.510960 42.171800 -11.544000 8.450000
-9.434560 1.234560 45.994200 -12.165600 6.990000
19.800200 1.670130 42.557800 -11.544000 12.500000
9.510860 -2.527510 46.366200 -12.343200 6.320000
19.981800 1.685450 42.948200 -11.544000 13.700000
9.588250 -3.288730 46.743400 -12.343200 12.890000
-11.114000 -3.288730 46.404300 -12.165600 9.670000
20.163500 1.700770 43.338700 -11.544000 9.070000
11.857200 -2.461680 46.716700 -12.343200 5.500000
19.759200 1.268540 44.012200 -11.632800 15.190000
19.935600 1.279870 44.405100 -11.632800 10.710000
-21.071800 -1.777390 45.290900 -11.188800 10.430000
-21.242400 -2.415840 45.657700 -11.188800 6.730000
19.934900 0.740596 46.300700 -11.721600 14.370000
-18.944600 -1.325170 46.701700 -11.455200 8.480000
-21.424000 -2.436490 46.047900 -11.188800 8.490000
20.105300 0.746926 46.696400 -11.721600 9.630000
10.976400 1.347820 50.070400 -12.343200 7.480000
20.273400 1.070380 47.087000 -11.721600 10.490000
11.068700 1.359150 50.491100 -12.343200 7.120000
-20.811400 -0.759586 47.328900 -11.366400 9.050000
19.965100 1.249580 48.148700 -11.721600 9.430000
20.130100 1.259900 48.546600 -11.721600 8.620000
20.295100 1.270230 48.944500 -11.721600 7.820000
-18.967600 1.270230 49.474200 -11.544000 9.930000
20.458900 1.404460 49.339600 -11.721600 8.310000
20.112000 1.301210 50.414200 -11.810400 11.580000
20.271600 1.311540 50.814300 -11.810400 7.320000
20.726900 1.321870 51.095400 -11.810400 7.660000
20.344100 1.818750 52.160500 -11.810400 8.370000
20.500600 1.832740 52.561700 -11.810400 10.390000
20.652500 2.198330 52.951300 -11.810400 8.680000
20.576400 -0.138929 56.249600 -11.899200 8.810000
-19.182200 1.585680 57.173000 -11.810400 10.030000
-19.319200 1.597000 57.581400 -11.810400 6.930000
-19.457400 1.466450 57.993200 -11.810400 6.640000
-19.147900 0.714620 58.563700 -11.810400 4.620000
20.977200 0.911503 58.389000 -11.988000 6.550000
-18.940600 0.719617 59.083700 -11.810400 8.450000
-29.178700 1.376200 59.103000 -11.100000 17.720000
-29.369400 1.385190 59.489300 -11.100000 15.270000
-28.346000 1.766900 60.925900 -11.188800 9.400000
-28.527700 1.778220 61.316400 -11.188800 5.170000
-29.184200 1.789550 61.483900 -11.188800 6.150000
15.108900 0.000000 85.282900 -12.432000 7.020000
15.844200 0.000000 85.587600 -12.343200 6.420000
15.922600 0.000000 86.011300 -12.343200 5.430000
16.719600 2.375230 97.657600 -12.432000 6.770000
16.792300 2.385560 98.082200 -12.432000 6.900000
-17.397900 6.873730 98.203000 -12.254400 5.960000
-17.472800 6.903360 98.626300 -12.254400 5.560000
-17.547800 6.932990 99.049600 -12.254400 6.460000
-17.622800 6.962620 99.472900 -12.254400 10.010000
18.981400 0.564376 102.534000 -12.432000 6.060000
19.059800 0.566709 102.958000 -12.432000 7.040000
19.135500 1.869620 103.367000 -12.432000 6.820000
29.419200 0.662326 118.785000 -12.254400 6.930000
29.522800 0.664658 119.203000 -12.254400 8.460000
29.626400 0.666990 119.621000 -12.254400 5.940000
19.043400 1.892630 127.410000 -12.432000 7.580000
20.091700 1.898960 127.685000 -12.432000 8.840000
-62.392900 -14.267900 124.561000 -10.922400 8.970000
-62.564800 -14.743900 124.904000 -10.922400 7.070000
-8.314740 0.000000 143.680000 -12.432000 5.910000
-8.339640 0.000000 144.110000 -12.432000 7.160000
-8.363970 1.679110 144.531000 -12.432000 6.630000
-8.388860 1.684100 144.961000 -12.432000 6.040000
-8.413750 1.689100 145.391000 -12.432000 7.350000
-7.708020 0.802254 148.027000 -12.432000 8.380000
-7.730430 0.804586 148.457000 -12.432000 4.660000
-7.752830 0.806918 148.887000 -12.432000 7.430000
-7.775070 1.271670 149.315000 -12.520800 7.470000
26.664600 0.383804 163.303000 -12.432000 6.610000
25.787100 0.384804 163.880000 -12.432000 8.180000
25.853800 0.900204 164.303000 -12.432000 7.020000
20.092400 2.842120 192.407000 -12.520800 7.690000
20.136200 3.448060 192.826000 -12.520800 7.680000
5.718550 -0.650866 8.068240 -10.478400 1.990000
5.780570 -0.650866 8.023930 -10.300800 1.320000
5.967190 -0.679165 8.419030 -10.478400 3.650000
6.370570 -0.607701 8.665640 -10.389600 3.050000
7.240790 1.679020 11.098900 -10.744800 5.220000
6.761840 -1.606190 11.909200 -11.188800 7.370000
7.125720 -1.606190 11.695100 -11.011200 6.720000
-7.643940 1.817760 11.331200 -10.300800 6.970000
6.973150 -1.656390 12.281300 -11.188800 9.810000
-7.972640 1.874570 11.624200 -10.300800 6.650000
7.378640 -1.706580 12.541300 -11.100000 10.640000
7.844350 -1.886450 12.229000 -10.922400 10.630000
7.547290 0.034982 13.057100 -11.100000 10.060000
8.044750 0.034982 12.756700 -10.922400 10.520000
7.866210 0.035982 13.370000 -11.100000 6.860000
8.274500 0.083957 13.121000 -10.922400 6.470000
-7.924270 1.857160 13.709300 -10.833600 5.230000
-0.888330 4.214470 15.350500 1.953600 3.320000
-8.042650 1.668250 14.165000 -10.833600 8.380000
-0.942932 1.315240 16.294000 1.953600 12.440000
-8.266390 1.453440 14.559000 -10.833600 7.930000
-0.967746 1.349860 16.722800 1.953600 16.480000
-0.992243 1.450870 17.146100 1.953600 16.670000
-1.015030 1.854300 17.540000 1.953600 13.220000
-1.141740 2.163710 17.931700 1.953600 9.210000
-8.189280 1.045250 16.587800 -11.188800 8.390000
-1.780290 0.887874 18.421600 1.953600 6.160000
-8.251060 0.967087 17.042600 -11.188800 5.750000
-1.603650 0.908522 18.869800 1.953600 6.090000
-1.751350 0.989067 19.285900 1.953600 4.540000
-1.257870 1.011050 19.755600 1.953600 5.980000
-6.776160 1.958470 18.523900 -11.721600 5.410000
-7.727340 0.766086 18.237000 -11.455200 6.820000
-1.285220 1.033030 20.185100 1.953600 7.670000
-6.952310 0.782740 19.005500 -11.721600 6.490000
-7.751480 0.782740 18.693800 -11.544000 7.940000
7.765900 0.991115 19.144300 -11.810400 5.970000
-7.914360 0.927217 19.086600 -11.544000 7.330000
-6.535240 1.891160 19.988000 -11.810400 4.350000
-7.974070 1.032410 19.988400 -11.632800 4.190000
-6.513020 2.238970 20.868800 -11.899200 6.960000
-6.665970 1.194820 21.358900 -11.899200 6.170000
-7.420430 1.217800 21.564200 -11.899200 6.490000
-7.390880 1.240780 22.028700 -11.899200 7.160000
8.611070 0.274854 22.078000 -11.988000 9.850000
8.637540 0.279851 22.529800 -11.988000 16.810000
8.792060 0.208891 22.932800 -11.988000 18.300000
8.946310 0.212556 23.335100 -11.988000 14.900000
-13.185400 2.042090 21.640500 -14.119200 7.240000
7.093780 -1.434170 24.371200 -12.254400 8.230000
8.917330 0.216221 23.806900 -11.899200 9.640000
-14.086800 1.937200 21.592600 -13.852800 8.920000
7.357150 -1.458480 24.742200 -12.254400 8.610000
-12.955100 1.563950 22.817000 -14.385600 5.930000
-14.151900 1.969480 22.062200 -13.852800 8.610000
6.112420 -1.482790 25.521300 -12.254400 7.630000
-12.988400 1.589580 23.291800 -14.474400 4.000000
-16.264900 2.145920 21.085100 -11.899200 10.290000
8.573040 -3.245560 25.552200 -0.888000 5.570000
-16.361600 2.180540 21.551900 -11.988000 9.040000
7.449090 -3.297080 26.347000 -0.888000 9.190000
7.565480 -3.348590 26.758700 -0.799200 11.200000
-12.557100 2.043200 25.435100 -14.740800 6.070000
18.498800 1.670420 26.971500 -10.656000 8.170000
18.742200 1.692400 27.326400 -10.656000 9.100000
18.985600 1.714380 27.681300 -10.656000 15.160000
9.362820 -2.699710 32.166700 -12.254400 10.020000
19.229000 1.736360 28.036200 -10.656000 15.980000
-14.559400 2.445640 30.673100 -13.142400 8.420000
9.482850 -2.734320 32.579100 -12.343200 12.360000
5.274300 -2.734320 33.518700 -12.343200 12.290000
18.588000 1.758340 28.977800 -10.833600 9.390000
-14.743700 2.476600 31.061400 -13.142400 7.920000
18.820300 1.780320 29.340000 -10.833600 8.970000
-14.931300 2.399880 31.456500 -13.142400 14.260000
19.052700 1.802300 29.702300 -10.833600 14.320000
-14.206300 1.693160 32.307800 -13.408800 14.880000
-15.115600 2.429510 31.844800 -13.142400 14.970000
19.288000 1.713800 30.069100 -10.833600 8.020000
-14.379600 1.713800 32.701700 -13.408800 11.690000
-14.556900 1.510790 33.104900 -13.408800 8.950000
16.652800 0.651301 32.615400 -10.567200 7.720000
-14.987900 1.528780 33.384500 -13.408800 9.130000
16.848700 0.658963 32.999100 -10.567200 5.850000
-6.174700 1.600720 37.815900 -12.432000 14.320000
19.392900 1.498860 33.550500 -11.188800 6.450000
-6.024360 1.379010 38.285400 -12.432000 15.240000
19.608400 1.515520 33.923300 -11.188800 5.490000
-6.091940 1.273130 38.714900 -12.432000 9.320000
19.230000 1.672660 35.118500 -11.277600 11.750000
19.436800 1.690650 35.496100 -11.277600 7.740000
19.643600 1.708630 35.873800 -11.277600 11.750000
19.362000 1.598790 36.520300 -11.366400 13.580000
19.563700 1.615440 36.900800 -11.366400 10.800000
19.765400 1.632100 37.281200 -11.366400 6.870000
19.676200 1.648750 37.814400 -11.366400 11.590000
-21.691700 -1.291160 38.204200 -10.744800 5.930000
-19.868600 -1.303810 39.665600 -11.100000 4.990000
-21.606400 -1.303810 38.746400 -10.922400 5.600000
-19.829700 -1.316470 40.166000 -11.100000 6.770000
-9.678700 2.028290 44.150600 -12.254400 9.030000
-14.188400 1.341790 43.395100 -12.609600 5.600000
-9.427070 2.047600 44.645000 -12.254400 8.620000
-14.322200 1.354450 43.804500 -12.609600 5.320000
19.618500 1.654810 42.167400 -11.632800 8.600000
19.800200 1.670130 42.557800 -11.632800 7.750000
19.981800 1.685450 42.948200 -11.632800 12.320000
20.163500 1.700770 43.338700 -11.632800 8.800000
-19.251200 -1.016410 44.712900 -11.455200 7.550000
-19.421600 -1.025400 45.108500 -11.455200 4.730000
-19.594100 -0.727936 45.509200 -11.455200 5.220000
-21.225200 -3.155330 45.620600 -11.277600 9.660000
19.936300 0.428776 46.304000 -11.810400 7.720000
-18.283400 -3.155330 46.877100 -11.544000 6.770000
20.105300 0.746926 46.696400 -11.810400 5.010000
23.663700 1.070380 45.477700 -11.366400 8.120000
20.275600 0.753256 47.092200 -11.810400 9.740000
-17.965800 -2.457140 47.963900 -11.632800 6.570000
-21.781100 -2.757290 46.815600 -11.277600 9.530000
-19.576500 -2.498440 48.259500 -11.544000 7.910000
20.132700 0.934808 48.552900 -11.810400 7.470000
20.296500 1.106360 48.947900 -11.899200 7.240000
-14.372900 -4.571690 56.628300 -12.165600 7.630000
20.856000 0.873524 55.679900 -11.988000 9.470000
21.007100 0.879853 56.083400 -11.988000 8.060000
-19.182200 1.585680 57.173000 -11.899200 8.440000
-19.320400 1.456120 57.584800 -11.899200 7.710000
-19.457400 1.466450 57.993200 -11.899200 7.410000
-16.762500 -0.905173 59.288000 -11.988000 8.660000
-16.881500 -0.143927 59.708900 -12.076800 7.650000
-17.808100 0.144926 59.888800 -11.988000 8.690000
-28.347700 1.611030 60.929400 -11.277600 15.680000
-28.999500 1.778220 61.094700 -11.277600 15.370000
-28.711100 1.631680 61.710600 -11.277600 8.850000
-16.058100 0.000000 67.047800 -12.165600 5.120000
-16.158500 0.000000 67.466900 -12.165600 8.990000
15.764700 1.004470 85.158200 -12.520800 6.350000
15.843600 0.740281 85.584500 -12.520800 4.770000
16.720700 2.068800 97.664400 -12.520800 5.270000
-17.397900 6.873730 98.203000 -12.343200 8.390000
-17.472800 6.903360 98.626300 -12.343200 6.410000
-17.547800 6.932990 99.049600 -12.343200 5.680000
-17.051100 6.650150 99.593800 -12.343200 9.630000
17.391600 7.102930 106.512000 -12.520800 6.060000
29.315600 0.659994 118.367000 -12.343200 12.560000
29.418500 1.040790 118.782000 -12.343200 8.550000
29.522100 1.044460 119.201000 -12.343200 7.640000
19.959200 1.092100 126.843000 -12.520800 8.090000
20.026600 0.697308 127.271000 -12.520800 6.320000
20.093900 0.000000 127.699000 -12.520800 6.890000
-61.272600 -14.608300 124.111000 -11.100000 9.480000
-62.180900 -14.653500 124.138000 -11.100000 7.540000
-8.339330 1.227690 144.105000 -12.609600 9.360000
-8.364230 1.231360 144.535000 -12.609600 8.360000
-8.389300 0.785929 144.969000 -12.609600 6.570000
-8.439090 0.790593 145.829000 -12.609600 5.840000
-9.254530 0.788261 145.348000 -12.609600 5.660000
-7.685450 1.257010 147.593000 -12.609600 5.590000
-8.563380 1.260680 147.977000 -12.609600 9.510000
-8.588270 1.264340 148.407000 -12.609600 8.380000
-8.613160 1.268010 148.837000 -12.609600 6.630000
26.661800 2.430670 163.285000 -12.520800 4.420000
25.784400 2.437000 163.862000 -12.520800 6.860000
26.800600 2.443330 164.136000 -12.520800 8.330000
26.870000 2.449660 164.561000 -12.520800 8.590000
20.045500 4.029650 191.957000 -12.609600 9.900000
20.090200 4.038650 192.386000 -12.609600 8.860000
20.135000 4.047640 192.814000 -12.609600 5.130000
