VERSION .7
FIELDS x y z velocity intensity
SIZE 4 4 4 4 4
TYPE F F F F F
COUNT 1 1 1 1 1
WIDTH 946
HEIGHT 1
VIEWPOINT 0 0 0 1 0 0 0
POINTS 946
DATA ascii
5.598310 -0.505523 8.162430 -10.300800 2.190000
5.368190 -0.711076 8.810540 -10.567200 2.940000
5.841720 -0.527502 8.517320 -10.212000 4.330000
5.662430 -0.740704 9.134280 -10.567200 5.510000
6.281920 -0.740704 8.719840 -10.389600 4.810000
6.153320 -0.549481 8.825050 -10.212000 6.720000
5.886310 -0.839451 9.495410 -10.567200 5.770000
6.104270 -0.839451 9.356780 -10.389600 4.900000
6.534560 -0.735762 9.070520 -10.212000 8.370000
6.617310 -0.839451 9.001260 -10.389600 3.420000
6.187050 -0.907614 9.810890 -10.567200 2.540000
6.880220 -0.656317 9.358890 -10.212000 8.100000
7.165150 -5.450230 11.558400 -11.011200 2.750000
6.441090 -1.350830 13.569800 -11.277600 6.360000
6.436270 -1.389430 14.045600 -11.366400 4.420000
-1.775900 1.902230 15.292600 2.131200 7.920000
-1.825230 1.955070 15.717300 2.131200 5.590000
8.399800 -0.873141 14.028400 -10.833600 8.510000
-1.875270 1.957640 16.148200 2.220000 9.080000
8.509630 -0.896118 14.463600 -10.833600 10.330000
-1.733530 1.957550 16.600400 2.220000 9.540000
-1.876370 2.007740 17.015500 2.220000 9.580000
-8.832250 0.791998 15.280200 -10.478400 6.130000
-0.777367 2.057930 17.529400 2.131200 4.000000
-1.633830 1.076810 17.991700 2.220000 3.100000
-0.800364 1.076810 18.048000 2.220000 3.030000
6.780870 -1.512690 18.103100 -11.632800 7.990000
7.403180 1.557530 17.853800 -11.455200 8.000000
6.788720 -1.546310 18.558300 -11.632800 5.180000
7.567690 1.592140 18.250600 -11.455200 11.560000
6.825320 -1.626750 18.998000 -11.632800 8.900000
7.894200 -1.741050 19.038000 -11.544000 5.310000
8.058670 -1.777320 19.434600 -11.544000 10.360000
-7.547500 1.098960 20.149800 -11.366400 7.720000
7.685240 -1.813590 20.045800 -11.632800 6.100000
-7.856620 1.120940 20.492900 -11.366400 4.680000
-7.844220 1.402370 20.942000 -11.366400 6.140000
8.434890 1.834420 21.143500 -11.632800 5.280000
-7.080250 1.869030 22.086300 -11.544000 3.620000
-7.998780 1.410110 22.264300 -11.455200 3.570000
-8.150460 1.081750 22.686500 -11.455200 3.640000
-6.537820 1.777690 24.950500 -11.810400 8.390000
-7.541780 1.777690 24.665600 -11.632800 5.670000
18.100400 1.482790 19.001900 -9.235200 9.940000
-6.638900 2.212580 25.336200 -11.810400 5.900000
-7.658390 2.212580 25.046900 -11.632800 8.050000
18.393800 1.589580 19.310000 -9.235200 6.840000
-7.589910 2.145920 25.524900 -11.632800 4.670000
18.690500 1.615220 19.621400 -9.235200 5.580000
-6.302470 2.180540 26.314800 -11.899200 5.900000
18.987100 1.640860 19.932900 -9.235200 5.320000
-6.399190 2.385130 26.718600 -11.810400 6.500000
18.175400 1.342140 21.268000 -9.590400 11.120000
7.953050 2.422400 26.746200 -11.899200 5.030000
18.452200 1.450630 21.591900 -9.590400 11.430000
18.942100 1.472610 21.737600 -9.590400 7.070000
9.071470 0.167914 29.668500 -11.899200 9.770000
18.777900 2.259900 25.134500 -10.212000 5.120000
7.142390 -1.410140 30.601600 -11.988000 8.400000
18.838200 2.290860 25.624800 -10.212000 11.040000
5.979430 -1.429460 31.288300 -11.988000 15.450000
8.362610 -1.548620 31.178300 -11.988000 12.260000
18.490100 1.948520 26.958800 -10.389600 18.330000
8.293640 -1.366910 31.651300 -11.988000 14.710000
-12.461300 1.384890 30.719100 -14.296800 11.640000
6.833970 -2.588380 32.364500 -11.988000 7.950000
-12.621400 1.506730 31.113900 -14.296800 9.990000
-15.274100 1.195140 29.915200 -12.787200 9.370000
18.833000 1.241110 29.359700 -10.567200 8.340000
19.067500 1.147210 29.725300 -10.567200 8.130000
-15.366800 2.211430 31.740300 -12.076800 12.800000
18.827800 0.867475 30.901200 -10.744800 8.510000
19.052000 0.877802 31.269000 -10.744800 9.870000
19.276100 0.888129 31.636900 -10.744800 5.740000
6.950860 1.432250 36.371500 -12.076800 10.380000
19.500200 0.898456 32.004800 -10.744800 8.510000
9.704530 1.448900 36.181400 -11.988000 6.010000
10.096600 1.582730 36.516000 -11.988000 10.030000
19.172400 1.719210 33.169100 -10.922400 4.570000
6.974770 1.600720 37.676500 -12.076800 10.790000
19.385100 1.858340 33.537000 -10.922400 7.840000
19.600500 1.878990 33.909600 -10.922400 9.220000
8.904720 1.636690 38.152300 -12.076800 8.240000
19.551100 1.899640 34.434000 -10.922400 6.810000
8.987140 -2.848090 38.505500 -12.076800 7.590000
19.026700 1.672660 35.229100 -11.011200 8.080000
19.228700 1.815800 35.603100 -11.011200 8.260000
19.433300 1.835120 35.981900 -11.011200 12.390000
9.351310 3.064800 41.508500 -12.076800 7.270000
-6.184260 0.370140 43.077700 -12.076800 7.350000
19.442200 1.698710 39.381200 -11.188800 14.830000
19.632800 1.715370 39.767300 -11.188800 13.530000
19.823400 1.732020 40.153400 -11.188800 7.400000
19.886100 1.906470 41.074900 -11.277600 12.250000
20.076200 1.781980 41.467600 -11.277600 8.500000
20.263900 1.798640 41.855100 -11.277600 6.430000
19.974400 2.124870 42.932200 -11.366400 13.140000
19.905200 2.144190 43.438300 -11.366400 5.700000
20.087200 2.014390 43.835500 -11.366400 6.690000
-21.795500 -1.580920 43.512500 -10.833600 8.470000
-21.988400 -1.594910 43.897600 -10.833600 8.650000
10.134300 2.619420 47.994400 -12.165600 12.880000
-22.192200 -0.421447 44.304400 -10.833600 7.510000
-22.700200 -2.549590 44.459400 -10.744800 13.900000
-20.639500 -1.481030 45.973000 -11.011200 10.490000
-23.240800 -2.571570 44.664900 -10.744800 8.150000
-20.815900 -1.493690 46.366000 -11.011200 7.590000
-23.439400 -2.593550 45.046700 -10.744800 9.440000
-21.350000 -1.664860 46.591300 -11.011200 5.720000
-23.638100 -2.615530 45.428400 -10.744800 11.430000
-21.800700 -1.678850 46.857500 -11.011200 9.000000
-8.790820 2.176260 51.346400 -12.076800 8.250000
-8.863470 2.194240 51.770700 -12.076800 6.600000
-8.936120 2.212230 52.195100 -12.076800 10.400000
19.905600 2.212230 49.070800 -11.544000 8.700000
9.011880 -1.734810 52.637600 -12.165600 8.290000
9.391120 -1.748800 53.008700 -12.165600 6.650000
20.244800 0.791235 49.906800 -11.544000 6.600000
-20.110800 -1.427110 50.411200 -11.277600 8.260000
9.465260 -1.930610 53.427100 -12.165600 6.060000
20.115600 0.797565 50.423200 -11.544000 10.830000
9.540380 -1.945930 53.851100 -12.165600 5.710000
-21.615100 -1.352850 52.127900 -11.188800 8.210000
-21.374600 -1.363180 52.692200 -11.188800 9.250000
20.397700 1.529040 54.456600 -11.632800 9.750000
20.550000 1.404480 54.863100 -11.632800 10.740000
20.701100 1.414810 55.266500 -11.632800 7.650000
20.249600 0.694631 56.363900 -11.721600 7.060000
20.721200 1.072730 56.645400 -11.721600 9.640000
20.866500 1.456120 57.042700 -11.721600 7.050000
21.014500 1.466450 57.447200 -11.721600 9.410000
-16.378800 -4.426930 59.236800 -11.810400 14.370000
-16.378800 -4.426930 59.236800 -11.721600 7.510000
20.515700 2.206410 58.518300 -11.810400 14.520000
20.658200 2.221730 58.924700 -11.721600 7.550000
10.967700 -2.237060 61.907600 -12.165600 7.900000
20.795700 2.625900 59.316800 -11.721600 8.130000
12.243000 -2.056590 62.113800 -12.165600 8.440000
11.685200 -1.141690 63.121500 -12.165600 8.230000
20.881900 1.886100 60.684100 -11.810400 10.280000
-18.788600 0.968472 63.186300 -11.721600 6.800000
-18.543500 0.974802 63.707600 -11.721600 6.720000
-18.663000 1.187670 64.118000 -11.721600 7.070000
21.154500 1.210650 64.700900 -11.810400 15.130000
21.543500 2.681300 65.890600 -11.810400 9.290000
21.296100 2.482210 66.431600 -11.810400 7.020000
21.422500 2.931650 66.825700 -11.810400 7.020000
21.181700 0.164916 67.869800 -11.899200 6.810000
21.308700 0.829559 68.276700 -11.899200 8.250000
-27.888800 1.294940 67.257700 -11.188800 6.410000
-28.572700 1.529110 67.433400 -11.188800 6.470000
-28.740800 1.538100 67.830100 -11.188800 6.460000
-1.517790 3.535010 78.760800 -12.254400 10.010000
-1.526080 3.554330 79.191200 -12.254400 8.710000
18.684300 0.230882 97.768300 -12.165600 7.430000
18.765100 0.231882 98.191500 -12.165600 5.380000
18.845800 0.543387 98.613600 -12.165600 6.540000
-17.918000 7.318160 104.658000 -12.076800 7.460000
-17.990600 7.347790 105.081000 -12.076800 5.800000
-18.063100 7.377410 105.505000 -12.076800 5.360000
-8.662950 1.275330 149.697000 -12.254400 6.390000
-8.687840 1.279000 150.127000 -12.254400 7.700000
-7.842050 1.749070 150.601000 -12.254400 5.090000
-7.864460 1.754070 151.031000 -12.254400 8.690000
-7.886860 1.759060 151.461000 -12.254400 9.580000
-6.833800 1.789050 154.100000 -12.254400 5.880000
-6.852890 1.794050 154.531000 -12.254400 6.150000
-6.872190 1.319310 154.966000 -12.254400 6.150000
-6.891280 1.322980 155.397000 -12.254400 6.060000
5.452760 -0.884486 6.042660 -8.968800 1.780000
4.894860 -1.276080 7.502970 -10.034400 4.770000
5.236470 -1.276080 7.268670 -9.679200 0.970000
5.986510 -1.336850 7.227810 -9.501600 3.110000
4.645310 -1.632360 8.601080 -10.478400 4.160000
6.100500 -0.948728 7.752790 -9.590400 6.670000
4.777960 -1.703330 9.012130 -10.478400 4.850000
6.097370 -0.989977 8.294010 -9.679200 7.160000
5.388060 -1.774300 9.157920 -10.300800 5.710000
7.832550 -0.466313 9.165300 -9.235200 17.670000
7.274160 3.040550 10.783100 -10.123200 6.840000
7.162140 3.138630 11.357100 -10.300800 7.690000
7.476010 3.236710 11.654700 -10.300800 6.210000
6.959920 0.314817 13.375800 -10.656000 8.370000
7.264600 0.323812 13.702400 -10.656000 6.460000
6.702080 -0.582247 14.928400 -10.922400 10.350000
6.989610 -0.948013 15.253100 -10.922400 10.190000
7.250280 -1.291460 15.583500 -10.922400 9.540000
7.359770 0.000000 16.060900 -10.922400 10.650000
18.087700 1.570290 13.853900 -7.636800 8.460000
18.429000 1.599920 14.115300 -7.636800 8.640000
18.770200 1.629550 14.376700 -7.636800 3.730000
18.945000 1.584720 14.861100 -7.725600 9.950000
18.736600 7.300830 17.588900 -8.702400 14.470000
18.151000 1.699020 20.114600 -9.057600 11.280000
18.439100 1.725990 20.433900 -9.057600 8.060000
-7.448690 1.836950 25.590600 -11.366400 7.010000
18.730800 1.666500 20.757100 -9.057600 4.820000
19.018900 1.692140 21.076400 -9.057600 13.420000
18.279900 1.604330 21.727200 -9.412800 5.470000
18.556900 1.628640 22.056400 -9.412800 14.590000
-5.859070 2.130910 27.747600 -11.632800 5.690000
18.660800 1.652950 22.530100 -9.412800 11.230000
18.931800 1.769050 22.857300 -9.412800 5.350000
18.393800 1.701560 23.844900 -9.679200 5.600000
18.659800 1.631390 24.189600 -9.679200 4.940000
-7.018380 1.352190 29.303900 -11.544000 13.010000
18.919400 1.750180 24.526200 -9.679200 9.280000
8.322640 0.449422 29.436700 -11.544000 7.190000
19.182100 1.774490 24.866800 -9.679200 10.640000
9.070620 0.455751 29.665700 -11.455200 7.070000
8.964510 0.462081 30.147700 -11.455200 15.290000
9.087680 0.369803 30.561900 -11.455200 5.760000
9.210490 0.374801 30.974900 -11.455200 15.360000
19.022900 1.315670 28.199200 -10.034400 15.390000
6.129790 7.953740 32.075100 -11.632800 18.630000
19.043000 1.332320 28.703800 -10.123200 17.430000
19.004600 0.898456 32.301600 -10.389600 6.370000
19.223000 0.908783 32.672800 -10.389600 7.940000
19.441500 0.919110 33.044100 -10.389600 6.200000
19.078200 1.757850 34.212700 -10.567200 7.340000
9.535530 1.259140 37.569300 -11.632800 6.970000
19.553900 1.777170 34.438900 -10.567200 12.210000
9.638160 1.636690 37.973700 -11.632800 6.620000
19.766400 1.796480 34.813300 -10.567200 11.550000
9.742770 1.777170 38.385800 -11.632800 7.830000
19.978900 1.815800 35.187600 -10.567200 10.720000
9.624200 1.796480 38.859300 -11.632800 7.730000
19.653300 0.863497 36.389300 -10.656000 11.000000
19.574000 0.872492 36.920300 -10.656000 8.020000
19.777000 0.750911 37.303200 -10.656000 11.660000
19.572100 2.064820 38.333000 -10.744800 9.620000
19.767800 2.085470 38.716300 -10.744800 10.080000
19.966400 1.970340 39.105300 -10.744800 5.520000
20.162200 1.989650 39.488600 -10.744800 4.350000
19.632800 1.715370 39.767300 -10.833600 6.880000
19.820900 1.870500 40.148400 -10.833600 13.610000
19.698500 1.888490 40.687400 -10.833600 7.700000
20.202100 1.906470 40.920400 -10.833600 7.010000
-5.668890 1.354450 45.736400 -11.810400 16.990000
20.122800 1.960430 42.393800 -10.922400 7.440000
-8.934920 2.375990 52.188100 -11.632800 14.980000
20.453100 1.899960 49.325400 -11.188800 15.120000
-8.600560 2.560380 52.672700 -11.721600 10.680000
20.234200 1.915290 49.880700 -11.188800 5.900000
20.396000 1.930610 50.279700 -11.188800 7.780000
20.419300 2.302160 51.184500 -11.188800 9.050000
20.578800 2.320140 51.584300 -11.188800 5.580000
-19.631900 -2.338130 52.412100 -11.011200 7.940000
-20.189400 -2.356110 52.661200 -10.922400 6.990000
-18.501000 -1.495070 53.765000 -11.188800 5.860000
-18.641200 -1.506390 54.172300 -11.188800 9.570000
21.167200 0.714620 57.864500 -11.366400 7.530000
21.259600 2.042600 59.175200 -11.366400 8.430000
20.947400 1.860780 59.749400 -11.366400 5.840000
20.739800 2.070580 60.271000 -11.366400 5.570000
20.550600 1.898760 61.251500 -11.455200 8.280000
20.685600 2.112550 61.654000 -11.455200 7.120000
12.289100 1.924080 64.304800 -11.721600 7.290000
20.820400 2.328990 62.055800 -11.455200 12.400000
12.368800 2.140530 64.721700 -11.721600 11.870000
20.619000 1.180000 63.062900 -11.455200 7.130000
20.750200 1.600700 63.464200 -11.455200 5.430000
-18.782200 1.403180 64.527800 -11.366400 11.270000
-18.903800 1.202990 64.945400 -11.366400 9.300000
-18.140900 1.210650 65.609700 -11.455200 13.460000
21.285700 1.642010 65.102000 -11.455200 9.810000
21.419500 1.652330 65.511400 -11.455200 10.890000
21.553400 1.662660 65.920900 -11.455200 7.970000
21.307800 1.050760 68.273900 -11.544000 7.670000
21.433800 1.502130 68.677600 -11.544000 9.130000
21.562200 1.511120 69.088900 -11.544000 7.420000
21.690500 1.520120 69.500100 -11.544000 11.070000
-28.050200 1.755600 67.646900 -10.833600 9.770000
21.817400 1.755600 69.906500 -11.544000 8.780000
-28.215200 1.765930 68.044900 -10.833600 8.950000
21.540400 1.538100 70.448300 -11.544000 7.440000
-28.380200 1.776260 68.442800 -10.833600 8.580000
21.667600 1.317930 70.864500 -11.544000 11.600000
-28.545200 1.786590 68.840700 -10.833600 15.100000
21.795600 0.864540 71.283000 -11.544000 9.190000
21.920700 1.101400 71.692100 -11.544000 12.460000
22.046700 1.107730 72.104200 -11.544000 13.020000
22.173500 0.879532 72.519100 -11.544000 9.370000
18.274500 1.164380 98.715700 -11.810400 9.080000
18.352900 1.169380 99.139400 -11.810400 11.910000
18.431900 0.861218 99.566100 -11.810400 14.590000
18.510400 0.864882 99.989800 -11.721600 12.860000
20.060200 2.833350 134.213000 -11.810400 5.090000
-60.667300 -11.395600 132.392000 -10.656000 6.840000
-61.581800 -12.332400 132.362000 -10.567200 5.420000
-61.782600 -11.802600 132.793000 -10.567200 6.940000
-6.681520 0.349822 150.667000 -11.810400 7.020000
-8.737920 0.350821 150.993000 -11.810400 4.890000
-8.762820 0.351820 151.423000 -11.810400 6.620000
-6.738080 2.234450 151.942000 -11.810400 5.390000
-6.757170 2.240780 152.372000 -11.810400 5.770000
-6.891430 0.841900 155.400000 -11.810400 5.090000
-6.910370 1.326640 155.827000 -11.810400 4.790000
-6.929610 0.846565 156.261000 -11.810400 4.890000
-49.083700 -22.324400 160.529000 -11.188800 5.370000
5.128220 -1.220640 7.354860 -9.856800 6.280000
5.372430 -1.278770 7.705090 -9.856800 6.780000
5.678540 -1.336900 8.011790 -9.945600 7.300000
6.214490 -1.149040 8.185870 -9.679200 7.050000
5.719870 1.031230 9.070080 -10.212000 6.440000
6.828970 -1.196910 8.244960 -9.412800 4.490000
5.802560 1.072470 9.523460 -10.212000 4.180000
6.025740 1.113720 9.889740 -10.300800 4.680000
6.841770 1.390950 9.306580 -9.856800 10.160000
7.300710 3.193880 11.777000 -10.478400 6.720000
7.256190 3.387440 12.779900 -10.656000 7.300000
7.193570 -2.187570 13.568400 -10.744800 8.410000
7.393390 -2.248330 13.945300 -10.744800 10.440000
5.937300 -0.599545 14.318600 -11.100000 11.400000
6.102230 -0.616199 14.716400 -11.100000 7.170000
7.703370 -2.309100 14.263300 -10.744800 8.130000
8.174830 1.125870 14.142800 -10.478400 8.470000
6.383450 -0.632853 15.065400 -11.100000 9.280000
6.911890 1.490710 15.718900 -11.011200 4.030000
7.229460 -0.737410 16.103100 -11.100000 7.090000
7.389660 1.411840 16.459900 -11.100000 7.070000
-8.057860 1.102910 19.017100 -10.922400 7.070000
17.770900 1.414930 12.098800 -6.926400 9.790000
-8.337810 1.125890 19.365400 -10.922400 4.870000
18.126300 1.443220 12.340800 -6.926400 8.870000
18.481700 1.471520 12.582800 -6.926400 8.920000
7.689110 1.680770 20.055900 -11.277600 8.040000
18.091400 1.499820 13.856800 -7.636800 10.020000
7.842890 1.714380 20.457000 -11.277600 11.550000
18.125700 1.599920 14.502700 -7.725600 9.490000
18.465200 1.556420 14.774400 -7.725600 9.840000
17.898400 -4.488730 15.549200 -8.258400 7.770000
18.218000 -4.568890 15.826800 -8.258400 5.950000
18.537600 -4.649050 16.104500 -8.258400 11.190000
-7.628070 0.873371 23.330400 -11.277600 6.950000
-7.930850 1.718430 23.638100 -11.277600 11.900000
18.416700 1.726210 18.674600 -8.791200 8.680000
18.718600 1.754510 18.980800 -8.791200 5.890000
7.942030 1.754510 25.447600 -11.455200 5.550000
18.399600 1.205040 22.214800 -9.501600 6.300000
18.676600 1.132470 22.549100 -9.501600 6.590000
-7.308050 1.241010 28.793200 -11.544000 5.170000
18.891900 1.631390 24.008700 -9.679200 7.220000
-7.244990 1.258990 29.252900 -11.544000 7.780000
19.158000 1.654370 24.346900 -9.679200 4.510000
8.944190 0.544028 29.252200 -11.544000 8.010000
9.070990 0.359809 29.666900 -11.544000 8.340000
8.964510 0.462081 30.147700 -11.632800 8.650000
9.087310 0.468411 30.560700 -11.632800 11.390000
18.774500 1.610560 27.831100 -10.123200 8.920000
19.015200 1.631210 28.187900 -10.123200 5.250000
19.255900 1.651860 28.544700 -10.123200 7.090000
9.625940 -8.809150 32.372100 -11.632800 8.990000
19.036400 2.348780 30.186300 -10.389600 5.890000
7.321260 -8.917910 33.396800 -11.721600 8.060000
7.410540 -9.026660 33.804100 -11.721600 6.210000
19.528900 1.075960 30.967200 -10.389600 10.000000
19.028900 1.088620 31.779900 -10.478400 8.590000
19.250200 1.101280 32.149500 -10.478400 6.720000
19.475600 0.791539 32.526000 -10.478400 10.380000
19.697000 0.800534 32.895600 -10.478400 9.580000
19.341300 1.757850 34.064600 -10.567200 5.970000
19.553900 1.777170 34.438900 -10.567200 10.320000
19.766400 1.796480 34.813300 -10.567200 11.250000
9.230250 1.042020 38.539200 -11.721600 8.400000
19.707100 1.815800 35.340500 -10.656000 7.270000
9.330570 1.053340 38.958100 -11.721600 10.840000
19.155400 1.835120 36.130600 -10.744800 8.930000
19.357000 1.854430 36.510900 -10.744800 8.730000
6.904920 1.202550 40.331000 -11.810400 16.540000
19.558600 1.873750 36.891200 -10.744800 10.490000
19.760300 1.893070 37.271600 -10.744800 12.440000
19.574900 1.931700 38.338500 -10.833600 7.670000
19.770700 1.951020 38.721900 -10.833600 14.420000
19.966400 1.970340 39.105300 -10.833600 6.160000
19.823400 1.732020 40.153400 -10.922400 15.670000
20.011500 1.888490 40.534400 -10.922400 12.590000
20.202100 1.906470 40.920400 -10.922400 6.250000
20.390000 2.066920 41.300900 -10.922400 11.590000
19.797900 1.815290 42.552900 -11.011200 7.340000
-5.364210 1.798640 46.192000 -11.810400 14.380000
19.979500 1.831940 42.943300 -11.011200 12.640000
-22.499000 -1.493690 45.573000 -10.656000 7.060000
-23.307500 -1.506350 45.649000 -10.567200 6.130000
-13.155200 2.593550 49.046400 -11.810400 7.920000
-8.863470 2.194240 51.770700 -11.721600 5.570000
-8.936120 2.212230 52.195100 -11.721600 7.120000
20.455200 1.734810 49.330600 -11.188800 8.660000
-9.008770 2.230220 52.619400 -11.721600 7.150000
20.620200 1.748800 49.728500 -11.188800 8.050000
-9.081420 2.248200 53.043800 -11.721600 7.980000
-18.780000 -2.148370 52.273400 -11.188800 10.720000
-19.242100 -0.822885 52.602000 -11.188800 8.920000
-18.663600 -2.007220 53.235400 -11.188800 5.780000
-18.497700 -1.846730 53.755200 -11.277600 8.920000
-17.792200 -2.569160 54.417300 -11.277600 9.530000
-17.926000 -2.588480 54.826400 -11.277600 9.280000
20.102100 1.057410 55.953400 -11.366400 7.840000
-16.532500 -1.295250 59.792600 -11.455200 7.490000
-16.647300 -1.304240 60.207800 -11.455200 7.330000
20.810600 1.118700 59.359200 -11.455200 8.930000
20.950400 1.518080 59.758000 -11.455200 6.830000
21.089900 1.873440 60.155900 -11.455200 8.910000
12.660600 1.924080 64.232700 -11.721600 8.040000
-18.282000 1.766900 64.662400 -11.455200 6.460000
-18.399200 1.778220 65.076900 -11.455200 8.320000
21.154500 1.210650 64.700900 -11.544000 6.140000
21.288400 1.218320 65.110400 -11.544000 7.070000
21.422300 1.225980 65.519900 -11.544000 7.970000
21.438800 1.031770 66.876800 -11.544000 11.050000
21.570400 1.038100 67.287100 -11.544000 11.700000
21.701900 1.044430 67.697400 -11.544000 15.200000
20.911800 1.271950 68.392500 -11.544000 14.060000
21.433800 1.502130 68.677600 -11.544000 8.760000
21.162500 1.511120 69.212400 -11.544000 11.280000
21.288400 1.520120 69.624400 -11.544000 10.880000
21.407800 2.378370 70.014700 -11.544000 6.840000
-27.853700 1.547100 68.664200 -11.011200 6.970000
21.538900 1.765930 70.443400 -11.544000 8.900000
-28.545200 1.786590 68.840700 -11.011200 6.070000
21.667600 1.317930 70.864500 -11.544000 9.960000
-28.710200 1.796910 69.238600 -11.011200 15.070000
21.242300 1.556090 71.438100 -11.544000 15.320000
21.365100 1.565090 71.851000 -11.544000 10.730000
21.489200 1.340910 72.268300 -11.544000 8.860000
21.612000 1.348580 72.681300 -11.544000 11.170000
18.845400 0.853888 98.611500 -11.810400 6.370000
18.926700 0.545719 99.036800 -11.810400 7.460000
19.007600 0.548051 99.460100 -11.810400 6.930000
17.739500 0.550384 100.132000 -11.810400 8.000000
20.061400 2.413640 134.221000 -11.899200 6.560000
20.125100 2.421310 134.647000 -11.899200 8.490000
-61.190700 -13.045200 131.521000 -10.656000 7.700000
-61.371700 -13.083800 131.910000 -10.656000 7.940000
-61.517300 -14.024700 132.223000 -10.656000 7.010000
-60.930700 -14.065900 132.966000 -10.656000 6.810000
-7.819640 1.744070 150.171000 -11.899200 6.810000
-7.842050 1.749070 150.601000 -11.899200 7.120000
-7.864460 1.754070 151.031000 -11.899200 5.690000
-7.887280 0.820911 151.469000 -11.899200 10.980000
-7.909680 0.823243 151.900000 -11.899200 11.630000
-7.931920 1.297320 152.327000 -11.899200 8.120000
-5.976110 1.799040 154.998000 -11.899200 6.730000
-5.992900 1.322980 155.434000 -11.899200 7.110000
-6.009500 1.326640 155.864000 -11.899200 4.330000
-6.026100 1.330310 156.295000 -11.899200 7.770000
4.637910 -1.722990 8.587380 -10.567200 5.310000
4.703410 -1.766390 9.039170 -10.567200 7.000000
4.899380 -1.839990 9.415800 -10.567200 6.800000
5.705050 -1.287920 9.046570 -10.212000 4.750000
6.742560 1.287920 8.302160 -9.590400 7.080000
5.245690 -1.913590 9.712730 -10.567200 7.900000
6.155260 -1.244790 9.277900 -10.212000 5.260000
5.884430 -0.835853 10.001600 -10.567200 11.370000
6.466070 -1.292670 9.585190 -10.123200 9.380000
6.103700 -0.829589 10.374300 -10.567200 11.950000
6.945430 1.277260 10.827600 -10.212000 7.200000
6.278760 -0.536280 13.701900 -10.922400 7.650000
6.240150 -0.551603 14.191200 -11.011200 8.090000
-7.943300 1.246020 13.266000 -10.212000 6.250000
6.412750 -0.616199 14.583700 -11.100000 9.770000
-8.171020 1.096240 13.646300 -10.212000 7.460000
6.470430 -0.632853 15.028200 -11.100000 10.520000
-8.395280 1.024810 14.020800 -10.212000 6.270000
6.757640 -0.753364 15.368100 -11.100000 8.300000
8.293900 -0.493677 14.607500 -10.656000 7.110000
-8.835230 1.103640 14.252400 -10.034400 4.050000
7.054010 -0.666161 15.712300 -11.100000 10.410000
7.330190 -1.582400 15.996400 -11.100000 4.780000
7.547650 2.718280 16.222600 -11.100000 7.610000
7.373620 2.783010 16.768900 -11.188800 9.310000
-7.788290 1.559690 16.739900 -10.833600 5.430000
-8.174980 0.671540 18.987200 -11.011200 3.880000
7.080320 -1.741050 19.355400 -11.366400 10.310000
-7.251490 0.506027 19.823300 -11.100000 4.590000
7.227830 -1.777320 19.758700 -11.366400 9.670000
7.534300 -1.680770 20.114600 -11.366400 5.840000
7.684990 -1.714380 20.516900 -11.366400 5.610000
17.918300 1.711190 14.055800 -7.725600 7.470000
7.986620 2.075960 20.831900 -11.277600 10.160000
-7.717520 0.741492 21.481400 -11.188800 9.420000
18.117600 1.743480 14.496200 -7.814400 6.060000
-7.989520 0.755482 21.840900 -11.188800 5.730000
18.453100 1.775760 14.764700 -7.814400 6.330000
-8.308680 0.769473 22.182000 -11.188800 10.500000
18.788600 1.808050 15.033100 -7.814400 8.110000
18.333900 1.840340 16.240100 -8.347200 4.430000
-7.342480 1.938250 22.904300 -11.277600 10.280000
18.655500 1.872620 16.525000 -8.347200 6.850000
-7.628870 0.797454 23.332800 -11.277600 7.510000
-7.625340 0.811444 23.786700 -11.366400 10.620000
17.989600 1.591150 17.893400 -8.702400 6.950000
-7.758220 0.668249 24.201200 -11.366400 8.990000
18.294500 1.618120 18.196700 -8.702400 8.110000
-7.889720 0.679576 24.611400 -11.366400 10.700000
18.595800 1.726210 18.496300 -8.702400 10.420000
18.718600 1.754510 18.980800 -8.791200 12.190000
-6.751130 2.084150 25.764600 -11.544000 14.390000
18.115000 1.516510 21.871100 -9.501600 11.340000
18.389500 1.539480 22.202500 -9.501600 6.140000
18.663900 1.562460 22.533900 -9.501600 7.630000
-6.714780 1.539480 28.036300 -11.632800 8.640000
18.938400 1.585440 22.865300 -9.501600 6.810000
-7.034110 1.562460 28.401400 -11.632800 5.070000
-7.138420 1.516570 28.822600 -11.632800 12.270000
18.664900 1.466020 24.196300 -9.768000 13.680000
18.927800 1.486670 24.537100 -9.768000 10.590000
8.944640 0.449422 29.253700 -11.632800 10.600000
19.190600 1.507320 24.877900 -9.768000 10.720000
9.070990 0.359809 29.666900 -11.632800 8.930000
8.964880 0.364806 30.148900 -11.632800 8.780000
18.666300 1.548620 26.336100 -10.034400 9.430000
9.322120 0.567015 30.488200 -11.632800 13.580000
18.912300 1.670420 26.683200 -10.034400 5.480000
19.155600 1.871720 27.026400 -10.034400 10.650000
18.544400 2.103550 27.952200 -10.212000 11.650000
18.785700 2.025440 28.315900 -10.212000 6.780000
10.386200 -1.105240 32.399100 -11.544000 8.060000
19.023500 2.051080 28.674300 -10.212000 8.610000
8.814100 -1.105240 32.861600 -11.721600 9.650000
10.386200 -1.105240 32.399100 -11.544000 13.290000
19.261300 2.076710 29.032800 -10.212000 9.620000
19.055700 1.713800 30.216800 -10.300800 9.840000
19.282300 1.846260 30.576200 -10.300800 9.660000
19.267200 2.066180 31.080600 -10.389600 9.670000
9.712290 1.600720 37.065300 -11.721600 10.850000
19.078200 1.757850 34.212700 -10.656000 7.000000
9.820100 1.738530 37.476800 -11.721600 7.650000
19.290400 1.654680 34.593300 -10.656000 6.000000
9.929220 1.757850 37.893200 -11.721600 7.810000
19.769100 1.672660 34.817900 -10.656000 10.570000
9.524270 1.409650 38.455900 -11.721600 8.260000
19.433300 1.835120 35.981900 -10.744800 12.530000
19.637800 1.854430 36.360600 -10.744800 12.270000
19.842400 1.873750 36.739400 -10.744800 9.200000
19.760300 1.893070 37.271600 -10.744800 9.580000
19.874900 1.665400 38.196300 -10.833600 15.680000
20.073700 1.682060 38.578300 -10.833600 16.610000
20.272400 1.698710 38.960300 -10.833600 8.630000
19.613800 1.942450 42.157300 -11.100000 6.490000
19.795500 1.960430 42.547600 -11.100000 12.530000
19.977100 1.978420 42.938000 -11.100000 7.710000
20.156000 2.144190 43.322500 -11.100000 10.100000
10.600500 2.221460 48.355400 -11.810400 8.450000
10.692700 2.240770 48.775900 -11.810400 13.220000
-22.140100 -1.965180 45.730600 -10.744800 8.960000
20.502500 1.381800 48.387200 -11.277600 5.250000
-8.792920 1.854000 51.358700 -11.721600 6.330000
-8.867370 1.544320 51.793500 -11.721600 6.010000
-8.939200 1.720820 52.213100 -11.810400 6.990000
20.238200 1.582300 49.890700 -11.277600 7.150000
-8.605910 1.734810 52.705500 -11.810400 6.860000
20.400100 1.594960 50.289800 -11.277600 7.640000
10.492900 -1.930610 53.234800 -11.810400 7.330000
12.018200 -2.115060 53.346400 -11.810400 9.230000
-19.086100 -1.804760 52.175500 -11.188800 8.310000
11.070200 -2.642970 53.968100 -11.810400 7.470000
-19.234000 -1.818750 52.579900 -11.188800 11.210000
11.155000 -2.835320 54.381400 -11.810400 11.390000
11.558100 -2.857300 54.737100 -11.810400 9.390000
11.327900 -2.879280 55.224600 -11.810400 9.010000
-20.642900 -2.945220 53.844000 -11.100000 6.710000
20.813100 1.888710 54.287900 -11.366400 5.850000
20.943200 2.252380 59.737400 -11.455200 11.460000
21.089900 1.873440 60.155900 -11.455200 7.310000
21.162200 1.911420 61.498600 -11.455200 8.420000
12.292500 1.164680 64.322400 -11.810400 7.250000
-18.278700 2.182500 64.650700 -11.455200 8.280000
-18.399200 1.778220 65.076900 -11.455200 9.760000
-19.021700 1.631680 65.350600 -11.455200 7.150000
-19.142100 1.642010 65.764200 -11.455200 6.200000
21.788300 1.430170 64.940500 -11.544000 5.980000
21.923800 1.652330 65.344400 -11.544000 9.690000
21.309300 0.377806 66.472700 -11.544000 7.150000
20.922800 1.031770 67.040000 -11.544000 9.600000
21.177100 1.484140 67.855200 -11.544000 7.080000
21.177100 1.484140 67.855200 -11.544000 8.300000
21.308700 0.829559 68.276700 -11.544000 10.050000
21.433800 1.502130 68.677600 -11.544000 10.860000
21.690500 1.520120 69.500100 -11.544000 12.510000
21.289700 1.294940 69.628500 -11.544000 15.890000
-27.691800 1.538100 68.265000 -11.011200 13.850000
21.414400 1.529110 70.036300 -11.632800 8.010000
-28.382100 1.547100 68.447500 -11.011200 7.610000
21.540400 1.538100 70.448300 -11.632800 6.670000
-28.547100 1.556090 68.845500 -11.011200 5.550000
21.667600 1.317930 70.864500 -11.632800 11.020000
-28.713900 1.333250 69.247600 -11.011200 11.250000
21.796300 -0.634003 71.285200 -11.632800 7.640000
21.920700 1.101400 71.692100 -11.632800 11.260000
21.490300 1.107730 72.271900 -11.632800 14.820000
21.614000 0.879532 72.687900 -11.632800 14.080000
-1.939550 4.375450 77.414200 -11.988000 7.400000
-1.950330 4.399750 77.844300 -11.988000 11.870000
18.275400 0.543387 98.720900 -11.899200 11.910000
18.353500 0.857553 99.142400 -11.899200 9.350000
18.431900 0.861218 99.566100 -11.899200 9.310000
-56.205700 -11.063100 92.247600 -9.945600 7.030000
-56.428700 -11.107000 92.613700 -9.945600 7.910000
19.997700 2.405980 133.795000 -11.899200 11.440000
20.060200 2.833350 134.213000 -11.899200 9.210000
19.346400 2.421310 134.761000 -11.899200 5.970000
21.229200 2.428970 134.914000 -11.810400 9.460000
-62.147900 -14.390500 130.930000 -10.656000 8.450000
-61.317900 -14.433000 131.794000 -10.656000 5.710000
-61.498700 -14.475600 132.183000 -10.656000 7.670000
-6.700180 1.754070 151.087000 -11.899200 5.570000
-6.719270 1.759060 151.518000 -11.899200 5.270000
-6.738710 0.823243 151.956000 -11.988000 5.160000
-6.757660 1.297320 152.383000 -11.899200 7.720000
-6.872340 0.839568 154.969000 -11.988000 5.360000
-6.891280 1.322980 155.397000 -11.988000 5.250000
-6.910160 1.809040 155.822000 -11.988000 5.450000
-6.929250 1.814040 156.253000 -11.988000 7.910000
7.222140 -0.405722 10.189600 -10.034400 8.110000
7.471180 -0.419712 10.541000 -10.034400 4.100000
7.719410 -0.474991 10.891200 -10.034400 10.340000
6.121220 -1.018750 14.217100 -11.100000 6.150000
6.206690 -1.047050 14.648200 -11.188800 8.420000
-8.034680 -1.771430 13.656300 -10.212000 8.840000
6.459950 -1.125870 15.003900 -11.188800 5.730000
7.072180 -1.155500 15.200700 -11.100000 4.620000
8.142010 1.712150 14.600900 -10.656000 6.790000
7.239820 3.467720 15.252500 -11.100000 9.260000
8.350780 1.756050 14.975300 -10.656000 5.240000
7.420820 3.554420 15.633800 -11.100000 8.980000
8.590620 0.996629 15.405400 -10.656000 7.520000
7.611330 3.531390 16.035200 -11.011200 7.870000
-7.998830 1.020940 16.202100 -10.656000 4.710000
7.309940 1.274010 16.978100 -11.188800 8.620000
7.792550 3.615470 16.417000 -11.011200 5.440000
-7.703650 1.159650 16.811400 -10.833600 3.740000
-8.285030 1.045250 16.540200 -10.656000 3.640000
7.110060 1.303640 17.527500 -11.277600 4.030000
7.599370 -1.205010 18.733700 -11.366400 4.980000
7.239380 -1.358330 19.327200 -11.455200 5.070000
6.853920 -1.451780 19.917900 -11.544000 8.130000
6.996640 -1.348430 20.332600 -11.544000 10.000000
-7.718920 0.600292 21.485300 -11.277600 8.950000
-7.864560 0.611618 21.890700 -11.277600 9.220000
-8.011230 0.494712 22.298900 -11.277600 10.470000
17.993000 1.512670 17.896800 -8.880000 9.650000
18.298000 1.538310 18.200200 -8.880000 7.000000
18.599500 1.645090 18.500000 -8.880000 6.400000
18.907900 1.589580 18.806800 -8.880000 6.320000
-7.456650 1.362710 25.617900 -11.544000 11.700000
18.147400 1.782810 20.110600 -9.235200 7.100000
-6.314670 1.384690 26.365700 -11.632800 6.980000
18.435400 1.811110 20.429800 -9.235200 7.230000
18.723500 1.839400 20.749100 -9.235200 12.310000
19.011500 1.867700 21.068300 -9.235200 15.200000
-7.304020 1.585440 28.777300 -11.632800 6.400000
18.209500 1.701560 23.985900 -9.856800 10.150000
-7.632000 1.794690 29.126200 -11.632800 5.150000
18.469600 1.725870 24.328600 -9.856800 7.530000
7.923980 0.638628 29.543000 -11.721600 7.140000
18.729800 1.750180 24.671300 -9.856800 6.770000
8.840740 0.647623 29.731500 -11.721600 8.090000
18.989900 1.774490 25.013900 -9.856800 12.720000
9.196600 0.462081 30.077700 -11.632800 9.120000
18.198200 2.094090 26.099700 -10.034400 13.680000
9.323250 0.271192 30.491900 -11.632800 13.900000
18.647500 2.122390 26.309500 -10.034400 10.240000
9.449560 0.074962 30.905000 -11.632800 18.250000
18.896100 2.150690 26.660300 -10.034400 5.160000
8.056450 0.075961 31.741900 -11.721600 17.930000
9.756420 0.075961 31.261200 -11.544000 11.000000
19.144700 2.178990 27.011100 -10.123200 13.750000
7.966060 1.692400 32.164300 -11.810400 11.670000
18.540700 2.207290 27.946600 -10.300800 9.380000
9.799940 -2.518350 32.051000 -11.632800 7.920000
10.127100 -1.815210 32.449100 -11.721600 8.310000
8.918750 -1.758340 33.251800 -11.721600 6.220000
9.038880 0.917427 33.699700 -11.721600 7.510000
9.413140 0.928753 34.044200 -11.721600 5.590000
19.058400 1.603310 30.221200 -10.389600 7.240000
19.030600 0.974058 31.782700 -10.567200 9.810000
19.251900 0.985385 32.152200 -10.567200 8.460000
19.473200 0.996711 32.521800 -10.567200 10.810000
19.694400 1.008040 32.891400 -10.567200 4.890000
8.709010 1.600720 37.313800 -11.810400 4.500000
19.083100 1.515520 34.221500 -10.656000 7.520000
9.926270 2.000110 37.881900 -11.810400 4.980000
19.290400 1.654680 34.593300 -10.656000 10.620000
8.998700 2.022090 38.555000 -11.810400 11.360000
19.500100 1.672660 34.969300 -10.656000 7.710000
9.333170 0.464753 38.968900 -11.810400 4.800000
19.709800 1.690650 35.345300 -10.656000 7.310000
9.433530 0.469750 39.387900 -11.810400 10.760000
19.435900 1.708630 35.986700 -10.833600 8.020000
6.596270 0.474748 40.397800 -11.899200 14.860000
19.357000 1.854430 36.510900 -10.922400 7.540000
-24.733300 1.854430 33.106000 -9.501600 14.310000
19.558600 1.873750 36.891200 -10.922400 10.300000
-24.990900 1.873750 33.450800 -9.501600 8.760000
19.757400 2.023530 37.266200 -10.922400 9.840000
-25.251900 1.762590 33.800200 -9.501600 10.590000
-25.509600 1.780580 34.145100 -9.501600 7.010000
9.780010 2.297740 41.902500 -11.810400 5.530000
10.120600 2.455110 42.256500 -11.810400 15.590000
9.973920 2.479420 42.733300 -11.810400 10.420000
19.510900 1.870500 40.299900 -11.011200 10.980000
19.698500 1.888490 40.687400 -11.011200 9.010000
19.886100 1.906470 41.074900 -11.011200 9.040000
19.616300 1.798640 42.162500 -11.100000 10.060000
19.795500 1.960430 42.547600 -11.100000 6.420000
19.977100 1.978420 42.938000 -11.100000 8.070000
-22.123800 -0.888834 44.812800 -10.656000 8.450000
-21.406600 -3.182300 46.010500 -10.744800 9.640000
-21.959500 -2.615530 46.263200 -10.744800 7.720000
19.800100 1.239250 47.750800 -11.277600 6.550000
-21.132100 -3.395820 47.070400 -10.833600 12.250000
19.965100 1.249580 48.148700 -11.277600 8.940000
-21.720200 -0.120938 47.399200 -10.833600 9.010000
20.130100 1.259900 48.546600 -11.277600 7.920000
-21.899800 0.000000 47.791000 -10.833600 12.450000
-8.933640 2.539730 52.180600 -11.810400 11.820000
-9.007560 2.395310 52.612400 -11.810400 6.520000
10.270100 -1.142340 53.739800 -11.899200 9.380000
10.351000 -1.151330 54.163000 -11.899200 6.960000
20.431200 1.321870 51.214400 -11.366400 7.320000
10.741500 -2.148370 54.496000 -11.899200 6.940000
20.590800 1.332190 51.614500 -11.366400 9.570000
-18.793500 -2.901260 53.605800 -11.188800 6.210000
-20.797400 -2.923240 53.322800 -11.100000 10.890000
20.508500 1.506390 53.493300 -11.455200 7.030000
-21.373600 -2.588480 53.576600 -11.100000 5.460000
20.662700 1.517720 53.895500 -11.455200 9.050000
20.816900 1.529040 54.297700 -11.455200 10.590000
-15.994400 -12.084900 59.632000 -11.544000 8.130000
21.012800 2.697840 61.064400 -11.544000 9.250000
11.349700 0.754599 64.063900 -11.899200 8.250000
21.152900 2.715830 61.471500 -11.544000 5.810000
10.180200 0.759596 64.696300 -11.899200 8.200000
21.293000 2.733810 61.878600 -11.544000 7.470000
10.247200 0.764593 65.122000 -11.899200 10.740000
-12.701700 -5.701960 64.440800 -11.721600 8.310000
21.098600 1.949390 62.884900 -11.632800 9.420000
21.235600 1.962050 63.293300 -11.544000 6.400000
21.372600 1.974710 63.701600 -11.544000 7.470000
-18.400300 1.621350 65.080700 -11.455200 7.110000
-18.516400 1.789550 65.491400 -11.455200 7.860000
21.291700 0.158919 65.120500 -11.544000 7.860000
21.425600 0.159918 65.530100 -11.632800 8.010000
21.437800 1.248960 66.873400 -11.632800 7.930000
21.569300 1.256630 67.283700 -11.632800 9.530000
21.700800 1.264290 67.694000 -11.632800 7.080000
21.433800 1.502130 68.677600 -11.632800 9.780000
21.562200 1.511120 69.088900 -11.632800 13.490000
21.690500 1.520120 69.500100 -11.632800 13.890000
22.357100 1.529110 69.741100 -11.632800 13.860000
-28.217100 1.538100 68.049600 -11.011200 11.480000
20.994100 1.936790 70.603200 -11.632800 6.370000
-28.382100 1.547100 68.447500 -11.011200 7.350000
21.663600 1.948120 70.851200 -11.632800 6.080000
-28.547100 1.556090 68.845500 -11.011200 9.230000
-28.710200 1.796910 69.238600 -11.011200 12.000000
21.492500 0.174911 72.279500 -11.632800 6.180000
21.615300 0.175910 72.692600 -11.632800 11.380000
18.275700 0.232881 98.722100 -11.899200 11.180000
18.353500 0.857553 99.142400 -11.899200 12.620000
18.431900 0.861218 99.566100 -11.899200 8.910000
18.510800 0.550384 99.992000 -11.899200 9.370000
34.212200 1.199360 97.585600 -11.455200 11.440000
34.356600 0.562044 97.997400 -11.455200 5.550000
34.499200 0.564376 98.404000 -11.455200 10.000000
20.060200 2.833350 134.213000 -11.988000 6.190000
20.122500 3.263360 134.630000 -11.988000 6.190000
-8.712920 0.816247 150.561000 -11.988000 13.010000
-7.864870 0.818579 151.039000 -11.988000 14.110000
-7.887280 0.820911 151.469000 -11.988000 10.860000
-7.908950 2.234450 151.886000 -11.988000 5.040000
-8.811680 2.240780 152.267000 -11.988000 7.060000
-8.836570 2.247110 152.698000 -11.988000 9.420000
-6.891430 0.841900 155.400000 -11.988000 7.470000
-6.910520 0.844232 155.830000 -11.988000 7.310000
-6.929610 0.846565 156.261000 -11.988000 6.910000
-6.948550 1.333970 156.688000 -11.988000 6.630000
5.943110 -1.175900 9.424060 -10.656000 8.070000
6.096080 -1.221120 9.833800 -10.656000 9.990000
6.321860 -1.266350 10.198000 -10.656000 9.430000
6.466040 -1.311580 10.612400 -10.656000 5.860000
6.811640 -0.859217 10.441100 -10.389600 6.600000
7.046520 -0.888845 10.801100 -10.389600 4.690000
7.548590 -0.579510 10.478100 -10.123200 7.810000
7.102340 -1.072960 11.262300 -10.567200 4.270000
7.718520 -0.516275 10.890000 -10.212000 6.350000
6.220700 -1.341640 14.147000 -11.277600 6.350000
-0.629737 0.974261 16.333100 2.220000 10.900000
-1.420530 0.999899 16.715100 2.308800 8.390000
6.315240 -0.402756 15.568100 -11.455200 8.260000
-0.969638 -3.923290 16.755500 2.220000 5.630000
6.477170 -0.413083 15.967300 -11.455200 6.270000
7.385630 4.985440 15.255100 -11.277600 8.070000
-7.898260 1.051180 15.768100 -10.744800 6.930000
-2.220970 -3.808250 17.108000 2.220000 4.770000
6.988720 5.107030 15.893600 -11.366400 5.210000
-8.092350 1.020940 16.155600 -10.744800 7.020000
-2.173800 -3.901140 17.538100 2.220000 4.940000
7.191170 1.887760 16.971600 -11.366400 4.860000
7.224340 1.931660 17.422500 -11.455200 4.960000
-7.562390 0.509682 17.847700 -11.100000 4.880000
7.257550 1.796500 17.891100 -11.455200 5.720000
-7.835780 0.521008 18.199400 -11.100000 5.920000
7.310850 1.897460 18.325900 -11.455200 6.330000
6.665480 -2.063360 19.012400 -11.632800 4.820000
6.694950 -2.107260 19.455900 -11.632800 10.290000
7.521370 -2.086190 19.618400 -11.544000 13.360000
7.674870 -2.128770 20.018800 -11.544000 13.850000
-7.833210 1.288330 21.413600 -11.366400 4.670000
17.690800 -2.870590 14.154700 -7.992000 4.430000
-7.979570 1.384480 21.813700 -11.366400 6.100000
18.024600 -2.924750 14.421800 -7.992000 4.700000
-7.988550 1.848840 22.235800 -11.366400 8.020000
18.499000 -2.978910 14.511300 -7.992000 6.990000
-7.621700 1.120390 23.775300 -11.544000 7.320000
-7.892780 1.139700 24.140000 -11.544000 6.080000
18.121800 1.538310 18.375600 -8.968800 6.410000
18.423800 1.563950 18.681900 -8.968800 6.360000
-7.478430 1.563950 25.150000 -11.544000 6.590000
18.729200 1.507100 18.991500 -8.968800 7.980000
-7.832250 2.321400 26.339900 -11.632800 9.080000
8.166620 2.098630 26.709100 -11.810400 7.960000
-7.954630 2.357670 26.751500 -11.632800 6.250000
18.101600 1.867700 21.855000 -9.679200 5.610000
18.375900 1.896000 22.186200 -9.679200 4.600000
18.650200 1.924300 22.517300 -9.679200 3.980000
18.383400 1.980900 23.831400 -9.945600 6.470000
18.649700 1.914770 24.176600 -9.945600 8.190000
7.920700 1.087880 29.530800 -11.810400 7.810000
18.722900 1.941740 24.662200 -9.945600 7.950000
9.070620 0.455751 29.665700 -11.810400 14.170000
18.982900 1.968710 25.004700 -9.945600 9.650000
9.196980 0.364806 30.079000 -11.810400 15.380000
9.322960 0.369803 30.491000 -11.810400 12.240000
18.647500 2.122390 26.309500 -10.212000 8.690000
8.791880 0.374801 31.096400 -11.899200 15.600000
18.896100 2.150690 26.660300 -10.212000 11.740000
8.716030 -1.670420 31.523000 -11.810400 9.000000
19.144700 2.178990 27.011100 -10.212000 9.980000
8.833340 -1.487410 31.947200 -11.810400 9.790000
-12.614000 1.896030 31.095600 -14.030400 10.850000
-12.166500 1.920330 31.734600 -14.208000 5.730000
-13.018100 1.920330 31.394900 -14.030400 10.270000
-12.320500 1.944640 32.136300 -14.119200 9.240000
7.118850 1.012670 33.713700 -11.988000 7.820000
-12.478200 1.780320 32.547500 -14.119200 7.250000
7.207840 1.025330 34.135100 -11.988000 7.900000
18.822200 1.713800 30.362800 -10.656000 10.250000
19.049000 1.734450 30.728600 -10.656000 8.230000
-16.701700 0.951406 32.097800 -12.520800 10.780000
19.075500 1.878990 34.207700 -10.833600 7.360000
9.642400 1.151910 37.990400 -11.899200 5.400000
19.285100 1.899640 34.583600 -10.833600 6.500000
9.748360 1.164570 38.407900 -11.899200 5.300000
19.494700 1.920290 34.959600 -10.833600 5.290000
5.691020 1.424970 39.641900 -11.988000 6.560000
19.704300 1.940930 35.335500 -10.833600 5.110000
8.897330 1.315100 39.493400 -11.988000 8.140000
19.157900 1.708630 36.135400 -11.011200 10.400000
8.991980 1.329090 39.913600 -11.988000 12.380000
19.359600 1.726620 36.515800 -11.011200 10.710000
19.561300 1.744600 36.896200 -11.011200 7.820000
-24.990900 1.873750 33.450800 -9.590400 15.420000
-25.248600 1.893070 33.795700 -9.590400 6.290000
-25.506200 1.912380 34.140500 -9.590400 9.880000
10.026300 1.931700 41.862800 -11.988000 6.740000
16.120600 1.143950 40.409000 -10.212000 5.710000
10.126500 1.951020 42.281400 -11.988000 10.170000
16.280200 1.155280 40.809100 -10.212000 5.400000
-6.245040 0.645648 43.501100 -12.076800 10.090000
19.815400 2.147420 40.137200 -11.188800 11.670000
19.684300 2.552340 40.658100 -11.188800 9.290000
19.875100 2.435600 41.052300 -11.188800 8.720000
19.942900 1.654810 42.014900 -11.277600 10.840000
20.127600 1.670130 42.403900 -11.277600 7.960000
20.312300 1.685450 42.792900 -11.277600 9.260000
19.919600 2.333250 44.369400 -11.277600 9.670000
-21.590000 -0.881171 44.594200 -10.833600 7.360000
-21.780400 -0.425112 44.987500 -10.833600 9.080000
-21.618500 0.000000 45.544900 -10.833600 8.640000
-21.778300 -2.436490 45.881400 -10.833600 13.170000
-19.992600 -1.823350 47.183800 -11.100000 10.320000
-23.658700 -1.506350 45.468000 -10.656000 7.880000
-23.857500 -1.519010 45.850100 -10.656000 9.020000
-21.343100 -1.692840 47.540200 -11.011200 8.020000
-9.481280 2.337360 51.216300 -11.899200 7.440000
-21.519500 -1.706830 47.933100 -11.011200 7.440000
-9.162580 2.194240 51.718600 -11.899200 8.510000
-8.936120 2.212230 52.195100 -11.988000 6.580000
-9.008770 2.230220 52.619400 -11.988000 8.330000
20.067500 2.230220 49.469800 -11.455200 8.200000
-4.557080 2.248200 53.622300 -12.076800 6.070000
20.229300 2.248200 49.868700 -11.455200 7.010000
9.959870 -0.973120 53.801500 -12.076800 5.810000
11.393300 -0.980782 53.956700 -11.988000 7.460000
11.483300 -0.644657 54.383200 -11.988000 7.420000
11.255400 -0.649655 54.870700 -11.988000 11.390000
-18.673400 -0.829214 53.263300 -11.366400 11.520000
11.341900 -0.654652 55.292800 -11.988000 6.640000
-20.659000 -1.670910 52.968000 -11.188800 8.890000
-20.815500 -1.683570 53.369300 -11.188800 8.580000
20.511100 1.196300 53.500200 -11.544000 6.320000
20.976500 1.205300 53.782100 -11.544000 10.200000
20.274600 1.414810 55.424500 -11.632800 10.340000
20.422600 1.425140 55.829000 -11.632800 7.200000
20.573200 1.065070 56.240800 -11.632800 5.880000
20.537900 1.268260 57.166300 -11.632800 10.270000
-17.753900 -4.874220 59.706400 -11.544000 8.130000
20.943200 2.252380 59.737400 -11.632800 10.110000
21.087800 2.070580 60.150100 -11.632800 8.710000
21.017900 2.298340 61.079100 -11.721600 10.220000
21.160200 2.112550 61.492700 -11.721600 12.350000
21.302400 1.924080 61.905900 -11.721600 5.970000
21.233600 2.168510 63.287200 -11.721600 7.070000
-15.656500 0.363813 65.370700 -11.632800 6.470000
-18.906500 0.366145 64.954700 -11.632800 5.900000
20.910400 -1.430170 65.228500 -11.721600 8.230000
21.041900 -1.439160 65.638700 -11.721600 10.630000
21.173500 -1.448160 66.049000 -11.721600 9.480000
21.433700 1.846180 66.860900 -11.810400 9.930000
21.566500 1.693640 67.275000 -11.810400 10.250000
21.174400 1.868830 67.846500 -11.810400 10.170000
21.432400 1.724620 68.672900 -11.810400 12.400000
21.563500 1.287280 69.093000 -11.810400 13.070000
-27.853700 1.547100 68.664200 -11.188800 9.670000
-28.015700 1.556090 69.063500 -11.188800 8.990000
18.352900 1.169380 99.139400 -12.076800 9.300000
18.431900 0.861218 99.566100 -12.076800 5.190000
18.511000 0.235880 99.993200 -12.076800 5.630000
34.214500 0.239878 97.591900 -11.632800 6.690000
35.110900 0.562044 97.729700 -11.632800 7.090000
35.256600 0.564376 98.135200 -11.632800 8.350000
-17.253000 7.046330 105.663000 -11.988000 5.270000
-17.322300 7.074630 106.088000 -11.988000 5.980000
-17.391600 7.102930 106.512000 -11.988000 6.890000
20.055900 3.987400 134.184000 -12.165600 8.030000
-7.842460 0.816247 150.609000 -12.165600 7.130000
-7.864870 0.818579 151.039000 -12.165600 6.080000
-7.887280 0.820911 151.469000 -12.165600 5.230000
-7.909270 1.764060 151.892000 -12.165600 7.910000
-6.757660 1.297320 152.383000 -12.165600 9.980000
-6.871980 1.799040 154.961000 -12.165600 8.090000
-6.891070 1.804040 155.392000 -12.165600 7.630000
-6.910370 1.326640 155.827000 -12.165600 5.550000
-6.929460 1.330310 156.257000 -12.165600 5.120000
