VERSION .7
FIELDS x y z velocity intensity
SIZE 4 4 4 4 4
TYPE F F F F F
COUNT 1 1 1 1 1
WIDTH 878
HEIGHT 1
VIEWPOINT 0 0 0 1 0 0 0
POINTS 878
DATA ascii
8.533980 0.829589 8.488350 -10.656000 2.580000
8.923050 0.859217 8.705940 -10.656000 4.680000
-6.557540 1.119260 10.578200 -12.165600 3.810000
9.143550 0.888845 9.094660 -10.656000 3.560000
-6.783660 1.157860 10.943000 -12.254400 7.920000
-7.007800 1.237590 11.304500 -12.254400 8.640000
-7.233860 1.277510 11.669200 -12.254400 5.200000
-9.585980 -1.269520 11.573600 0.444000 2.800000
-9.859860 -1.305790 11.904300 0.444000 8.180000
-5.416290 1.484970 14.460100 -13.497600 3.430000
-10.133700 -1.342060 12.235000 0.444000 8.990000
-5.563330 1.624350 14.852600 -13.497600 5.700000
-5.717200 1.567460 15.263400 -13.497600 5.570000
-9.390420 1.487150 14.890500 -12.609600 3.650000
-5.506860 1.453690 17.178200 -13.764000 8.070000
-9.619460 1.523420 15.253700 -12.609600 4.810000
-6.115600 1.274010 17.443900 -13.675200 3.560000
8.895210 -0.544311 16.244700 -13.053600 9.520000
-9.851640 1.488300 15.621900 -12.520800 5.330000
-6.253550 1.479070 17.837400 -13.675200 9.780000
9.102080 -0.556969 16.622500 -13.053600 7.240000
9.439690 -0.569628 16.928100 -12.964800 5.300000
0.609905 1.179370 19.776900 0.799200 10.580000
9.012550 0.291175 17.651500 -13.231200 4.620000
0.779025 1.142480 20.205000 0.799200 12.010000
-5.224030 1.876350 19.476800 -13.941600 9.460000
9.622990 0.297504 17.817600 -13.142400 18.050000
0.795457 1.230650 20.631200 0.799200 8.120000
-5.223020 1.788850 19.932800 -14.030400 12.880000
9.827730 0.303834 18.196700 -13.142400 18.990000
0.812029 1.256280 21.061000 0.888000 10.120000
-5.174840 1.826120 20.388500 -13.941600 16.590000
10.032500 0.310164 18.575700 -13.142400 15.430000
-5.997060 1.929760 20.603400 -13.941600 9.000000
10.236700 0.383118 18.953900 -13.142400 16.090000
-5.093490 2.171340 21.266900 -14.119200 11.020000
-9.557420 1.375400 19.740900 -12.964800 6.350000
-5.194930 2.144950 21.690500 -14.119200 7.700000
0.878624 1.217800 22.788300 0.799200 7.360000
-5.169930 2.045550 22.150600 -14.119200 6.950000
-5.267470 2.084140 22.568500 -14.119200 7.300000
0.911779 1.263760 23.648200 0.888000 7.370000
-5.056890 1.994950 23.067600 -14.208000 8.740000
0.000000 2.309950 24.019600 0.888000 6.140000
0.141325 2.351190 24.448100 0.888000 6.070000
18.315400 1.904910 17.528600 -10.567200 7.830000
9.888340 1.983300 23.337100 -13.675200 10.550000
18.630100 1.857450 17.829700 -10.567200 8.810000
-5.329920 1.697910 25.241600 -14.208000 9.790000
9.865790 2.236060 23.792800 -13.675200 8.910000
-21.313800 0.671260 18.159000 -9.235200 7.400000
-21.641700 0.681588 18.438300 -9.235200 7.560000
10.330400 0.848113 26.945400 -13.852800 5.270000
-4.848180 2.167030 29.691800 -14.385600 5.220000
-4.743270 2.197980 30.143900 -14.385600 4.900000
-3.982910 2.324630 30.680100 -14.474400 5.860000
-4.457410 2.356920 31.049000 -14.385600 5.110000
10.774300 -1.133850 29.989700 -13.941600 13.560000
10.919900 -1.149170 30.395000 -13.941600 5.690000
19.140100 -0.474741 26.035600 -12.165600 7.730000
11.065500 -1.164490 30.800300 -13.941600 10.330000
19.396100 -0.379798 26.383800 -12.165600 6.340000
19.651300 -0.384795 26.730900 -12.165600 7.320000
-4.582160 0.883448 33.284700 -14.385600 8.380000
-18.146700 -0.181906 28.289800 -12.165600 9.840000
-17.752900 -6.965570 27.676000 -0.532800 7.110000
-4.380940 0.894774 33.746200 -14.474400 6.520000
10.818600 1.420860 32.244900 -14.030400 7.240000
-4.434060 1.438850 34.155300 -14.474400 9.070000
-8.022080 1.438850 33.494700 -14.119200 6.050000
-4.489490 1.456830 34.582300 -14.474400 10.210000
-8.124300 1.241110 33.921500 -14.119200 7.800000
-9.147850 1.256430 34.105900 -14.030400 8.890000
-17.176600 -0.304175 31.368500 -12.609600 6.070000
-7.745850 1.287070 35.333600 -14.208000 8.400000
-17.383600 -0.307839 31.746500 -12.609600 5.200000
-17.590000 -0.424774 32.123400 -12.609600 4.800000
-18.046900 -0.429771 32.363200 -12.520800 8.160000
-16.026300 -2.924530 33.763500 -12.964800 5.760000
-18.723700 -2.346270 32.392800 -12.432000 9.450000
11.912900 1.126600 36.435500 -14.119200 5.970000
11.833600 1.139260 36.913900 -14.119200 4.500000
24.900800 -7.365890 31.645100 -0.888000 9.780000
11.801500 -0.228549 40.545000 -14.208000 7.450000
-15.859800 -1.762590 39.097100 -13.408800 6.670000
-17.277900 -1.893070 38.485200 -13.231200 7.530000
11.915800 1.385050 40.937700 -14.208000 13.150000
-16.021600 -1.780580 39.496000 -13.408800 7.400000
-8.329370 1.265840 42.258300 -14.296800 14.740000
-15.950400 -1.931700 39.982500 -13.408800 12.220000
-8.412660 1.278500 42.680900 -14.296800 8.550000
11.705700 1.562870 42.335500 -14.296800 7.640000
-16.980500 -2.126770 40.950800 -13.320000 7.400000
-9.580890 2.528040 43.704400 -14.208000 8.020000
-9.673010 2.552340 44.124600 -14.208000 6.300000
12.514900 0.835197 45.262400 -14.296800 5.610000
12.629800 0.842860 45.677600 -14.296800 6.040000
12.745700 0.554705 46.097000 -14.296800 6.890000
12.861000 0.410453 46.513800 -14.296800 6.800000
12.975800 0.414117 46.929100 -14.296800 6.380000
12.188800 0.881171 48.023000 -14.296800 6.520000
-1.924330 1.931870 49.910000 -14.652000 13.600000
12.288900 -1.777390 48.417600 -14.296800 8.000000
-2.231870 1.948520 50.328200 -14.563200 12.930000
-2.641760 2.122300 50.733200 -14.563200 7.630000
-2.664790 1.823350 51.175300 -14.563200 7.900000
14.176900 0.126935 52.855900 -14.296800 8.800000
14.510900 0.649655 54.101000 -14.296800 5.630000
14.945300 0.892513 58.883300 -14.296800 7.560000
15.263200 0.911503 60.136100 -14.296800 9.800000
15.687900 0.739607 61.809100 -14.296800 7.860000
16.273000 0.744604 62.103200 -14.296800 16.700000
15.744000 0.962142 63.569100 -14.385600 6.530000
15.847600 0.968472 63.987300 -14.385600 10.620000
15.951200 0.974802 64.405500 -14.385600 21.980000
16.054700 0.981132 64.823800 -14.385600 20.180000
16.156500 1.403180 65.234800 -14.385600 19.250000
17.518300 1.987370 65.313500 -14.296800 13.540000
16.158500 -0.160918 67.466700 -14.296800 19.080000
16.258300 -0.593690 67.883500 -14.385600 23.180000
25.781600 0.457098 80.423800 -14.119200 10.740000
25.912600 0.721957 80.832400 -14.119200 8.250000
15.634800 0.485084 88.251600 -14.474400 9.030000
15.709700 0.765934 88.674000 -14.474400 8.320000
15.784400 1.049440 89.095500 -14.474400 7.410000
-13.502900 1.059440 90.341100 -14.385600 6.910000
-13.566000 1.348260 90.763600 -14.385600 7.480000
-14.332100 1.354590 91.081900 -14.385600 5.680000
-18.527300 1.354590 90.322000 -14.385600 4.600000
-19.831400 2.435150 90.463300 -14.385600 8.450000
-13.202800 0.237879 101.701000 -14.474400 8.170000
-13.258300 -0.238878 102.128000 -14.474400 10.540000
-13.313800 -0.239878 102.555000 -14.474400 14.000000
-12.773700 -0.240877 103.058000 -14.474400 12.880000
-12.826700 0.241877 103.486000 -14.474400 9.050000
-12.932300 0.894200 104.337000 -14.474400 9.290000
-12.177500 0.897865 104.862000 -14.474400 10.330000
-12.227200 0.901530 105.290000 -14.474400 6.980000
-12.277300 0.246874 105.722000 -14.474400 5.260000
-12.327000 0.247874 106.150000 -14.474400 6.090000
-11.949200 0.590030 108.359000 -14.474400 6.930000
-11.996400 0.592362 108.788000 -14.474400 5.700000
-12.043700 0.594694 109.216000 -14.474400 5.080000
-12.090900 0.597026 109.644000 -14.474400 5.820000
-12.138300 0.256869 110.074000 -14.474400 4.950000
14.835700 3.220130 153.513000 -14.652000 7.300000
14.877200 3.229120 153.942000 -14.652000 11.820000
14.917600 3.717750 154.360000 -14.652000 11.730000
-6.602420 1.331610 7.847520 -11.011200 4.010000
-6.868550 0.316460 8.292740 -11.011200 7.470000
8.466800 1.339440 7.213560 -9.679200 3.070000
-6.158100 0.349760 8.831890 -11.632800 7.610000
-7.059870 0.329118 8.692870 -11.011200 7.120000
-6.510360 1.210350 9.036950 -11.632800 7.620000
-6.651950 0.305809 9.540180 -11.632800 5.660000
-6.970700 0.503597 9.834880 -11.632800 7.750000
-6.819950 0.598799 10.453800 -11.899200 6.990000
-7.219650 0.521583 10.186100 -11.632800 6.920000
7.055130 0.619447 10.814300 -12.076800 5.200000
9.116460 -0.351114 9.757070 -10.833600 8.990000
-6.255620 0.278838 11.799300 -12.609600 4.450000
9.232790 -0.447693 10.231600 -11.011200 9.240000
-6.551100 0.287832 12.129800 -12.609600 8.250000
9.233260 -0.461684 10.804300 -11.100000 5.110000
-6.658750 0.340794 12.559600 -12.609600 9.840000
-6.861010 0.305822 12.941100 -12.609600 7.440000
-5.566740 1.526210 14.861700 -13.408800 6.460000
-10.114800 1.608710 13.323400 -11.544000 11.720000
-5.512420 1.517050 15.343600 -13.497600 6.250000
-6.412770 1.453440 15.465300 -13.142400 5.210000
-10.374200 1.649960 13.665100 -11.544000 10.100000
-5.446120 1.505210 15.826700 -13.586400 5.910000
-6.146970 1.490710 16.033500 -13.320000 6.130000
-5.334890 1.543810 16.316700 -13.586400 6.530000
-6.395540 1.527980 16.397600 -13.320000 5.710000
-5.469760 1.527980 16.729200 -13.586400 4.050000
-5.606070 1.453690 17.146100 -13.586400 5.010000
-10.674200 1.602510 15.060100 -11.810400 5.230000
-10.922400 1.639780 15.410300 -11.810400 6.150000
-5.526860 1.479070 18.075700 -13.764000 8.960000
-5.652470 1.512690 18.486600 -13.764000 7.980000
9.415190 -0.582286 17.432800 -12.964800 9.750000
9.619870 -0.594945 17.811800 -12.964800 10.230000
11.417900 -1.626750 16.647500 -12.076800 8.180000
8.716100 -0.927217 18.734100 -13.142400 7.710000
10.477800 -0.927217 17.808700 -12.609600 9.500000
11.660900 -1.661360 17.001700 -12.076800 8.530000
9.039500 -1.191090 19.044000 -13.231200 7.760000
10.696100 -0.946534 18.179800 -12.609600 11.810000
11.903800 -1.695970 17.355900 -12.076800 5.960000
9.942740 0.449738 19.108300 -12.964800 14.600000
10.914300 -0.965851 18.550800 -12.609600 10.640000
9.989800 0.577639 19.565500 -13.053600 17.890000
-5.396740 1.307560 21.262800 -13.941600 6.560000
10.185700 0.588965 19.949200 -13.053600 16.890000
-10.156300 1.799810 19.891600 -12.787200 8.290000
-5.669490 1.333200 21.636600 -13.941600 6.700000
10.378600 0.812082 20.327000 -13.053600 11.470000
-10.351600 1.834420 20.274100 -12.698400 8.740000
-9.360220 0.827404 21.286800 -13.053600 7.830000
-4.973800 1.384480 22.688600 -14.030400 7.940000
-5.065910 1.410110 23.108800 -14.030400 5.080000
-4.840200 1.435750 23.596300 -14.030400 4.380000
10.629900 -2.861030 21.956200 -13.231200 8.450000
-12.885300 2.275570 20.785800 -12.432000 5.240000
10.350500 -2.700010 22.587300 -13.231200 8.130000
9.896640 -0.919338 23.867100 -13.497600 5.940000
18.714700 1.836950 18.976800 -10.567200 13.690000
9.875310 -0.853415 24.344300 -13.497600 9.840000
19.008100 2.034050 19.274300 -10.567200 12.820000
-20.563200 0.584660 19.007600 -9.590400 10.880000
10.037200 -0.867406 24.743400 -13.497600 7.580000
-20.879500 0.593654 19.300000 -9.590400 9.930000
-9.097350 1.666500 26.437400 -13.586400 15.040000
-9.030140 1.692140 26.914500 -13.586400 9.560000
18.657400 1.743410 22.526000 -11.366400 9.590000
-9.171280 1.472610 27.335200 -13.586400 7.360000
18.931800 1.769050 22.857300 -11.366400 8.900000
-9.308160 1.494590 27.743200 -13.586400 9.550000
-18.274800 1.914770 24.461200 -11.455200 9.240000
-4.096230 2.094090 31.553000 -14.296800 4.340000
10.692000 -0.074962 30.497500 -13.764000 4.710000
-18.098100 0.860796 27.279500 -11.899200 6.260000
-4.643620 2.150690 32.346100 -14.296800 5.990000
10.834600 -0.075961 30.904100 -13.764000 9.630000
10.976800 -0.282186 31.309700 -13.764000 9.290000
9.827210 -0.285851 32.140200 -13.941600 9.000000
12.762100 -1.438850 31.990300 -13.586400 10.190000
11.080400 -2.184460 33.025200 -13.852800 8.490000
10.435000 -2.348780 34.127800 -13.941600 5.270000
-16.785100 -0.439766 33.999000 -12.698400 7.420000
-18.206800 -0.908783 33.249900 -12.432000 8.750000
-18.413700 -0.919110 33.627700 -12.432000 5.380000
-18.620600 -0.929438 34.005500 -12.432000 6.340000
19.352400 -1.151910 34.084200 -12.698400 11.330000
20.910400 -0.939765 33.157900 -12.432000 10.200000
11.963900 1.273130 37.320500 -13.941600 6.490000
19.034400 -0.950092 34.761200 -12.964800 7.220000
19.830100 -1.164570 34.306900 -12.698400 8.100000
11.803000 1.409650 37.818700 -13.941600 9.300000
18.765600 -0.960419 35.395400 -13.053600 7.390000
20.045600 -1.177230 34.679800 -12.698400 6.560000
-7.681040 1.632100 41.491700 -14.208000 7.270000
-8.001580 1.648750 41.869500 -14.119200 8.040000
-17.023100 -1.931700 39.537700 -13.142400 7.150000
-6.940250 1.399040 42.504400 -14.208000 8.110000
-16.343100 -1.951020 40.288500 -13.231200 6.630000
-7.009660 1.413030 42.929400 -14.208000 7.710000
-16.504900 -1.970340 40.687400 -13.231200 9.940000
-8.076170 1.166600 43.626100 -14.208000 9.790000
-15.237700 -1.578200 41.655100 -13.497600 7.840000
-8.155060 1.074020 44.052200 -14.208000 9.450000
-2.572280 2.948420 49.398800 -14.385600 8.380000
-2.593640 3.282630 49.809000 -14.385600 6.150000
-2.616000 3.310930 50.238400 -14.385600 8.040000
12.869900 -2.711330 49.115700 -14.119200 6.450000
12.978900 -2.734310 49.531900 -14.119200 6.090000
12.413100 -2.757290 50.120100 -14.119200 7.090000
15.041600 0.829214 54.400600 -14.119200 9.260000
15.157100 0.659649 54.818100 -14.119200 5.370000
15.262500 1.103380 60.133100 -14.119200 7.120000
15.581200 0.930493 61.389000 -14.119200 5.460000
15.686400 1.134030 61.803500 -14.119200 6.610000
15.793200 0.943152 62.224200 -14.119200 10.170000
15.897500 1.349210 62.634900 -14.119200 11.030000
15.639600 1.157020 63.147700 -14.208000 9.050000
16.109400 1.367200 63.470100 -14.119200 11.080000
15.355100 0.560708 64.112200 -14.119200 19.150000
15.952300 0.564372 64.410200 -14.119200 15.660000
16.053900 1.187670 64.820500 -14.208000 18.160000
16.158300 0.987462 65.242000 -14.208000 19.890000
16.261900 0.993791 65.660200 -14.208000 16.190000
16.365500 1.000120 66.078400 -14.208000 14.080000
16.255300 -1.457150 67.871100 -14.208000 10.900000
16.881500 -1.466150 68.162000 -14.208000 21.990000
16.988700 -0.163916 68.594900 -14.119200 25.450000
16.160000 0.000000 69.237600 -14.208000 24.430000
15.720600 -0.165915 69.780300 -14.208000 18.380000
16.355600 -0.389466 70.075900 -14.208000 10.860000
16.860800 -0.391799 70.399200 -14.119200 8.830000
17.044600 3.283890 71.166700 -14.208000 10.900000
16.549000 1.054440 89.394900 -14.296800 9.830000
15.934700 1.059440 89.944100 -14.296800 8.920000
16.009800 1.064430 90.368300 -14.296800 9.820000
16.083500 1.639740 90.784300 -14.296800 8.260000
-13.162900 1.647410 91.688800 -14.208000 9.400000
-13.224100 1.655070 92.115300 -14.208000 7.920000
-13.284600 1.951860 92.536200 -14.208000 8.510000
-11.143400 -0.912524 106.710000 -14.296800 14.260000
-10.362000 -0.916189 107.222000 -14.296800 13.430000
-10.403500 -0.919854 107.650000 -14.296800 6.780000
-11.501400 0.941842 110.138000 -14.296800 11.750000
-11.546100 0.945507 110.567000 -14.296800 12.480000
-11.590900 0.949172 110.996000 -14.296800 8.870000
-11.635600 0.952837 111.424000 -14.296800 5.710000
-54.694200 -13.639700 112.971000 -12.698400 6.540000
-54.880900 -13.686300 113.357000 -12.698400 7.170000
-53.289600 -14.123600 114.539000 -12.698400 6.740000
-53.470200 -14.171400 114.927000 -12.698400 5.450000
14.959000 3.728080 154.789000 -14.385600 8.820000
15.000500 3.738400 155.218000 -14.385600 6.930000
15.041000 4.111430 155.638000 -14.385600 13.210000
-6.593180 0.335770 7.960270 -11.011200 4.200000
-6.723070 0.349760 8.409800 -11.188800 7.130000
-6.295330 1.279220 9.178700 -11.721600 3.840000
-6.928030 0.000000 8.804460 -11.188800 6.300000
-6.537460 1.328420 9.531730 -11.810400 3.840000
7.748660 1.256900 8.586930 -10.922400 4.260000
-6.745000 0.317135 9.998670 -11.810400 10.320000
8.035650 1.303450 8.904970 -10.922400 6.760000
-6.905870 0.328461 10.409300 -11.899200 11.730000
8.573970 1.273140 9.001040 -10.656000 4.120000
-6.170200 1.436300 11.268200 -12.520800 4.920000
-7.143390 0.379752 10.767300 -11.899200 8.860000
8.511410 -1.476020 9.616890 -11.188800 6.660000
7.467040 0.392410 11.069000 -11.988000 4.270000
8.925860 0.959683 9.891490 -11.011200 9.790000
9.213790 0.990641 10.210600 -11.011200 8.910000
-5.996270 0.373767 12.888200 -12.787200 5.690000
-6.754960 0.373767 12.507200 -12.609600 4.140000
-5.875110 1.267100 13.361000 -13.053600 6.700000
-6.178770 0.305822 13.280400 -12.787200 3.690000
-5.861850 1.304370 13.834300 -13.142400 6.230000
-6.030530 1.305790 14.232400 -13.142400 5.050000
-6.196810 1.378910 14.624900 -13.231200 5.560000
-10.286100 1.378330 12.665300 -11.188800 7.030000
-5.604140 1.416170 15.320000 -13.408800 5.130000
-10.355200 1.414600 13.159800 -11.366400 9.180000
-10.780600 1.414600 12.813600 -11.100000 9.990000
-6.684650 1.315240 14.889600 -13.142400 4.710000
-6.212190 1.155500 15.571900 -13.320000 5.710000
-11.154900 -4.880510 12.801100 -11.188800 10.630000
-6.463690 1.185130 15.934100 -13.320000 7.770000
-5.597000 1.582400 16.682000 -13.586400 5.460000
-5.733510 1.621000 17.088900 -13.675200 4.170000
-9.212050 1.303640 16.519800 -12.609600 6.600000
-5.517870 1.093860 18.556600 -13.675200 8.520000
-5.786520 1.118170 18.925000 -13.675200 9.000000
9.400790 -1.240560 17.406100 -12.876000 8.110000
8.952600 -1.079940 18.134000 -13.053600 10.680000
9.145590 -0.991115 18.524900 -13.053600 11.310000
9.453420 0.506027 18.872800 -13.053600 11.560000
9.794490 0.516354 19.183000 -13.142400 15.290000
-9.370020 1.348430 19.353800 -12.876000 11.280000
9.991070 0.458733 19.568000 -13.142400 15.910000
-9.557420 1.375400 19.740900 -12.876000 11.010000
10.187000 0.467728 19.951700 -13.142400 12.180000
-10.320400 1.471520 19.834000 -12.698400 7.740000
-9.029330 0.476723 20.971500 -13.142400 4.270000
9.865490 0.915972 21.529000 -13.408800 6.350000
-4.923700 1.688810 24.003400 -14.119200 6.580000
-5.010080 1.718430 24.424500 -14.119200 6.240000
18.420400 1.645090 18.678300 -10.656000 5.630000
18.725900 1.589580 18.988100 -10.656000 10.160000
10.387900 -0.934660 24.127000 -13.408800 12.930000
19.031300 1.531410 19.297800 -10.656000 9.730000
-20.780100 0.671260 18.767300 -9.501600 4.500000
-20.878100 0.681588 19.298700 -9.590400 12.970000
-21.195900 0.602649 19.592500 -9.590400 6.460000
-21.512300 0.611644 19.884900 -9.590400 15.930000
-9.757400 1.450630 26.673700 -13.408800 7.260000
-4.097810 1.897250 31.565200 -14.296800 4.620000
18.976900 -0.076961 27.216500 -12.076800 9.120000
-17.882500 1.974160 27.878000 -11.988000 9.340000
19.223300 -0.077960 27.570000 -12.076800 10.460000
19.469800 0.000000 27.923500 -12.076800 10.120000
19.716300 0.000000 28.277000 -12.076800 15.970000
8.930250 -0.186571 33.294700 -13.941600 7.210000
-5.076460 1.713800 35.361100 -14.296800 7.240000
-30.931000 0.444763 22.667300 -8.347200 7.520000
-9.386080 1.432250 35.820400 -13.941600 5.610000
-31.278500 0.449761 22.922000 -8.347200 6.480000
-16.786100 -0.087955 34.001200 -12.698400 9.790000
-18.913500 -1.837690 33.311100 -12.432000 6.850000
18.222300 -0.563359 33.739600 -12.964800 9.640000
20.409600 -1.858340 32.923500 -12.609600 5.220000
-19.126000 -1.858340 33.685400 -12.432000 8.430000
18.422600 -1.019360 34.110600 -12.964800 5.360000
20.636400 -1.878990 33.289400 -12.609600 5.590000
21.400500 -1.878990 32.803300 -12.343200 9.120000
11.680200 0.697275 37.425400 -13.941600 7.150000
11.808600 0.704937 37.836700 -13.941600 6.680000
-17.272000 -0.704937 35.675400 -12.876000 8.800000
11.698800 2.260650 38.261300 -13.941600 6.170000
11.301900 2.284960 38.828700 -14.030400 8.870000
-7.359120 1.893070 41.538900 -14.208000 7.350000
-7.759420 1.648750 41.915100 -14.119200 6.880000
-16.626300 -1.912380 39.239100 -13.142400 4.920000
-7.837790 1.665400 42.338400 -14.119200 7.110000
-16.181300 -1.931700 39.889600 -13.231200 8.660000
-7.915190 1.816550 42.756500 -14.119200 7.440000
-15.565900 -1.816550 40.601400 -13.408800 8.710000
-16.112100 -1.816550 40.387700 -13.231200 9.920000
-15.403500 -1.834530 41.123300 -13.408800 7.610000
-17.676200 -1.834530 40.198800 -13.053600 5.140000
-15.554500 -1.852520 41.526500 -13.408800 11.390000
-7.816690 0.658308 44.121700 -14.119200 8.650000
-16.023800 -2.147420 41.795800 -13.408800 9.390000
-7.891850 0.664638 44.546000 -14.119200 8.600000
13.378100 -2.637510 49.877700 -14.119200 9.660000
35.456500 0.300845 42.808400 -11.455200 7.000000
14.621900 0.829214 54.514900 -14.119200 6.530000
14.733500 0.835544 54.931100 -14.119200 6.870000
14.845200 0.841874 55.347200 -14.119200 7.630000
15.233800 5.217480 58.137200 -14.119200 8.290000
15.345700 5.114330 58.564100 -14.119200 8.790000
15.506200 1.277260 59.176600 -14.119200 6.560000
15.617100 0.905173 59.599900 -14.119200 6.570000
15.726300 0.911503 60.016700 -14.119200 7.090000
15.581200 0.930493 61.389000 -14.208000 9.420000
15.687900 0.739607 61.809100 -14.208000 11.790000
15.898400 1.149350 62.638700 -14.119200 9.950000
16.003500 1.358210 63.052500 -14.119200 7.610000
16.109400 1.367200 63.470100 -14.208000 6.730000
16.215400 1.376200 63.887600 -14.208000 12.580000
16.324400 0.564372 64.316900 -14.119200 11.670000
15.555300 0.774588 64.948200 -14.208000 16.640000
15.655600 0.779585 65.367200 -14.208000 19.760000
15.756000 0.784583 65.786300 -14.208000 18.320000
15.856400 0.789580 66.205300 -14.208000 12.790000
16.469700 0.794577 66.499300 -14.208000 16.810000
16.057200 18.752100 64.833600 -14.208000 14.270000
13.504700 18.868600 65.836500 -14.296800 12.670000
13.581300 1.031770 68.903400 -14.296800 8.960000
16.987000 1.038100 68.587700 -14.208000 8.890000
17.055900 1.925460 71.213700 -14.208000 9.800000
17.156200 1.936790 71.632600 -14.208000 8.810000
16.549000 1.054440 89.394900 -14.296800 10.120000
16.626800 1.341930 89.814900 -14.296800 14.300000
16.008400 1.632080 90.360100 -14.296800 11.200000
-13.757100 1.367250 92.041900 -14.208000 10.300000
-13.821300 1.084420 92.471800 -14.208000 10.540000
-12.127800 -0.894200 104.434000 -14.296800 5.810000
-11.571100 -0.897865 104.931000 -14.296800 6.390000
-12.227200 0.901530 105.290000 -14.296800 7.750000
-12.276900 0.905195 105.718000 -14.296800 11.250000
-12.326600 0.908859 106.146000 -14.296800 10.060000
-11.501600 -0.599358 110.141000 -14.296800 6.790000
-11.546600 0.000000 110.571000 -14.296800 6.230000
-11.591300 0.000000 111.000000 -14.296800 8.710000
-12.279900 -0.259867 111.359000 -14.296800 9.270000
14.960100 3.247110 154.800000 -14.385600 9.910000
15.001500 3.256100 155.229000 -14.385600 9.270000
15.043800 2.781440 155.667000 -14.385600 6.120000
-6.665350 1.299890 7.799490 -10.833600 5.270000
-6.392350 0.303802 8.123690 -11.188800 5.320000
-6.870020 -0.224869 8.294520 -10.922400 5.820000
-6.771390 0.329118 8.919430 -11.277600 6.520000
-6.725680 0.278831 9.489180 -11.632800 7.190000
-6.743780 0.391732 9.996850 -11.810400 11.230000
-6.985890 0.328461 10.355800 -11.810400 11.060000
8.588210 -1.664520 9.517310 -11.011200 5.250000
8.813940 0.659378 9.433290 -10.833600 7.000000
-7.226790 0.339788 10.712900 -11.810400 6.820000
8.649040 0.659378 9.584710 -11.011200 7.850000
9.107740 0.681357 9.747740 -10.833600 8.800000
9.225640 0.703336 10.223700 -11.011200 8.430000
9.401540 0.703336 10.062200 -10.833600 7.180000
-6.460590 0.593525 12.653400 -12.698400 7.550000
-6.657190 0.566237 13.038500 -12.698400 5.890000
8.715460 0.536280 12.296500 -11.988000 5.300000
8.866720 0.551603 12.716600 -12.076800 7.950000
-5.772730 1.342060 14.800800 -13.320000 9.360000
9.012020 0.566925 13.139700 -12.165600 6.880000
9.508340 1.342060 12.727100 -11.899200 5.170000
-5.934490 1.176390 15.215500 -13.320000 10.600000
-9.977470 1.125870 12.934300 -11.366400 5.910000
-6.002850 1.103640 15.657600 -13.408800 8.630000
-6.982670 1.207340 15.238000 -13.053600 7.060000
-5.908500 1.131940 16.152000 -13.408800 6.380000
-9.457390 1.522910 16.361700 -12.609600 10.280000
-6.300370 1.033980 18.309200 -13.586400 5.730000
9.308940 -0.569628 17.000300 -12.964800 7.800000
-9.672330 1.557530 16.733500 -12.609600 8.990000
-6.042270 1.056960 18.848400 -13.675200 8.610000
9.649460 -0.582286 17.304200 -12.787200 9.340000
-6.172570 1.142480 19.254900 -13.675200 8.640000
8.683000 -0.360131 18.292900 -13.142400 9.030000
-6.142060 1.661360 19.680200 -13.675200 4.870000
9.154660 -0.367793 18.543200 -13.142400 8.770000
9.828650 0.111942 18.198300 -12.964800 8.330000
10.553100 -2.409290 17.624500 -12.609600 7.300000
-5.881770 1.695970 20.207300 -13.764000 5.320000
9.453420 0.506027 18.872800 -13.053600 8.520000
10.633900 -2.459480 18.074200 -12.698400 9.520000
9.794490 0.516354 19.183000 -13.053600 14.710000
-9.517020 1.414930 19.277200 -12.876000 9.170000
9.990380 0.526681 19.566700 -13.053600 16.930000
-9.820860 1.443220 19.606300 -12.787200 10.130000
10.187000 0.467728 19.951700 -13.053600 14.710000
-10.009200 1.609790 19.982200 -12.698400 9.560000
10.540900 0.264859 20.257800 -13.053600 6.390000
-10.206000 1.499820 20.375200 -12.698400 6.580000
-4.967660 2.031220 23.526000 -14.030400 5.830000
-5.240770 2.067500 23.906400 -14.030400 6.990000
9.997200 2.728960 22.268100 -13.320000 7.740000
-5.474990 2.007480 24.302400 -14.030400 7.120000
-5.760820 1.983300 24.682300 -14.030400 6.950000
18.416700 1.726210 18.674600 -10.567200 5.310000
-4.838280 2.016920 25.317000 -14.119200 11.440000
10.076500 -1.159020 23.781300 -13.497600 5.460000
12.275300 -1.079140 22.728400 -13.231200 7.250000
18.722300 1.672050 18.984500 -10.567200 5.790000
10.245800 -1.097120 24.180900 -13.497600 13.070000
10.940400 -1.097120 23.874700 -13.320000 8.860000
19.020500 1.782810 19.286900 -10.567200 7.920000
10.224100 -1.115110 24.656800 -13.586400 10.190000
9.773170 6.424170 24.498100 -13.675200 6.480000
10.596000 6.526140 24.610100 -13.586400 5.380000
-20.880800 0.505716 19.301200 -9.590400 12.350000
-21.197200 0.513378 19.593600 -9.590400 3.620000
-21.513500 0.521040 19.886100 -9.590400 7.520000
18.602000 1.995680 25.821200 -12.076800 9.890000
18.853400 2.022650 26.170200 -12.076800 13.580000
18.899800 2.049610 26.665600 -12.076800 11.900000
18.976900 0.076961 27.216500 -12.165600 4.820000
19.223300 0.077960 27.570000 -12.165600 5.710000
9.688570 1.815210 32.582700 -14.030400 9.440000
19.469800 0.000000 27.923500 -12.165600 6.770000
-17.780200 -1.661260 32.470800 -12.520800 6.510000
-16.300600 -2.461970 33.669000 -12.876000 7.870000
-18.244300 -1.448900 32.717300 -12.432000 6.280000
-16.488000 -2.490270 34.056000 -12.876000 5.800000
-18.708500 -1.465550 32.950100 -12.343200 5.900000
-16.418700 -2.163410 34.590100 -12.876000 7.120000
19.939300 -1.482210 32.725500 -12.609600 11.350000
-16.333100 -2.187720 35.105700 -12.964800 6.210000
20.417800 -1.498860 32.936800 -12.609600 8.080000
20.644700 -1.515520 33.302700 -12.520800 5.420000
11.581400 1.654680 37.877200 -13.941600 6.710000
19.036800 -0.704937 34.765700 -12.876000 8.130000
11.712400 1.177230 38.305800 -13.941600 6.260000
19.243700 -0.712599 35.143600 -12.876000 9.580000
11.839400 1.064670 38.721000 -13.941600 7.110000
-18.066200 -3.193460 36.594100 -12.787200 6.970000
22.626900 -0.727924 34.105800 -12.343200 8.990000
-17.684200 -3.227070 37.256300 -12.876000 8.410000
23.131200 -0.607669 34.289300 -12.254400 9.700000
-18.158000 -3.260690 37.505600 -12.876000 9.400000
23.638500 -0.613998 34.465300 -12.254400 9.040000
-7.359120 1.893070 41.538900 -14.119200 6.480000
-7.679050 1.893070 41.480900 -14.119200 8.460000
-7.758450 1.780580 41.909800 -14.119200 8.820000
-16.802300 -1.399040 39.654400 -13.142400 7.560000
-9.785410 1.798560 41.925600 -14.119200 7.500000
-6.759900 1.682060 42.959800 -14.119200 9.520000
-16.970300 -1.413030 40.051000 -13.142400 5.440000
-6.762030 1.278500 42.973400 -14.208000 4.590000
-16.826100 -1.427020 40.578400 -13.142400 7.950000
-8.328700 1.063690 43.581200 -14.119200 6.820000
-8.409570 1.074020 44.004400 -14.119200 6.910000
-8.490430 1.084340 44.427500 -14.119200 5.950000
-8.311890 1.094670 44.899400 -14.119200 5.890000
-17.314000 -2.066920 42.681900 -13.231200 7.330000
12.447700 1.177290 47.504700 -14.119200 10.970000
13.477900 1.187610 47.670600 -14.030400 11.540000
13.203000 1.034400 47.751000 -14.119200 11.370000
-14.886300 -1.313850 47.698100 -13.675200 11.140000
-2.887710 0.270528 49.900200 -14.385600 6.140000
-15.662100 -1.325170 47.902400 -13.586400 5.590000
-2.912610 0.272860 50.330400 -14.385600 9.250000
-15.787700 -2.122300 48.286500 -13.586400 10.310000
-2.644030 0.275192 50.776700 -14.385600 8.280000
13.645800 -2.734310 49.352400 -14.030400 6.300000
-15.263200 -2.140290 48.906000 -13.675200 7.990000
14.045500 -2.916960 49.678300 -14.030400 9.510000
-14.436500 -2.318040 49.597700 -13.764000 5.490000
-14.556800 -2.337360 50.011000 -13.764000 8.040000
34.771300 0.000000 42.814200 -11.544000 5.210000
14.622500 0.654652 54.517100 -14.119200 7.250000
14.734600 0.483748 54.935000 -14.119200 7.150000
14.845800 0.664647 55.349500 -14.119200 8.220000
15.026200 3.640660 59.202200 -14.119200 9.860000
15.156500 1.095720 59.715500 -14.119200 7.730000
15.369200 0.917833 60.553800 -14.119200 7.260000
15.227200 0.538719 61.482400 -14.119200 8.450000
15.227200 0.538719 61.482400 -14.119200 6.130000
16.112900 0.000000 63.483900 -14.119200 6.690000
15.454300 0.974802 64.526600 -14.119200 5.870000
15.555300 0.774588 64.948200 -14.119200 6.590000
16.159000 0.779585 65.244600 -14.119200 6.490000
15.856800 0.579031 66.207300 -14.119200 6.950000
16.559700 -0.384802 69.142100 -14.208000 12.370000
17.162100 0.000000 71.657400 -14.208000 8.850000
25.417200 0.725622 81.441000 -13.941600 16.970000
25.545600 0.729286 81.852300 -13.941600 20.980000
25.673900 0.732951 82.263600 -13.941600 15.540000
26.439300 0.468759 82.475400 -13.941600 15.890000
15.859500 1.054440 89.519800 -14.296800 18.970000
15.414500 1.059440 90.034700 -14.296800 11.260000
15.487200 1.064430 90.459400 -14.208000 10.180000
15.559900 1.069430 90.884000 -14.208000 18.190000
-13.693900 1.074430 91.619500 -14.208000 24.740000
-13.757600 1.079430 92.045700 -14.208000 26.110000
-13.369200 0.240877 102.982000 -14.296800 14.810000
-13.424700 0.241877 103.410000 -14.296800 10.770000
-13.479700 0.890536 103.834000 -14.296800 11.250000
-13.535500 0.569041 104.263000 -14.296800 9.940000
-13.591100 0.244875 104.692000 -14.296800 8.060000
-12.227600 0.245875 105.294000 -14.296800 12.930000
-12.277100 0.576037 105.720000 -14.296800 8.490000
-12.326600 0.908859 106.146000 -14.296800 9.250000
-13.197300 0.912524 106.475000 -14.296800 8.560000
-13.249900 1.249340 106.900000 -14.296800 7.150000
-12.090900 0.597026 109.644000 -14.296800 11.080000
-12.138100 0.599358 110.072000 -14.296800 6.530000
-12.185300 0.601691 110.501000 -14.296800 10.070000
-12.232600 0.604023 110.929000 -14.296800 12.140000
14.960100 3.247110 154.800000 -14.385600 11.960000
15.001500 3.256100 155.229000 -14.385600 9.060000
-6.792990 0.183897 7.795520 -10.744800 3.960000
-7.076030 0.191559 8.120330 -10.744800 6.390000
-7.359080 0.199221 8.445150 -10.744800 6.960000
-7.557270 0.206884 8.843180 -10.833600 3.420000
-6.770100 1.516540 9.870910 -11.899200 5.280000
-6.970700 0.503597 9.834880 -11.632800 5.980000
-6.856120 1.532350 10.334300 -11.988000 6.830000
-7.219650 0.521583 10.186100 -11.632800 9.870000
-6.420300 1.585190 11.107400 -12.343200 4.340000
-7.009930 1.585190 10.745000 -11.988000 5.410000
-7.389710 0.419712 10.598300 -11.632800 8.990000
-6.634310 1.638030 11.477600 -12.343200 5.090000
8.947570 0.237533 9.915550 -11.100000 6.250000
-6.425220 1.404840 12.119200 -12.609600 7.380000
-6.738300 1.065460 12.476400 -12.609600 8.840000
-7.016680 1.097740 12.814100 -12.520800 7.770000
8.863420 0.695413 12.711800 -12.165600 6.210000
9.008660 0.714730 13.134800 -12.254400 6.880000
-5.768370 1.477130 14.789600 -13.320000 8.370000
-9.742750 1.768970 13.040900 -11.721600 4.930000
-6.041170 1.517050 15.143200 -13.320000 8.830000
-9.771920 1.712150 13.564300 -11.721600 9.470000
-10.022500 1.756050 13.912100 -11.721600 9.080000
-9.235150 1.659590 15.977200 -12.787200 5.560000
-9.323630 1.698190 16.421100 -12.698400 10.260000
-9.535530 1.736780 16.794300 -12.698400 10.360000
-6.143050 1.736780 18.309500 -13.586400 6.880000
-6.135120 1.775380 18.764200 -13.586400 6.900000
8.866990 -0.949819 17.702000 -13.142400 10.720000
8.534510 -0.907900 18.343800 -13.320000 7.700000
9.198890 -0.970467 18.016500 -13.142400 10.010000
8.716100 -0.927217 18.734100 -13.320000 11.170000
11.189000 -2.410830 17.742600 -12.520800 6.880000
9.599270 0.440743 18.800700 -13.142400 11.700000
-5.284160 1.680770 20.819200 -13.941600 5.380000
9.795170 0.449738 19.184400 -13.142400 16.090000
-5.558300 1.443220 21.212300 -13.852800 8.930000
9.990380 0.526681 19.566700 -13.142400 15.870000
10.185700 0.588965 19.949200 -13.142400 11.360000
-5.779550 1.288330 22.056700 -13.852800 5.540000
-4.974690 1.312630 22.692700 -14.030400 7.360000
9.700380 0.842726 21.606900 -13.408800 8.680000
10.508500 -2.007480 22.586500 -13.320000 7.420000
10.556700 -2.042090 23.037400 -13.231200 5.760000
18.420400 1.645090 18.678300 -10.656000 11.010000
18.534900 1.754510 19.160200 -10.744800 11.990000
18.837600 1.699020 19.473100 -10.744800 8.590000
-20.564400 0.498053 19.008800 -9.590400 11.460000
-20.880800 0.505716 19.301200 -9.590400 14.730000
-21.197200 0.513378 19.593600 -9.590400 13.490000
18.857000 1.922880 26.175100 -11.988000 6.950000
-17.880200 -1.265710 27.407200 -11.899200 10.680000
-18.115400 -1.282360 27.767800 -11.899200 11.510000
19.435300 0.077960 27.421000 -12.165600 13.620000
19.684400 0.078960 27.772500 -12.165600 15.150000
19.716200 0.079959 28.276900 -12.254400 12.070000
-17.916900 -0.300510 30.452800 -12.343200 6.460000
-18.135800 -0.193567 30.824800 -12.254400 7.470000
-17.094400 -1.317720 32.852600 -12.609600 6.440000
-17.293200 -1.333040 33.234600 -12.609600 10.140000
20.396900 -2.307460 32.903000 -12.520800 9.830000
20.623500 -2.333100 33.268600 -12.609600 7.500000
11.164900 1.757850 37.547700 -14.030400 9.640000
11.287600 1.777170 37.960300 -14.030400 6.170000
11.708700 1.548830 38.293700 -14.030400 7.630000
-17.544300 -1.329090 36.961400 -12.876000 8.800000
22.866300 -0.607669 34.466600 -12.343200 10.650000
-16.809300 -0.632988 39.671100 -13.231200 6.240000
-16.820300 -1.834530 40.564400 -13.142400 11.470000
-8.329780 0.789223 43.586900 -14.119200 8.900000
-8.409570 1.074020 44.004400 -14.119200 7.700000
-16.408200 -2.831700 42.069200 -13.231200 5.140000
-16.891300 -2.858670 42.340900 -13.231200 8.060000
12.378400 2.144190 46.150600 -14.119200 8.450000
12.490000 2.163510 46.566300 -14.119200 6.030000
12.601500 2.182820 46.982100 -14.119200 8.190000
-2.554430 0.113942 49.056000 -14.385600 8.620000
13.086600 1.291190 47.329700 -14.119200 9.760000
13.203800 0.881171 47.753900 -14.119200 9.180000
-14.762500 -0.421447 47.301600 -13.675200 7.630000
13.318700 0.888834 48.169100 -14.119200 8.590000
14.509600 0.996107 54.096100 -14.119200 7.720000
14.621900 0.829214 54.514900 -14.119200 9.490000
14.734100 0.659649 54.933300 -14.119200 7.150000
15.616300 1.095720 59.596900 -14.119200 9.950000
15.725500 1.103380 60.013700 -14.119200 14.480000
15.476700 0.340492 60.977100 -14.208000 11.260000
15.476700 0.340492 60.977100 -14.119200 21.080000
15.687900 0.739607 61.809100 -14.119200 17.770000
15.951200 0.974802 64.405500 -14.208000 13.390000
16.053000 1.394190 64.816600 -14.208000 13.390000
16.156500 1.403180 65.234800 -14.208000 20.360000
16.260100 1.412180 65.653000 -14.208000 9.470000
16.364700 1.210650 66.075100 -14.208000 13.610000
16.158500 -0.160918 67.466700 -14.208000 24.400000
16.188900 6.467410 67.593900 -14.119200 22.180000
16.157500 -1.264290 69.226700 -14.208000 10.540000
15.908300 1.063420 70.613600 -14.208000 7.950000
16.620200 4.358540 71.209400 -14.208000 13.710000
26.044100 0.725622 81.242700 -13.941600 11.770000
26.174900 0.994471 81.650500 -13.941600 11.610000
26.307200 0.732951 82.063300 -13.941600 8.960000
15.860300 0.492080 89.524500 -14.296800 8.720000
15.935500 0.494412 89.948800 -14.296800 9.340000
-13.162100 1.933870 91.683300 -14.296800 10.620000
-13.224100 1.655070 92.115300 -14.296800 13.070000
-12.773700 0.240877 103.058000 -14.296800 12.610000
-12.826700 0.241877 103.486000 -14.296800 10.540000
-12.879700 0.242876 103.913000 -14.296800 10.110000
-11.523500 1.219350 104.499000 -14.296800 9.080000
-12.177100 1.224350 104.859000 -14.296800 12.600000
-12.226800 1.229350 105.287000 -14.296800 14.900000
-12.276900 0.905195 105.718000 -14.296800 12.610000
-12.326200 1.239340 106.143000 -14.296800 5.420000
-11.757900 2.239700 106.624000 -14.296800 7.360000
-11.804300 2.581770 107.045000 -14.296800 4.890000
-11.456900 0.597026 109.712000 -14.296800 10.600000
-11.501400 0.941842 110.138000 -14.296800 11.010000
-11.546100 0.945507 110.567000 -14.296800 7.780000
-11.590500 1.294310 110.992000 -14.296800 7.140000
14.959000 3.728080 154.789000 -14.474400 12.610000
15.000500 3.738400 155.218000 -14.474400 5.630000
14.141900 3.748730 155.731000 -14.474400 6.990000
-6.577030 0.377741 9.589420 -11.899200 2.370000
-6.743780 0.391732 9.996850 -11.899200 6.580000
-7.143340 0.354435 9.716800 -11.544000 4.520000
-6.984620 0.405722 10.353900 -11.899200 6.690000
-7.398460 0.367094 10.063800 -11.544000 5.760000
8.240600 -0.459669 9.949300 -11.455200 5.790000
8.515290 -0.474991 10.280900 -11.455200 5.230000
-6.546820 0.575540 12.121800 -12.698400 5.850000
-6.752250 0.549583 12.502200 -12.698400 8.190000
-6.956860 0.566237 12.881100 -12.698400 6.270000
-5.923460 1.756770 13.757800 -13.231200 3.960000
-6.012420 1.771220 14.189700 -13.231200 5.460000
8.663850 0.791253 12.843100 -12.432000 5.900000
-5.961910 1.624350 14.697100 -13.320000 5.210000
-9.776920 -1.125870 13.086600 0.000000 7.330000
-9.963670 1.416170 12.916400 -11.632800 6.990000
-10.034200 -1.155500 13.431000 0.000000 5.840000
-5.860220 1.815520 15.645200 -13.497600 8.270000
-10.225900 1.453440 13.256300 -11.632800 9.200000
-6.586310 1.185130 15.883800 -13.320000 4.580000
-5.466720 1.636810 16.719900 -13.675200 7.640000
-6.747960 1.323750 16.273700 -13.320000 7.800000
-5.630280 1.773710 17.563200 -13.764000 5.270000
-9.229830 1.773710 15.968000 -12.787200 6.220000
-9.444480 1.814960 16.339300 -12.787200 5.090000
-6.150500 1.452900 18.331700 -13.675200 7.420000
9.210520 -0.569628 17.053800 -13.142400 9.910000
-6.145300 1.362900 18.795400 -13.764000 9.210000
9.280550 -0.582286 17.504900 -13.142400 9.360000
-6.426720 1.392520 19.155000 -13.764000 12.420000
9.482310 -0.594945 17.885400 -13.142400 15.160000
9.684060 -0.607603 18.265900 -13.142400 12.350000
0.929941 2.281040 20.969900 0.799200 16.440000
-5.332890 1.777320 20.352100 -14.030400 9.340000
8.632310 -1.256280 19.227900 -13.586400 13.180000
1.113810 2.327590 21.389900 0.799200 5.980000
-5.441720 1.813590 20.767400 -14.030400 7.330000
9.795170 0.449738 19.184400 -13.320000 11.000000
-5.550560 1.849860 21.182800 -14.030400 8.590000
9.990380 0.526681 19.566700 -13.320000 15.280000
-5.659390 1.886140 21.598100 -14.030400 10.370000
10.186300 0.537008 19.950300 -13.320000 16.960000
0.571187 1.217800 22.798100 0.799200 9.630000
-5.603810 1.640750 22.078600 -14.030400 14.310000
-0.268621 1.240780 23.233900 0.799200 6.270000
-5.882750 1.671710 22.450500 -14.030400 8.950000
-15.930900 -2.833430 17.316000 0.088800 4.060000
-0.136325 2.341650 23.583100 0.799200 6.640000
0.138803 2.384220 24.011900 0.799200 6.230000
0.141325 2.351190 24.448100 0.799200 6.310000
0.287603 2.392440 24.875800 0.799200 9.330000
9.913330 -0.825434 23.396100 -13.675200 9.950000
10.081400 -0.839425 23.792700 -13.675200 7.610000
18.420400 1.645090 18.678300 -10.833600 6.240000
10.062600 -0.853415 24.267500 -13.675200 3.610000
18.722300 1.672050 18.984500 -10.833600 10.790000
10.032400 -1.197650 24.731600 -13.675200 8.920000
10.359900 0.980627 25.538900 -13.764000 5.590000
-20.781600 0.584660 18.768600 -9.590400 7.530000
10.520600 1.082510 25.935000 -13.764000 7.460000
-21.102500 0.505716 19.058500 -9.590400 4.410000
10.682400 1.099170 26.334000 -13.764000 8.300000
-21.422300 0.513378 19.347300 -9.590400 6.030000
-3.489510 1.798790 31.644000 -14.474400 5.500000
-3.721990 1.823100 32.050600 -14.385600 7.960000
-6.450010 6.489430 31.444300 -25.663200 7.520000
-4.186800 6.574820 32.250700 -25.752000 4.160000
10.974800 -0.692597 31.304000 -14.030400 5.360000
18.976900 -0.076961 27.216500 -12.343200 4.130000
9.142180 -0.701592 32.335300 -14.030400 7.170000
19.223100 -0.181906 27.569600 -12.343200 8.100000
19.469600 -0.184239 27.923100 -12.343200 7.160000
-17.708900 -0.079959 29.575400 -12.343200 9.240000
-17.558400 -7.039850 28.817700 -0.710400 5.940000
-4.281190 2.615210 34.540500 -14.474400 10.720000
-17.930300 -0.080959 29.945100 -12.343200 8.790000
-3.919290 0.746565 35.541500 -14.474400 7.340000
-7.563780 1.075960 35.820800 -14.208000 7.530000
-7.652040 1.203180 36.238800 -14.208000 5.310000
-17.603800 -0.974058 32.594600 -12.609600 5.620000
-7.741010 1.217170 36.660200 -14.208000 9.560000
-17.987000 -1.680580 32.848400 -12.609600 7.660000
-15.891000 -4.329660 34.155500 -1.243200 10.870000
-16.337300 -4.378860 34.418700 -1.243200 9.450000
20.093900 -1.164570 34.153000 -12.876000 5.970000
20.842100 -1.177230 34.207100 -12.787200 6.130000
11.011700 1.565480 38.947600 -14.208000 8.430000
21.074500 -0.344487 34.588600 -12.787200 7.560000
11.128800 1.582130 39.361900 -14.208000 5.110000
20.139700 -1.087320 36.116300 -12.964800 5.940000
24.154800 -6.939480 32.856800 -1.065600 6.210000
13.094100 0.101948 41.955900 -14.208000 6.350000
-15.960600 -1.562870 40.921600 -13.408800 6.700000
-8.328700 1.063690 43.581200 -14.296800 7.810000
-16.117100 -1.578200 41.322800 -13.408800 6.000000
-8.410650 0.796885 44.010100 -14.296800 8.610000
-8.491520 0.804548 44.433200 -14.296800 6.480000
-9.255340 2.066920 45.120500 -14.208000 7.990000
12.724900 0.569697 47.442400 -14.208000 5.900000
12.836600 0.574694 47.858600 -14.208000 8.770000
12.948200 0.579692 48.274700 -14.208000 8.760000
12.119200 0.584689 48.933500 -14.296800 5.420000
14.621900 0.829214 54.514900 -14.296800 7.240000
14.733500 0.835544 54.931100 -14.296800 13.550000
14.845200 0.841874 55.347200 -14.296800 6.690000
14.972000 5.018690 60.452200 -14.296800 8.960000
15.476700 0.340492 60.977100 -14.296800 8.100000
15.329700 0.936822 61.896200 -14.296800 6.990000
15.433300 0.943152 62.314500 -14.296800 7.250000
15.897500 1.349210 62.634900 -14.296800 17.520000
16.003500 1.358210 63.052500 -14.296800 13.490000
15.942800 2.359630 64.371800 -14.296800 7.250000
15.655000 0.987462 65.364600 -14.296800 10.840000
15.755400 0.993791 65.783600 -14.296800 7.920000
15.856400 0.789580 66.205300 -14.296800 10.700000
17.191000 -1.714300 69.411700 -14.296800 10.000000
17.294600 -1.724620 69.829800 -14.296800 20.270000
25.416400 0.989474 81.438500 -14.119200 9.700000
25.544800 0.994471 81.849800 -14.119200 16.690000
25.673100 0.999469 82.261100 -14.119200 10.700000
15.860500 0.210892 89.525600 -14.474400 13.080000
15.935700 0.211892 89.949900 -14.474400 25.090000
16.010700 0.496745 90.373100 -14.474400 24.000000
-13.754600 2.230650 92.025400 -14.385600 13.480000
-13.369300 0.000000 102.983000 -14.474400 12.050000
-13.424700 0.241877 103.410000 -14.474400 9.880000
-13.480000 0.566709 103.836000 -14.474400 6.050000
-12.932300 0.894200 104.337000 -14.474400 6.500000
-12.985300 0.897865 104.765000 -14.474400 5.780000
-12.227200 0.901530 105.290000 -14.474400 8.510000
-12.276900 0.905195 105.718000 -14.474400 7.030000
-13.144600 0.578369 106.050000 -14.474400 11.090000
-11.759200 1.576140 106.636000 -14.474400 14.020000
-11.806400 1.582470 107.064000 -14.474400 12.950000
-11.853600 1.588800 107.493000 -14.474400 8.400000
-11.900900 1.595130 107.921000 -14.474400 7.470000
-11.456600 0.938177 109.710000 -14.474400 7.420000
-11.501400 0.941842 110.138000 -14.474400 4.730000
-11.546100 0.945507 110.567000 -14.474400 9.230000
-11.590900 0.949172 110.996000 -14.474400 12.380000
-11.635300 1.299310 111.421000 -14.474400 11.270000
-55.150300 -14.703200 98.900300 -12.432000 8.930000
14.961000 2.766110 154.809000 -14.563200 9.570000
15.000500 3.738400 155.218000 -14.563200 5.200000
15.041000 4.111430 155.638000 -14.563200 10.820000
