VERSION .7
FIELDS x y z velocity SNR
SIZE 4 4 4 4 4
TYPE F F F F F
COUNT 1 1 1 1 1
WIDTH 205
HEIGHT 1
VIEWPOINT 0 0 0 1 0 0 0
POINTS 205
DATA ascii
-0.599720997311056 3.03398439612686 -0.535610581266548 0 6.0686291747024
-0.0242571544459852 3.12718678720807 0.267805290633274 0 6.0686291747024
0.072897052029964 3.13182964611194 -0.194767484096927 0 6.0686291747024
0.456394823742378 3.06299159518672 -0.511264645754432 0 6.0686291747024
-8.23767315454915 7.73219365087116 -0.175290735687233 1.85657648750073 5.40025560409121
6.84525322417028 9.37968693801992 -0.180159922789656 2.32072060937591 5.27695979565862
7.28241549779338 9.01751514049632 -0.720639691158629 2.32072060937591 5.27695979565862
7.2730814896478 10.8028856455136 2.04505858301773 1.39243236562554 10.9771053145585
7.22246285470845 10.7277005502331 2.55632322877216 1.54714707291727 7.40249044448251
7.43683354898105 11.0461105803246 2.19843797674406 1.39243236562554 13.6823969804506
7.41658205302979 11.0160305385674 2.40781302214825 1.54714707291727 7.50646589001981
-8.32530797534223 11.4077273570513 -0.219113419609041 -0.464144121875182 6.42730565269497
-8.43180530716881 11.3228805313469 -0.438226839218085 -0.309429414583454 12.2501870558008
-8.42672586983925 11.316059469907 -0.657340258827126 -0.154714707291727 6.55524204297182
-8.50903435111925 11.6594778519724 -0.335973910067199 -0.464144121875182 6.89455546614506
-8.62099532942345 11.576939530775 -0.335973910067199 -0.309429414583454 16.2666230212388
-8.60671194300439 11.5577586943925 -0.895930426845863 -0.154714707291727 7.40605849155476
-8.73295630772765 11.4927178463792 -0.335973910067199 0 6.95447875111838
-2.34926903037943 14.229876632892 0.671947820134396 0 6.95447875111838
6.54276825782878 12.7117475787126 -2.01584346040319 0 6.95447875111838
-12.4894649177154 11.458013623187 -0 1.701861780209 6.22597340167923
-11.4339098129188 15.3543387331065 -0.297020413247812 -0.618858829166909 10.877655248609
-11.7308944833843 15.128652489916 -0.297020413247812 -0.464144121875182 6.87805075414604
-11.2864361623077 15.465204044548 -0.148510206623906 -0.464144121875182 6.87805075414604
-10.6846902085707 15.8702314342579 -0.742551033119532 -0.464144121875182 6.87805075414604
-11.6213509573929 15.606049204141 -0.301889600350235 -0.618858829166909 5.58736529885898
-7.82211375959764 18.1604301950123 0.153379393726329 -2.47543531666763 5.5765364202627
-7.79069936387706 18.5155814358735 -0 -2.47543531666763 5.08803782978231
5.45201285655238 19.3281868345451 -0.467441961832625 -1.701861780209 5.22222732846731
6.65449734024199 18.8089571200384 2.33720980916312 -1.701861780209 5.22222732846731
7.24329145923642 18.5011384465233 2.96046575827328 -1.701861780209 5.22222732846731
7.87712434318553 18.2881470620815 2.6488377837182 -1.701861780209 5.22222732846731
6.86756180875013 18.4376359714308 4.05116366921607 -1.54714707291727 7.11079727747322
6.80590941823323 18.2721151701952 4.83023360560378 -1.39243236562554 6.73986048690881
7.35908916889777 18.3445495397139 3.58372170738345 -1.39243236562554 6.73986048690881
-12.6779694131426 15.381016754317 -2.49302379644066 1.23771765833382 20.6983416215553
-12.6899716720894 15.3955779935766 -2.33720980916312 1.39243236562554 28.201809296095
-8.21306786204259 18.6325820096124 1.26598864663002 -2.01129119479245 6.33557619161805
-6.17884957863344 18.9319500404835 4.43096026320508 -2.01129119479245 6.33557619161805
-1.83571847257901 19.6364216463491 5.22220316734884 -2.01129119479245 6.33557619161805
-1.05583877634212 19.4171499685645 6.17169465232135 -2.01129119479245 6.33557619161805
5.53577400592854 18.4772930793014 -6.64644039480761 -2.01129119479245 6.33557619161805
7.22999529335885 18.9294189916815 2.37372871243129 -2.01129119479245 6.33557619161805
7.3183650426376 18.6928947451616 3.63971735906131 -1.39243236562554 5.76773368499735
0.313397153101599 20.1994628346635 -2.84847445491755 1.23771765833382 76.2132714180914
0.313733506315599 20.2211418900675 -2.6902258740888 1.39243236562554 108.577601868103
0.313733506315599 20.2211418900675 -2.6902258740888 1.54714707291727 15.1520630381885
-6.1170610828471 19.2736952667291 4.499128882639 -2.01129119479245 14.6840419028497
5.93883537493432 19.8226303412793 0.964099046279785 -2.01129119479245 14.6840419028497
6.99285850984792 19.2591580111114 3.05298031321932 -2.01129119479245 14.6840419028497
7.44133813463559 19.0069981072942 3.53502983635921 -2.01129119479245 14.6840419028497
7.99923372372314 18.5716457364249 4.499128882639 -2.01129119479245 14.6840419028497
6.99285850984792 19.2591580111114 3.05298031321932 -1.85657648750073 8.23979121199969
7.60978316639922 18.9694731343227 3.37434666197925 -1.85657648750073 8.23979121199969
0.318881852617152 20.5529695048017 -2.57093079007943 1.23771765833382 73.0835772392141
0.318560175643532 20.5322363806839 -2.73161396445939 1.39243236562554 94.0579417299087
0.3182186477647 20.5102238013507 -2.89229713883936 1.54714707291727 12.6258923667039
6.03372315687203 20.1393465501834 0.489353303793529 -2.01129119479245 12.7182239912349
7.08132600206594 19.5028079303932 3.42547312655469 -2.01129119479245 12.7182239912349
0.966858055171433 20.7523681606053 -3.26235535862352 1.39243236562554 19.5961882283878
-1.81179403306824 21.1571205274418 2.15218069927104 -1.701861780209 9.3132576191919
-1.8131700961939 21.1731894253804 1.98662833778865 -1.54714707291727 5.42172685104767
0.327861637090903 21.1317457347249 -2.97994250668297 1.39243236562554 5.71134723139368
0.974459274047965 20.915518575241 -4.13880903705969 1.39243236562554 5.71134723139368
-7.0418552260945 20.4362703817737 1.34389564026879 -1.85657648750073 11.6752460268812
-2.66953672370173 21.343830196948 2.51980432550399 -1.85657648750073 11.6752460268812
-1.83172100995031 21.3898166529102 2.85577823557118 -1.85657648750073 11.6752460268812
6.20035352646335 20.6955249945263 -1.51188259530239 -1.85657648750073 11.6752460268812
6.88663633398923 20.5303747936881 -0.335973910067197 -1.85657648750073 11.6752460268812
7.38942456807724 20.3513477596279 0.503960865100798 -1.85657648750073 11.6752460268812
7.2180045193145 20.4017118881428 0.839934775167995 -1.701861780209 69.9859539615391
7.2180045193145 20.4017118881428 0.839934775167995 -1.54714707291727 29.0759920491356
7.32459854966179 20.7030002414989 0.681686194339243 -1.85657648750073 21.1072819914946
7.32261328046398 20.6973888720289 0.852107742924053 -1.701861780209 148.331700467113
7.32018610915328 20.6905284648829 1.02252929150886 -1.54714707291727 57.5233389066707
-11.9814142378073 18.1594128890471 -3.06758787452659 -0.928288243750363 9.0976393429993
-11.0653976068596 18.9536294316122 1.02252929150886 -0.928288243750363 9.0976393429993
-8.28485546815053 20.6522761277563 1.20999299495215 -2.63015002395936 5.38095737368045
6.39548485728696 21.3468338782923 0.172856142136022 -1.85657648750073 5.9589661509488
7.25646274919982 21.0590859931897 0.69142456854409 -1.85657648750073 5.9589661509488
8.52737696992337 20.266388849901 3.62997898485647 -1.85657648750073 5.9589661509488
7.42923567179982 20.9987573878061 0.69142456854409 -1.701861780209 38.9630790175048
8.58410812422204 20.4012176063844 2.59284213204033 -1.701861780209 38.9630790175048
7.42184969021818 20.9778808882366 1.20999299495215 -1.54714707291727 18.5674162449817
-12.3611156988797 18.3602671764409 -2.59284213204033 -0.928288243750363 10.3756889558515
-11.223474715529 19.2243955663496 1.03713685281613 -0.928288243750363 10.3756889558515
6.66654607772186 25.1767105940209 -0.606213794251685 -2.32072060937591 9.01334006514707
8.46142348615101 24.5560200580232 2.02071264750561 -2.32072060937591 9.01334006514707
8.46628765893115 24.5701364445331 1.81864138275505 -2.16600590208418 9.20424088573514
8.56336834742994 24.8518757213729 2.04505858301773 -2.16600590208418 5.85914852521422
15.5405748873055 21.294424399829 -0.409011716603544 2.16600590208418 5.02696400956826
-10.2586342717513 25.5724615219109 1.92819809255957 -2.47543531666763 6.82580619393268
7.02824958017467 26.5427109630171 2.99941925509267 -2.47543531666763 6.82580619393268
8.56873803310078 26.2545508331557 -0.428488465013237 -2.47543531666763 6.82580619393268
-10.0099312202488 25.5678132501273 2.99941925509267 -2.32072060937591 7.71515950619389
7.04427765111412 26.6032421734398 2.35668655757281 -2.32072060937591 7.71515950619389
8.56873803310078 26.2545508331557 -0.428488465013237 -2.32072060937591 7.71515950619389
6.92850585473801 27.0401131364063 1.08339413028915 -2.47543531666763 17.1805728643781
8.45047421625539 26.6258359525244 -0 -2.47543531666763 17.1805728643781
7.1329566420771 26.9381450249637 1.95010943452048 -2.32072060937591 20.9835419495869
8.66715304231323 26.5560937035449 -0 -2.32072060937591 20.9835419495869
8.54542336475265 26.9250026486201 -0 -2.47543531666763 12.3928507514043
8.76427311999736 26.8536689131765 0.219113419609042 -2.32072060937591 21.6882896416606
14.7370158678613 23.7374921189206 4.1631549725718 4.33201180416836 6.69620420718827
20.5743436822049 19.3118622948197 1.31468051765425 4.33201180416836 6.69620420718827
8.86085410241103 27.1495923388315 0.443096026320506 -2.32072060937591 7.19177879701821
-23.6799508786796 15.9155381078978 1.32928807896152 4.17729709687663 5.50288486468157
-23.8918895366735 15.5751069164952 1.55083609212178 4.33201180416836 40.3489742491189
-23.8918895366735 15.5751069164952 1.55083609212178 4.48672651146009 24.4891850627465
-24.1639100267598 15.7524368932669 1.34389564026879 4.17729709687663 8.65374160219215
-24.1544377733403 15.7462619375556 1.56787824698026 4.33201180416836 64.2958455195984
-24.1639100267598 15.7524368932669 1.34389564026879 4.48672651146009 37.4250327651392
-24.416986010007 15.917416958616 1.58492040183874 4.33201180416836 12.2103912509157
-24.4265612227028 15.9236590334111 1.35850320157606 4.48672651146009 8.15598644927289
-23.767368546533 16.9326947283525 0.679251600788033 4.48672651146009 8.15598644927289
8.67867782315064 31.7429990329867 1.78942626014051 -2.63015002395936 5.04637082377019
-5.58639190816068 32.2565957776461 5.93553907785383 -0.154714707291727 7.16136353898971
5.02906409647019 32.0253886412155 7.48394057642439 -0.154714707291727 7.16136353898971
16.9703052504113 28.4758965974853 2.8387360807127 0 5.42156544985659
6.85328593146338 31.9979941432582 7.55454378940953 -2.78486473125109 5.78556228053483
17.1413002464712 28.7628234237644 2.60501509979639 -0.154714707291727 22.8061677070362
-20.1620298632027 26.5335714806013 4.16802415967422 0 15.7407583254958
17.1413002464712 28.7628234237644 2.60501509979639 0 15.7407583254958
-20.4579179411903 26.3833871865324 3.64702113971495 0.154714707291727 6.66857237443553
17.0285224210817 29.1677095757502 2.89229713883936 -0.154714707291727 18.2237247727498
-20.5204799172206 26.4640697291796 5.25872207061702 0 15.1705514224926
-20.6308762016514 26.6064413979127 3.94404155296276 0.154714707291727 5.39331701464251
-20.3953116765544 26.8405742829822 5.83815533580537 0 6.16703799422259
-27.8443565495557 54.0979625139716 6.64644039480762 -3.403723560418 5.12635440099926
-17.4462929904963 58.2321945201395 7.12118613729387 -3.403723560418 5.12635440099926
-12.8768895383343 57.874570418035 15.1918637595603 -3.403723560418 5.12635440099926
8.50832491663182 60.342572782202 5.6969489098351 -3.403723560418 5.12635440099926
-27.7356480494916 53.8867560401948 8.54542336475264 -3.24900885312627 5.58608531456936
-17.3737858638267 57.9901804082234 9.02016910723891 -3.24900885312627 5.58608531456936
-12.9028699387338 57.9913380976782 14.717118017074 -3.24900885312627 5.58608531456936
8.03564019904116 60.4073353944194 5.6969489098351 -3.24900885312627 5.58608531456936
8.0768486103183 60.7171166015703 5.72616403244963 -3.403723560418 17.7217586839536
10.4951247488633 60.6002948281367 1.43154100811241 -3.403723560418 17.7217586839536
8.07071887457669 60.6710367630446 6.2033443684871 -3.24900885312627 21.7032245963902
8.07071887457669 60.6710367630446 6.2033443684871 -3.09429414583454 30.7402881018991
10.963255475104 60.4665401454819 2.86308201622482 -3.09429414583454 30.7402881018991
8.11805702159543 61.0268978087211 5.75537915506417 -3.403723560418 12.2072146663108
10.0643359273354 60.9611997544762 2.39807464794341 -3.403723560418 12.2072146663108
8.11189601169188 60.9805828689785 6.23499408465285 -3.24900885312627 19.9575084203981
11.0191904520178 60.7750429013262 2.87768957753209 -3.24900885312627 19.9575084203981
8.09807834028721 60.8767095383867 7.19422394383022 -3.09429414583454 20.9096731283675
11.0148709290464 60.7512190827759 3.35730450712077 -3.09429414583454 20.9096731283675
8.2004738441497 61.6464602230229 5.81380940029325 -3.24900885312627 8.24760880637293
8.20619534907682 61.6894712163641 5.32932528360215 -3.09429414583454 5.0185640601775
8.24743251163499 61.9994685591599 5.35610581266548 -3.09429414583454 5.20114780985452
-33.1830388450698 53.4492281293166 7.86860635751583 -3.24900885312627 7.07442437159441
-28.7911660567518 55.9374902163629 7.86860635751583 -3.24900885312627 7.07442437159441
-18.5247568806042 60.0565251329153 8.36039425486056 -3.24900885312627 7.07442437159441
8.29575971126745 62.3627647352654 7.86860635751583 -3.24900885312627 7.07442437159441
10.3076431570369 62.4349483195709 3.93430317875792 -3.24900885312627 7.07442437159441
8.33682782864997 62.6714912933607 7.90755985433521 -3.403723560418 10.0362392882773
11.3452111975967 62.5731718006822 3.95377992716761 -3.403723560418 10.0362392882773
8.33682782864997 62.6714912933607 7.90755985433521 -3.24900885312627 16.2205027151961
11.3452111975967 62.5731718006822 3.95377992716761 -3.24900885312627 16.2205027151961
8.34472032019444 62.7308225192513 7.41333736343926 -3.09429414583454 5.15010862915512
-30.8735611852062 58.7158942633672 8.29709482252907 -3.403723560418 10.1835955974532
-28.3958406614002 58.8830476695093 14.0013475130178 -3.403723560418 10.1835955974532
-20.0868130106796 63.2897248538534 7.778526396121 -3.403723560418 10.1835955974532
-15.2374027631644 63.6836794401235 13.4827790866097 -3.403723560418 10.1835955974532
8.27160199516009 66.1341973211825 8.33604831934845 -3.403723560418 54.9744746077927
11.4341027820562 66.0220832308704 4.68902717963351 -3.403723560418 54.9744746077927
7.75462687046259 66.1968066977806 8.33604831934845 -3.24900885312627 18.9676531991749
11.4275334976474 65.984151278511 5.21003019959278 -3.24900885312627 18.9676531991749
8.30187124404357 66.3762099905052 8.89843942967832 -3.403723560418 67.8036019066154
10.9653725703024 66.4189145182319 4.71093852159441 -3.403723560418 67.8036019066154
7.79086344462363 66.5061375702002 8.37500181616783 -3.24900885312627 26.4175010006984
10.9590725874847 66.3807545726806 5.2343761351049 -3.24900885312627 26.4175010006984
10.9444692303683 66.2922998373966 6.28125136212588 -3.09429414583454 5.81811906127362
8.34048459866703 66.6849365486006 8.93982752004892 -3.403723560418 11.3440212192187
11.0100450181242 66.6895022683675 5.25872207061702 -3.403723560418 11.3440212192187
0.072897052029964 3.13182964611194 -0.194767484096927 0 5.74508144999099
1.77923482726889 10.777093540833 2.89229713883936 -0.934395403248721 5.42541660154774
7.31237054987011 7.82899010608608 -3.59346008158829 -0.934395403248721 5.42541660154774
-7.35222270402998 8.38433276926783 -3.24287861021382 -0.830573691776641 7.92629398995187
7.57486869891997 8.1100337700746 -3.42303853300348 -0.830573691776641 7.92629398995187
8.39346024529839 8.42324825367003 -0.925145549460401 -0.726751980304561 8.19974198137295
-12.7116244459119 15.4218473168482 -2.02558183460803 0.5191085573604 26.5930878855127
-12.7212789636706 15.4335602571908 -1.86976784733049 0.62293026883248 24.1312054177332
9.33666626889641 18.1399279570812 -0 -1.86879080649744 7.15426058276666
0.470095729652401 20.196423608884 -2.84847445491755 0.41528684588832 13.8145335624958
0.469561780103426 20.1734838742797 -3.0067230357463 0.5191085573604 117.813896188101
0.469561780103426 20.1734838742797 -3.0067230357463 0.62293026883248 104.565796867706
9.48002209146381 18.4184496712249 0.160683174379964 -1.86879080649744 5.0199935040947
0.477327971647053 20.5071378182515 -2.89229713883936 0.41528684588832 16.1460514134286
0.476785807489632 20.4838451646532 -3.05298031321932 0.5191085573604 126.596231861908
0.317857204993086 20.4869276425955 -3.05298031321932 0.62293026883248 111.95609130183
-8.76346365192632 18.9985161112427 -2.12053098310528 0.41528684588832 5.18046567934058
-0.481502904605617 20.6865028055323 -3.75170866241704 0.41528684588832 5.18046567934058
0.322286018390477 20.7723790282794 -3.26235535862352 0.41528684588832 5.18046567934058
0.322286018390477 20.7723790282794 -3.26235535862352 0.5191085573604 56.4754628540269
0.966858055171433 20.7523681606053 -3.26235535862352 0.5191085573604 56.4754628540269
0.966858055171433 20.7523681606053 -3.26235535862352 0.62293026883248 40.3519293863036
-0.165148468389936 21.2906303345129 -1.48997125334149 0.5191085573604 13.7688389915157
0.328855973209632 21.1958339221148 -2.48328542223581 0.5191085573604 13.7688389915157
0.981288772412798 21.0621049988233 -3.31104722964775 0.5191085573604 13.7688389915157
-0.165372975223396 21.3195733337752 -0.993314168894324 0.62293026883248 9.53104768627174
0.328544939060096 21.175786762523 -2.6488377837182 0.62293026883248 9.53104768627174
0.980047832036263 21.0354698051447 -3.47659959113014 0.62293026883248 9.53104768627174
-0.167257669301309 21.5625445541424 -2.01584346040319 0.5191085573604 6.95966560071586
-6.65225190933967 31.0593662315031 -6.01831525859502 -3.01082963269032 7.42293756863753
