VERSION .7
FIELDS x y z velocity SNR
SIZE 4 4 4 4 4
TYPE F F F F F
COUNT 1 1 1 1 1
WIDTH 189
HEIGHT 1
VIEWPOINT 0 0 0 1 0 0 0
POINTS 189
DATA ascii
-1.29949387857492 2.69469606167982 -0.949491484972516 0 5.22839268070885
-0.849025683846214 2.91955659436635 -0.779069936387705 0 5.22839268070885
-0.492063346536065 2.9805018608896 -0.852107742924053 0 5.22839268070885
-0.0242865394691082 3.13097504919308 0.219113419609042 0 5.22839268070885
0.0729300657407619 3.13324799315515 -0.17042154858481 0 5.22839268070885
0.482666932793231 3.07365263405891 0.413880903705969 0 5.22839268070885
-0.567159118186103 9.12229703775727 2.26417200262677 3.55843826770973 5.20592874771931
5.47673788490853 7.5044830512113 1.5337939372633 3.55843826770973 5.20592874771931
5.66646163677586 7.76445143206516 1.50944800175118 3.403723560418 7.82157048450989
5.72613608232597 7.68949855985018 1.6603928019263 3.55843826770973 10.0430550600418
5.69196876301617 7.64361603997127 1.96228240227653 3.71315297500145 5.29796346957698
5.94008142494109 7.97680091876606 1.40232588549787 3.403723560418 7.13255721991557
5.90260277088676 7.92647168239576 1.79186085369172 3.55843826770973 8.49437003105368
0.193615690913902 12.4791591567368 1.36337238867849 1.701861780209 12.5989900241923
6.4271336213314 10.784625834283 0.0973837420484629 1.701861780209 12.5989900241923
7.20618012088672 10.2804265007474 0.0973837420484629 1.701861780209 12.5989900241923
0.19326172885888 12.4563451544253 1.55813987277541 1.85657648750073 10.2366079419866
6.42655352482558 10.7836524417675 0.194767484096926 1.85657648750073 10.2366079419866
7.1087993084423 10.3480033515757 -0.0973837420484629 1.85657648750073 10.2366079419866
-8.68800479027816 8.91086409334202 -1.65552361482387 2.01129119479245 5.15111896993709
-7.9833045399517 9.68541072172968 -0.29215122614539 2.01129119479245 5.15111896993709
-7.19858833325372 10.2695959617571 0.584302452290779 2.01129119479245 5.15111896993709
-2.62936103530851 12.2764874907748 -0 2.01129119479245 5.15111896993709
-1.6550753314534 12.4419073245795 0.29215122614539 2.01129119479245 5.15111896993709
0.855533018580015 12.2253266107055 -2.72674477735697 2.01129119479245 5.15111896993709
2.19731012775522 12.1190043736279 2.43459355121158 2.01129119479245 5.15111896993709
7.54434291480923 9.92848256660902 1.46075613072695 2.01129119479245 5.15111896993709
6.25650265697227 11.1703981141658 -1.29763836279577 1.54714707291727 6.88516753303539
6.58781196186468 11.0542414801401 0.0998183355996745 1.54714707291727 6.88516753303539
6.58781196186468 11.0542414801401 0.0998183355996745 1.701861780209 15.9568790193152
7.28586162871324 10.6057461016665 0.199636671199349 1.701861780209 15.9568790193152
6.68460870960828 10.9891797711994 0.3992733423987 1.85657648750073 12.985851002873
7.38566795239425 10.5364860813626 0.199636671199349 1.85657648750073 12.985851002873
0.873703859932865 12.4849828314538 -2.99455006799024 2.01129119479245 7.58776049580954
7.48614995666441 10.4667607201307 0.0998183355996745 2.01129119479245 7.58776049580954
6.73873807444638 11.3074930458792 0.715770504056204 1.54714707291727 5.41050620310583
6.3389187040325 11.5567557839847 -0.204505858301772 1.701861780209 6.96176132931137
6.73873807444638 11.3074930458792 0.715770504056204 1.701861780209 6.96176132931137
7.35866644989277 10.9300070781303 0.409011716603546 1.701861780209 6.96176132931137
6.84909115104392 11.2595811060664 0.30675878745266 1.85657648750073 5.07529956151683
-1.97730024345823 13.2702075304253 1.46562531782937 0.928288243750363 7.52544619119264
5.96557299616512 12.1024578188209 -0.314062568106295 0.928288243750363 7.52544619119264
6.69818722376435 11.7128918011016 0.314062568106295 0.928288243750363 7.52544619119264
7.09279196000609 11.4246394766365 1.15156274972308 0.928288243750363 7.52544619119264
6.3693568458653 11.1378773220226 4.18750090808392 1.08300295104209 6.02010306683692
-7.83240897878742 10.9508827792302 -0.942187704318882 1.23771765833382 5.98149631270267
6.48359341096434 11.820518475099 -0.628125136212587 1.23771765833382 5.98149631270267
6.49043114942027 11.8329846506629 0.104687522702098 1.39243236562554 6.29323878538254
6.85499042648062 11.9870882196439 0.214244232506618 0.773573536458636 8.02801038719205
6.84570217086616 11.9708461634877 0.749854813773166 0.928288243750363 13.4551583423508
-8.56873803310078 10.8285689845316 -0.214244232506618 1.23771765833382 5.40938166738917
-8.02545320937071 11.2207875743002 -0.642732697519857 1.23771765833382 5.40938166738917
6.53366275023934 12.1652138821642 -0.214244232506618 1.23771765833382 5.40938166738917
-8.20463239583569 11.4713069576432 -0.766896968631647 0.773573536458636 8.6106340103831
7.01078566344609 12.2595220428176 0.219113419609041 0.773573536458636 8.6106340103831
-8.30599649843503 11.3812658658882 -0.986010388240691 0.928288243750363 10.2959460035615
6.87210858651032 12.2695047063635 1.31468051765425 0.928288243750363 10.2959460035615
-8.3869575601876 11.7262248900352 -0.783939123490128 0.773573536458636 7.66675828675042
-8.49493646322511 11.6401602649374 -0.895930426845863 0.928288243750363 5.8713995881308
-9.19279185800645 16.4128668146826 0.876453678436169 -0.618858829166909 6.33467633389293
-8.61612746080153 16.7400147875739 0.438226839218086 -0.618858829166909 6.33467633389293
-12.653406286273 13.8375003315018 -1.75290735687234 1.701861780209 6.95457834746402
-12.653406286273 13.8375003315018 -1.75290735687234 1.85657648750073 32.0900071135804
-12.6622346208043 13.847154813405 -1.60683174379964 2.01129119479245 17.8747618354326
-8.61333286070852 17.098733123129 0.148510206623906 -0.773573536458636 6.37188194180435
-8.16781564377532 17.3159742721757 0.148510206623906 -0.773573536458636 6.37188194180435
-9.35360955702268 16.6999917182121 0.44553061987172 -0.618858829166909 6.39014836529862
-8.76183859968625 17.02311257492 0.148510206623906 -0.618858829166909 6.39014836529862
-8.31431960624237 17.240992564781 0.44553061987172 -0.618858829166909 6.39014836529862
-0.441166761673791 18.9535667714143 -2.67318371923031 1.701861780209 60.211863348669
-0.441640243505808 18.9739086699837 -2.52467351260641 1.85657648750073 270.634061683638
-0.442086204764691 18.9930682196869 -2.3761633059825 2.01129119479245 127.078760285565
-0.447889697944806 19.2424000031591 -2.86795120332724 1.701861780209 114.561088127313
-0.448399003668444 19.2642809807817 -2.71700640315212 1.85657648750073 473.190942066236
-0.6002086418331 19.3357111983205 -2.11322720245165 2.01129119479245 219.331996309707
-0.454567593102989 19.5292981622427 -3.06758787452659 1.701861780209 33.9583331220336
-0.455631245663096 19.5749951901491 -2.76082908707393 1.85657648750073 155.971554953271
-3.61675831964098 19.0887070201701 -3.68110544943191 2.01129119479245 54.788548674607
-0.456580834429107 19.6157917678734 -2.45407029962127 2.01129119479245 54.788548674607
-1.39962339897531 20.0002253716156 -1.24651189822033 1.85657648750073 13.9865877463558
-8.35326255521775 18.9506347959495 0.482049523139894 -1.23771765833382 6.20312391017993
-8.73505887626404 19.8167972802193 0.167986955033599 -1.23771765833382 5.27617022620185
-8.86165393244178 20.1039972408022 -0.17042154858481 -1.23771765833382 5.13696020392294
-8.46765746783291 20.6070203141467 -0.518568426408068 -1.54714707291727 5.07786508223289
-7.42923567179982 20.9987573878061 -0.69142456854409 -1.54714707291727 5.07786508223289
-9.1588948121458 20.3092381698637 -0.518568426408068 -1.39243236562554 9.542876670063
-8.98824898861952 20.3911972013851 -0.172856142136022 -1.23771765833382 6.3369704964102
-8.58821243772146 20.9004047268845 -0.350581471374466 -1.54714707291727 5.10542438158239
-9.28789333062673 20.59528377789 -0.525872207061703 -1.39243236562554 8.09980045803874
-8.55195735210173 20.8121737977645 -2.1034888282468 -1.39243236562554 8.09980045803874
7.06383608964801 26.6771060815112 4.33357652115661 -1.54714707291727 6.18652596062407
7.17484168388595 27.0963270225897 3.50581471374468 -1.701861780209 5.50947889432839
6.94295231486621 27.0964938228742 3.94404155296276 -1.54714707291727 11.8612286951822
6.16766410737513 37.3584711781133 2.94585819696601 -2.01129119479245 14.1908599064177
7.94998786104487 37.1184957932098 1.17834327878641 -2.01129119479245 14.1908599064177
6.16374294472486 37.3347201048861 3.24044401666261 -1.85657648750073 22.9015138990869
6.2103499818834 37.6170259542436 3.56424495897375 -2.01129119479245 16.5719369523656
8.01569024006177 37.4252602212529 1.18808165299125 -2.01129119479245 16.5719369523656
6.20563678171233 37.5884773903657 3.86126537222156 -1.85657648750073 27.860403636553
8.01351765642802 37.4151164275919 1.48510206623906 -1.85657648750073 27.860403636553
-9.36615904796006 39.1452191470216 4.39687595348812 -0.309429414583454 7.42280928555433
14.7249288801204 37.6110707900515 2.82656311295665 -0.309429414583454 7.42280928555433
14.8534233892018 37.9392772022209 2.21548013160254 -0.464144121875182 5.47214113986378
16.1394128293915 37.4705212791135 0.632994323315009 -0.464144121875182 5.47214113986378
16.7617294027896 37.1680166179687 1.58248580828753 -0.464144121875182 5.47214113986378
14.8390756156252 37.9026294783464 2.84847445491755 -0.309429414583454 16.2913518524268
16.1369844816707 37.4648834373959 0.949491484972519 -0.309429414583454 16.2913518524268
16.7617294027896 37.1680166179687 1.58248580828753 -0.309429414583454 16.2913518524268
18.803829186096 35.761460740275 5.6969489098351 -0.309429414583454 16.2913518524268
14.8107878178406 37.8303755222403 3.79796593989006 -0.154714707291727 5.47358171216048
16.7617294027896 37.1680166179687 1.58248580828753 -0.154714707291727 5.47358171216048
14.6425878510854 38.3369102342711 2.55145404166974 -0.309429414583454 6.36922252099468
15.9293086428419 37.8580147452802 1.9135905312523 -0.309429414583454 6.36922252099468
16.8850671614124 37.441509868692 1.9135905312523 -0.309429414583454 6.36922252099468
18.9042395861877 35.9524230461574 6.37863510417434 -0.309429414583454 6.36922252099468
-24.3678340273151 33.3899487789292 5.82841696160052 0.464144121875182 11.6064379798407
-24.5347299477953 33.6186373948315 3.2380094231114 0.618858829166909 11.9747431502551
-24.7192016015381 33.8714091045671 3.26235535862352 0.464144121875182 30.6359222577074
-24.7192016015381 33.8714091045671 3.26235535862352 0.618858829166909 39.3814945251625
-24.9036732552809 34.1241808143026 3.28670129413563 0.464144121875182 13.3143057697142
-24.831212359708 34.024891497536 4.60138181178989 0.618858829166909 20.1903281560838
14.0743853195541 41.9584237627146 -0 -0.773573536458636 7.58075014729311
14.0726916390215 41.953374578406 0.686555381441663 -0.618858829166909 9.77426006812802
14.1737772512846 42.2547300450464 0.345712284272043 -0.773573536458636 6.08243976531857
14.1703655584143 42.2445591386833 1.03713685281614 -0.618858829166909 9.56886495972389
14.2874639686853 46.3193900169007 4.15098200481574 -0.928288243750363 7.50597064910873
17.3251993657881 45.3604663077253 3.01889600350236 -0.928288243750363 7.50597064910873
14.4166323106514 46.7381486449172 2.27877956393404 -0.928288243750363 19.1031255141388
17.0723277362977 45.8348061149967 2.27877956393404 -0.928288243750363 19.1031255141388
-8.93844977146211 47.1757949585316 -11.0847044386663 -1.08300295104209 7.3198742729549
17.1817657346073 46.1286189747082 2.29338712524131 -1.08300295104209 7.3198742729549
-8.93844977146211 47.1757949585316 -11.0847044386663 -0.928288243750363 12.6195874289551
14.5138574190193 47.0533485798952 1.91115593770109 -0.928288243750363 12.6195874289551
17.1750304819494 46.1105365547548 2.67561831278152 -0.928288243750363 12.6195874289551
-32.677488233994 36.4947697084579 5.35123662556306 2.16600590208418 11.0737803957095
28.6595765115644 40.070387505366 1.14669356262066 2.16600590208418 11.0737803957095
33.5196059817096 35.1289833632764 8.4090861258848 2.16600590208418 11.0737803957095
-32.6177482881576 36.4280511299037 6.11569900064349 2.32072060937591 11.2035643839539
28.6362762243455 40.0378102082984 2.29338712524131 2.32072060937591 11.2035643839539
30.244594656918 38.2209933815793 7.26239256326415 2.32072060937591 11.2035643839539
33.2641751812328 34.8612885596646 10.3202420635859 2.32072060937591 11.2035643839539
43.2514176251462 21.9168839046252 8.79131731342501 2.32072060937591 11.2035643839539
-37.3024772497865 32.6580499201743 -1.15399734327429 2.16600590208418 32.7254180981421
-34.5938740359461 35.4812546076692 1.92332890545715 2.16600590208418 32.7254180981421
-33.0005498306243 36.8555703454667 3.46199202982287 2.16600590208418 32.7254180981421
-37.3080906520746 32.6629644134107 -0.769331562182857 2.32072060937591 31.8276585948804
-34.568851161121 35.4555898615999 2.69266046764 2.32072060937591 31.8276585948804
-33.0005498306243 36.8555703454667 3.46199202982287 2.32072060937591 31.8276585948804
-37.5442178081003 32.8696920362804 -0.77420074928528 2.16600590208418 24.7467135938317
-34.8222608789569 35.7154998881338 1.54840149857057 2.16600590208418 24.7467135938317
-37.5476067582553 32.8726590377103 -0.38710037464264 2.32072060937591 22.8450542572939
-34.801283462453 35.6939843719701 2.32260224785585 2.32072060937591 22.8450542572939
-31.8809379468831 37.8923392336336 6.19360599428226 2.32072060937591 22.8450542572939
-1.33251731042833 2.70330017798363 -0.876453678436169 0 5.15008394165674
-0.847254679651853 2.91346661726357 -0.803415871899821 0 5.15008394165674
-0.0242571544459852 3.12718678720807 0.267805290633274 0 5.15008394165674
0.0729300657407619 3.13324799315515 -0.17042154858481 0 5.15008394165674
6.89764309669246 9.45147399788292 -2.312863873651 -0.726751980304561 7.96315756244929
4.41889985873255 11.2869513159632 -1.70908467295053 -0.726751980304561 6.44799000798187
7.11029214411988 9.74285569366805 -2.08888126693954 -0.726751980304561 6.44799000798187
7.87698521769276 9.36225265719676 -0.379796593989007 -0.726751980304561 6.44799000798187
8.2446565845889 9.0161839145348 -0.759593187978014 -0.726751980304561 6.44799000798187
6.72444163200361 10.1917778335823 -2.9215122614539 -0.934395403248721 9.19184568770597
6.27652566896913 11.9368094697508 0.52343761351049 -1.14203882619288 5.3347066287103
-12.6851355548363 14.166973222646 -2.2276530993586 0.726751980304561 22.123295627914
-0.588222348898388 18.9495729750916 -2.67318371923031 0.726751980304561 22.123295627914
-0.738766283537183 19.0343141320209 -1.93063268611078 0.830573691776641 16.4840724726495
-0.596469645976408 19.2152595103276 -3.01889600350236 0.62293026883248 12.3813619462796
-0.596469645976408 19.2152595103276 -3.01889600350236 0.726751980304561 96.6304180655444
-0.750260802291374 19.3304704207407 -2.11322720245165 0.830573691776641 72.5909792497564
-1.37225120935229 19.6090844677297 -2.14731151216861 0.62293026883248 15.3633433574485
-0.605323660963575 19.5004914526978 -3.22096726825292 0.62293026883248 15.3633433574485
-1.37225120935229 19.6090844677297 -2.14731151216861 0.726751980304561 171.35745749836
-0.450683743699228 19.3624388124472 -3.98786423688457 0.726751980304561 171.35745749836
-1.37225120935229 19.6090844677297 -2.14731151216861 0.830573691776641 101.390909966398
-0.450683743699228 19.3624388124472 -3.98786423688457 0.830573691776641 101.390909966398
-1.39148444778394 19.8839220444241 -2.49302379644066 0.726751980304561 27.8527576383782
-0.459943073056112 19.7602414858816 -3.58372170738345 0.726751980304561 27.8527576383782
-1.39280176888786 19.902746193109 -2.33720980916312 0.830573691776641 17.3963452560713
-0.459943073056112 19.7602414858816 -3.58372170738345 0.830573691776641 17.3963452560713
-6.92309384663501 19.0670178912281 -5.54600410965998 -2.18025594091368 7.02610674784001
8.25491597955095 35.7574496819443 -6.95319918226027 -2.28407765238576 7.67037773874023
29.2505123873673 34.7659262718801 16.4968059030097 -0.62293026883248 22.0821661388987
-30.7701586248277 35.0896945943029 -14.8120671655712 -0.726751980304561 12.0369967700021
-30.7701586248277 35.0896945943029 -14.8120671655712 -0.62293026883248 84.8001016881177
-30.7701586248277 35.0896945943029 -14.8120671655712 -0.5191085573604 34.1050938059745
-41.7998757526345 20.2719613056176 16.4359410642294 -0.5191085573604 5.29199568016746
39.5982561547005 28.2111661595981 -8.02685493834458 -0.5191085573604 5.29199568016746
40.967894785868 25.0416275649251 -11.0847044386663 -0.5191085573604 5.29199568016746
