VERSION .7
FIELDS x y z velocity intensity
SIZE 4 4 4 4 4
TYPE F F F F F
COUNT 1 1 1 1 1
WIDTH 898
HEIGHT 1
VIEWPOINT 0 0 0 1 0 0 0
POINTS 898
DATA ascii
-5.655720 0.906797 9.123450 -12.165600 3.800000
-5.734990 0.943068 9.577920 -12.343200 7.130000
-6.313030 0.968960 9.204500 -11.988000 5.250000
-6.889150 1.947720 8.617550 -22.999200 4.740000
9.153800 0.062968 7.180590 -9.679200 9.580000
-7.154120 2.022630 8.948990 -22.999200 4.620000
9.492830 0.065300 7.446540 -9.679200 10.890000
-5.527120 1.479510 10.622200 -12.876000 4.910000
9.831860 0.067632 7.712490 -9.679200 7.700000
-5.726670 1.493990 11.005700 -12.876000 7.620000
-5.836220 1.545510 11.430500 -12.876000 2.430000
9.024590 0.877254 9.809220 -11.277600 6.460000
9.315700 0.905553 10.125600 -11.277600 5.250000
-5.887330 1.277510 12.403200 -13.053600 3.100000
-6.071310 1.317440 12.790800 -13.053600 4.710000
-5.573440 1.706580 13.441100 -13.408800 3.600000
9.126550 1.007360 11.416300 -11.810400 2.170000
-5.740930 1.675680 13.845100 -13.408800 5.020000
9.485280 1.036990 11.679300 -11.810400 3.990000
9.754160 1.114470 12.010400 -11.810400 4.350000
-5.245610 1.673390 14.962400 -13.675200 6.900000
-5.503830 1.768970 15.319700 -13.675200 6.330000
9.455010 0.873141 13.340000 -12.343200 4.780000
-5.745000 1.660440 15.705100 -13.675200 6.470000
9.598020 0.896118 13.765400 -12.432000 5.680000
-5.114330 1.543810 16.387200 -13.941600 4.540000
9.842450 0.972321 14.116000 -12.432000 7.250000
-5.242190 1.582400 16.796900 -13.941600 3.560000
10.088500 0.996629 14.468900 -12.432000 4.720000
-5.037530 1.621000 17.306800 -13.941600 5.640000
-9.285120 0.923129 15.506900 -12.432000 3.970000
-5.157470 1.659590 17.718900 -13.941600 5.730000
-9.506190 0.945108 15.876100 -12.432000 6.150000
-5.383600 1.639780 18.105100 -13.941600 6.320000
-5.505960 1.677050 18.516600 -13.941600 6.510000
-4.747290 1.714310 19.168000 -14.208000 6.480000
-5.628310 1.714310 18.928100 -13.941600 4.110000
-3.902590 1.704780 19.799500 -14.119200 2.850000
-8.944130 1.392520 18.116800 -12.964800 5.690000
1.311160 1.422150 20.592600 0.888000 3.920000
-5.609000 1.661360 19.838700 -14.030400 6.270000
1.338760 1.386630 21.025900 0.888000 8.510000
-6.001010 1.582040 20.181400 -14.030400 6.940000
1.531990 1.281920 21.452200 0.888000 17.620000
-5.453330 1.148870 20.811700 -14.119200 7.810000
1.557260 2.238970 21.806000 0.888000 18.170000
9.547010 1.714380 19.719400 -13.497600 14.460000
0.991105 1.264020 22.349200 0.976800 9.940000
-5.504480 1.194820 21.687300 -14.208000 9.000000
-5.610340 1.217800 22.104300 -14.208000 8.630000
-8.882740 1.781610 20.963900 -13.408800 9.220000
-5.411910 1.240780 22.596400 -14.208000 8.740000
-9.054550 1.671710 21.369300 -13.408800 11.680000
-5.504470 -1.775760 22.982900 -25.752000 9.410000
-8.885640 1.702660 21.904600 -13.497600 13.540000
-8.918120 1.733620 22.354800 -13.497600 13.510000
0.471549 2.067500 24.469600 0.888000 7.240000
0.767641 2.103770 24.891700 0.888000 10.570000
9.723040 1.872620 22.947000 -13.764000 8.180000
0.780876 2.140040 25.320800 0.888000 4.240000
-8.387430 1.904910 23.924000 -13.764000 9.760000
-4.157350 1.697910 25.461000 -14.474400 8.760000
-8.529590 1.937200 24.329500 -13.764000 3.970000
-4.658000 0.867406 26.292300 -14.474400 5.360000
-4.939370 0.797479 26.681600 -14.385600 5.270000
-4.067810 1.811110 27.215700 -14.474400 6.090000
10.904500 0.405112 25.326900 -13.764000 6.930000
10.727000 0.411442 25.869600 -13.852800 8.280000
-4.619610 -0.873429 29.358000 -14.474400 7.010000
-4.860410 -0.349814 29.766800 -14.474400 5.310000
10.185100 1.538550 28.349700 -14.030400 6.130000
10.108600 1.560530 28.833400 -14.119200 6.900000
-5.894100 1.871610 30.841800 -14.563200 7.750000
-8.359330 2.356920 30.232900 -13.675200 10.410000
-8.473840 2.389210 30.647000 -13.675200 10.830000
-16.985500 -5.519980 26.934100 -0.710400 6.910000
-16.530200 -3.134930 28.095900 -12.432000 6.450000
-18.053500 -2.453780 27.212300 -12.076800 6.190000
-16.107100 -2.665100 28.884700 -12.609600 6.990000
-16.747700 -3.176180 28.465600 -12.432000 5.150000
-18.277500 -2.792930 27.549900 -11.988000 9.700000
-16.965200 -3.217420 28.835300 -12.432000 8.360000
-16.497800 -3.631050 29.056500 -0.888000 6.710000
-16.081900 -3.677600 29.776600 -1.065600 6.930000
-18.484700 -3.782240 28.333800 -0.532800 6.450000
-10.945600 2.051080 32.623700 -13.852800 6.480000
-19.817000 -3.724150 27.959600 -0.976800 9.730000
-11.082400 2.076710 33.031500 -13.852800 11.710000
-11.219300 2.102350 33.439300 -13.852800 6.170000
-19.405900 -4.034460 29.250800 -0.444000 5.370000
-16.989700 -0.940080 31.457600 -12.787200 11.360000
12.197900 0.202896 35.447800 -14.119200 6.910000
19.982100 -1.448900 31.685800 -12.787200 9.360000
12.338200 0.087955 35.855600 -14.119200 9.400000
20.211700 -1.465550 32.050000 -12.787200 12.840000
12.198600 0.000000 36.358300 -14.119200 7.680000
12.411300 -11.413800 35.401400 -14.119200 9.760000
12.511700 -11.890600 35.687900 -14.119200 7.220000
-3.116030 1.690650 40.349200 -14.652000 8.890000
-2.913410 1.708630 40.795900 -14.652000 8.420000
13.417000 0.237878 41.853200 -14.208000 8.580000
13.548500 0.240210 42.263500 -14.208000 7.180000
-17.002600 -1.084340 41.914200 -13.497600 5.140000
-5.878230 1.200580 45.279700 -14.563200 7.440000
13.943300 0.105946 43.495000 -14.208000 7.040000
-5.415580 1.379770 46.634400 -14.563200 6.500000
14.246500 0.115941 47.911000 -14.296800 6.630000
14.368800 -0.428776 48.322400 -14.296800 8.380000
14.688700 1.097360 50.464100 -14.296800 8.110000
14.536800 0.123937 51.416000 -14.296800 7.660000
-26.734800 0.950133 46.252400 -12.609600 9.380000
14.650900 1.124350 51.819400 -14.296800 22.200000
14.698700 0.127935 53.160400 -14.385600 18.770000
14.813600 0.128934 53.575700 -14.385600 16.000000
14.928400 0.000000 53.991200 -14.385600 10.400000
13.417700 -0.136930 57.488100 -14.385600 9.750000
15.846900 -0.321835 57.312900 -14.385600 10.940000
15.733000 1.784830 58.657400 -14.385600 20.480000
15.844600 1.797490 59.073400 -14.385600 8.900000
15.368500 1.111040 60.550700 -14.385600 10.070000
15.124100 -0.145926 61.066200 -14.474400 10.140000
17.233200 -0.146925 60.952800 -14.385600 10.440000
16.274100 0.000000 62.107300 -14.385600 9.670000
24.909100 1.310260 69.333500 -14.119200 8.660000
25.054800 1.317930 69.739000 -14.119200 8.550000
25.200500 1.325590 70.144400 -14.119200 8.310000
14.800900 0.914514 77.447800 -14.563200 6.990000
14.881100 1.164700 77.867900 -14.563200 6.350000
-15.044300 0.433777 78.721600 -14.385600 7.950000
-15.124800 0.685309 79.143100 -14.385600 6.970000
-15.205700 0.688974 79.566300 -14.385600 9.420000
-15.286600 0.692639 79.989600 -14.385600 10.930000
-15.368000 0.189903 80.415500 -14.385600 8.560000
-14.266500 0.496745 90.664800 -14.474400 5.270000
-14.333600 0.213891 91.091500 -14.474400 12.010000
-14.400600 0.000000 91.517400 -14.474400 14.490000
-13.758600 0.000000 92.051900 -14.474400 12.820000
-14.534600 0.216889 92.368500 -14.474400 10.440000
-14.601500 0.217889 92.794200 -14.474400 17.440000
-13.949600 -0.218888 93.330100 -14.563200 18.990000
-14.204200 0.520066 95.033600 -14.563200 16.160000
-13.715900 0.522398 95.540700 -14.563200 7.950000
-13.777100 0.524730 95.967200 -14.563200 9.980000
-13.398600 0.227884 97.327000 -14.563200 13.870000
-12.703500 0.228883 97.854700 -14.563200 12.950000
-12.759000 0.229883 98.282000 -14.563200 6.550000
-12.814500 0.230882 98.709300 -14.563200 10.060000
12.974100 2.995260 142.871000 -14.740800 4.540000
13.013800 2.559230 143.308000 -14.740800 7.340000
13.052800 2.566890 143.737000 -14.740800 7.040000
-5.956760 0.927303 4.880140 -9.146400 2.680000
-6.148570 1.022490 4.616080 -8.613600 3.770000
-6.350040 1.070030 4.323270 -8.169600 4.270000
-6.237770 0.978820 5.211590 -9.235200 4.200000
-6.385440 1.079300 5.008980 -8.880000 3.810000
-6.314550 1.005410 6.402980 -10.300800 6.530000
-6.556830 0.965828 6.778040 -10.389600 6.730000
-6.274080 1.215310 7.575020 -11.188800 7.710000
-6.538210 0.948728 7.387400 -10.744800 6.770000
-6.408820 1.268150 8.016700 -11.277600 7.510000
-6.802230 1.268150 7.685710 -10.833600 7.000000
-6.740020 1.320990 8.299030 -11.188800 5.350000
-5.508640 1.031230 9.199900 -12.254400 5.070000
-5.580830 1.072470 9.655070 -12.432000 7.540000
8.997110 0.278831 7.370970 -9.501600 8.620000
-5.643490 1.042070 10.120400 -12.609600 8.080000
9.181320 0.289158 7.822320 -9.856800 9.840000
9.430730 0.299485 8.192930 -9.856800 14.410000
-9.724100 1.088160 8.447790 -9.324000 8.370000
-9.961690 1.155300 8.824030 -9.412800 11.410000
-6.082400 1.160700 12.320200 -12.964800 3.920000
-5.255700 1.362410 12.674900 -13.408800 4.440000
9.148750 0.505636 10.874000 -11.455200 7.210000
-5.335730 0.846069 13.153500 -13.320000 5.320000
9.426970 0.475674 11.204700 -11.455200 5.970000
10.098400 0.489664 11.190800 -11.188800 5.610000
10.072600 0.503655 11.786500 -11.277600 4.570000
9.217310 0.332806 13.004600 -12.076800 7.460000
-5.681120 1.526210 14.818400 -13.586400 4.160000
9.455010 -0.873141 13.340000 -12.076800 7.320000
-5.023490 1.384470 16.429500 -13.941600 3.090000
-5.246340 1.419080 16.810200 -13.852800 6.020000
10.000600 0.487029 15.590500 -12.520800 4.640000
-9.978220 1.331170 15.555600 -12.254400 5.780000
-9.484770 0.498355 16.409100 -12.520800 3.630000
-5.382030 1.517470 19.465000 -13.941600 6.510000
-5.496540 1.549760 19.879200 -13.941600 4.500000
-4.628430 1.516920 20.544600 -14.208000 3.670000
-4.723910 1.481410 20.968500 -14.208000 4.670000
10.280400 -1.120940 19.390700 -13.142400 5.890000
-5.842680 1.511040 21.131000 -13.941600 6.420000
10.175900 -1.142920 19.930100 -13.231200 4.160000
-5.957240 1.540660 21.545400 -14.030400 8.370000
10.179000 -1.004480 19.936000 -13.320000 9.940000
10.683500 -1.164900 20.151100 -13.142400 10.410000
10.885100 -1.186880 20.531300 -13.142400 13.010000
11.077100 -1.556420 20.893600 -13.142400 11.390000
10.313800 1.208860 21.303300 -13.408800 7.150000
18.546900 -0.212556 16.750400 -10.034400 10.800000
-8.626880 1.230840 22.502000 -13.497600 6.620000
18.866700 -0.216221 17.039200 -10.034400 7.970000
-8.604150 1.252820 22.970800 -13.497600 8.530000
-12.995700 0.888693 21.329200 -12.343200 8.340000
18.849000 -0.219885 17.694500 -10.212000 9.260000
-13.221100 0.825434 21.699200 -12.343200 8.980000
-8.387430 1.904910 23.924000 -13.675200 8.780000
-8.339250 1.888410 24.855300 -13.764000 7.020000
-8.281000 1.919370 25.327400 -13.764000 6.630000
-4.934470 1.447580 26.655200 -14.296800 5.650000
-5.012800 1.470550 27.078300 -14.296800 8.120000
11.820900 0.691915 26.330200 -13.586400 8.510000
11.791000 0.702242 26.814900 -13.586400 6.320000
18.649400 -0.536365 23.700600 -11.721600 7.010000
19.100600 -0.544028 23.892700 -11.721600 9.120000
-3.578760 0.167914 30.817200 -14.385600 7.710000
-7.961870 1.677350 30.385100 -14.030400 8.250000
11.486700 -0.278521 30.666500 -13.852800 4.260000
11.637900 -0.282186 31.070000 -13.852800 4.750000
-16.565600 -1.999800 29.175800 -12.432000 7.440000
-16.323400 -1.920330 29.810300 -12.698400 11.630000
-17.231400 -2.025440 29.287700 -12.343200 6.730000
-16.355200 -1.944640 30.282700 -12.698400 7.080000
-8.816220 0.815840 32.869500 -14.030400 12.470000
-8.927810 0.826167 33.285600 -14.030400 11.790000
-10.318100 1.802300 33.745600 -13.941600 6.390000
-10.442700 1.907120 34.153000 -13.941600 9.330000
-17.627700 -0.307839 31.611500 -12.520800 7.050000
-16.848700 -0.658963 32.999100 -12.787200 9.280000
-17.553900 -0.985385 33.109900 -12.698400 7.290000
11.920400 0.985385 35.528900 -14.030400 6.510000
-17.761100 -0.322499 33.500800 -12.698400 8.780000
12.055200 1.231160 35.930800 -14.030400 6.250000
-18.223600 -0.326163 33.742000 -12.698400 5.920000
12.198200 0.326163 36.357000 -14.030400 5.810000
-18.428300 -0.329828 34.121200 -12.698400 9.090000
12.334400 0.569689 36.762800 -14.030400 8.840000
12.470000 0.818524 37.167200 -14.030400 7.080000
11.800100 1.654680 37.809700 -14.119200 8.570000
19.514000 -0.712599 34.994200 -12.964800 8.490000
11.707300 1.672660 38.288900 -14.119200 7.360000
-16.586700 -0.720262 36.945700 -13.142400 10.020000
-17.826700 -1.455620 36.821200 -12.964800 7.440000
-16.357000 -0.773898 40.322700 -13.408800 8.100000
-17.720600 -0.519724 41.157900 -13.320000 11.020000
13.810300 0.664638 43.080100 -14.030400 6.570000
13.942400 0.529718 43.492200 -14.030400 10.610000
14.073900 0.534716 43.902500 -14.030400 7.270000
14.205400 0.539713 44.312800 -14.030400 7.340000
14.337000 0.544710 44.723100 -14.030400 6.520000
-15.846000 -3.084540 44.106600 -13.675200 7.060000
-15.991300 -3.112840 44.511300 -13.675200 7.070000
14.363400 0.000000 46.975800 -14.208000 6.210000
14.489400 0.000000 47.387800 -14.208000 12.480000
14.615300 -0.115941 47.799800 -14.208000 19.790000
14.367100 0.896496 48.316500 -14.208000 21.720000
30.728400 0.121938 42.653700 -12.165600 19.270000
30.980300 0.122937 43.003300 -12.165600 9.050000
14.812300 0.122937 50.888700 -14.208000 11.220000
15.043600 1.915290 51.683600 -14.208000 7.750000
-26.070600 1.133340 47.611000 -12.609600 9.920000
15.168300 1.427110 52.112000 -14.208000 7.700000
-26.646600 1.142340 47.785000 -12.609600 12.170000
15.289600 1.311540 52.528600 -14.208000 16.770000
14.927900 0.476418 53.989200 -14.296800 19.030000
14.623000 0.480083 54.518800 -14.296800 11.560000
14.734600 0.483748 54.935000 -14.296800 7.990000
14.845800 0.664647 55.349500 -14.296800 18.030000
15.615800 0.860864 56.477000 -14.296800 12.860000
15.849700 0.898843 59.092500 -14.296800 12.430000
15.944700 0.924163 60.850300 -14.296800 9.220000
15.581900 0.734609 61.391500 -14.296800 9.410000
15.640400 0.955812 63.150900 -14.385600 11.270000
14.769300 1.611030 65.558000 -14.385600 9.950000
18.137500 1.789550 65.597400 -14.385600 23.480000
-13.245600 -1.642010 67.200500 -14.296800 23.240000
-13.328900 -1.652330 67.623100 -14.296800 18.160000
15.044000 0.681645 78.719900 -14.474400 9.080000
15.125200 0.436109 79.144800 -14.474400 10.020000
15.205700 0.688974 79.566300 -14.474400 9.440000
-14.822900 1.196350 80.070800 -14.296800 8.990000
-14.280500 1.202680 80.607000 -14.296800 7.270000
-14.354900 1.463510 81.027100 -14.296800 5.620000
-14.430100 1.471170 81.451400 -14.296800 6.450000
-13.758600 0.000000 92.051900 -14.385600 9.010000
-13.822200 0.216889 92.477800 -14.385600 8.970000
-13.885900 0.217889 92.903900 -14.385600 11.300000
-13.949100 0.802581 93.327000 -14.385600 13.990000
-14.204400 0.222886 95.034800 -14.385600 12.810000
-14.268100 0.223886 95.460900 -14.385600 13.690000
-14.331600 0.524730 95.886000 -14.385600 9.970000
-13.838000 0.828235 96.391600 -14.385600 5.350000
-13.574700 0.538723 98.606400 -14.385600 5.930000
-12.869800 0.541055 99.135400 -14.474400 6.570000
-12.925300 0.543387 99.562800 -14.474400 5.390000
-12.980800 0.545719 99.990100 -14.474400 5.550000
13.091000 3.022240 144.158000 -14.563200 12.050000
13.129900 3.031240 144.587000 -14.563200 15.610000
13.168900 3.040230 145.016000 -14.563200 14.800000
-5.973110 0.810499 6.748900 -10.656000 4.370000
-5.865320 1.278770 7.336850 -11.277600 4.560000
-6.202860 0.849094 7.118300 -10.833600 3.840000
-5.680910 1.306520 8.015130 -11.721600 3.770000
-5.992190 1.363320 8.317670 -11.721600 5.680000
-5.646330 1.097530 9.108300 -12.254400 3.450000
-6.174900 1.420130 8.712090 -11.810400 3.810000
-5.945020 1.141430 9.427090 -12.254400 4.640000
-5.415890 1.292670 10.215400 -12.787200 7.060000
-6.080300 1.340540 10.334500 -12.432000 6.080000
-5.697960 1.340540 10.550100 -12.698400 5.460000
-6.489200 0.782090 10.650400 -12.343200 6.670000
-6.629110 0.769153 11.071200 -12.432000 7.840000
9.675560 0.189896 8.570580 -10.034400 6.340000
9.912290 0.196226 8.952170 -10.212000 13.480000
-5.965640 1.000880 11.909800 -12.876000 7.320000
-6.156620 1.075690 12.291100 -12.964800 7.120000
-6.275640 1.109310 12.711600 -12.964800 8.530000
9.680180 1.142920 10.937500 -11.188800 6.560000
9.609070 0.722688 11.601500 -11.544000 6.510000
-5.265840 1.443720 14.058400 -13.497600 4.020000
-5.165370 1.477130 15.010900 -13.675200 4.210000
-5.307930 1.416170 15.425100 -13.675200 4.460000
9.577580 1.414600 13.736100 -12.254400 6.720000
-5.452730 1.259180 15.845900 -13.675200 12.280000
-5.592540 1.291460 16.252200 -13.675200 18.280000
-9.735040 1.388320 15.704000 -12.254400 9.400000
-10.207900 1.420610 15.913700 -12.076800 11.400000
-5.282560 1.479070 18.148600 -13.941600 7.360000
-10.435500 1.557530 16.268500 -12.076800 3.930000
-5.645360 1.455000 19.395100 -13.852800 4.970000
-4.785540 1.582040 20.503700 -14.119200 6.120000
-4.882050 1.680770 20.917200 -14.119200 6.180000
-4.114450 1.578830 21.529500 -14.296800 6.650000
-5.218710 0.190567 21.789800 -14.119200 8.860000
-5.318420 0.406105 22.206100 -14.119200 6.250000
10.213500 1.217800 20.390200 -13.231200 8.660000
-5.414900 0.971223 22.608900 -14.119200 10.550000
-5.381980 0.989209 23.059100 -14.119200 10.200000
11.860000 -0.054972 20.518400 -12.876000 7.390000
11.914300 -0.055971 20.983900 -12.876000 6.310000
11.961300 -0.284849 21.450000 -12.964800 6.950000
19.159900 1.378640 17.304000 -10.123200 7.230000
-10.057700 -0.521696 22.873100 -13.231200 7.050000
-8.222000 0.539686 24.505900 -13.675200 8.540000
-8.022240 0.548681 25.024800 -13.764000 7.080000
-9.734420 0.853415 24.401000 -13.497600 9.700000
-8.139540 1.672050 25.390700 -13.764000 4.280000
-9.892960 0.949982 24.798400 -13.497600 5.900000
-4.367700 1.531410 26.749200 -14.385600 5.730000
-8.270820 1.699020 25.800200 -13.764000 5.110000
-4.437030 1.555710 27.173800 -14.385600 8.140000
-9.656250 1.640860 25.779600 -13.586400 7.340000
-4.719730 1.493530 27.567500 -14.385600 5.080000
-3.873030 1.516510 28.133600 -14.385600 6.150000
-4.096740 1.539480 28.536700 -14.474400 6.800000
-5.089960 -0.163249 29.730000 -14.385600 8.220000
-5.336890 -0.165582 30.124400 -14.385600 5.270000
-5.412130 -0.071963 30.549000 -14.385600 7.110000
-7.730670 1.410140 30.458300 -14.030400 6.500000
-7.657970 1.429460 30.920300 -14.030400 6.050000
10.915800 1.448780 30.383700 -14.030400 5.340000
10.645100 1.468090 30.935200 -14.030400 5.150000
10.786600 -1.384890 31.346400 -14.030400 6.450000
-17.474900 -1.299010 28.680700 -12.343200 8.440000
10.681600 -1.402880 31.836800 -14.030400 7.060000
-17.699000 -1.315670 29.048400 -12.254400 6.920000
10.818600 -1.420860 32.244900 -14.030400 6.610000
-18.357200 -2.076710 29.612700 -12.254400 5.840000
-10.044800 2.538520 33.780700 -13.941600 11.370000
-10.167300 2.569470 34.192700 -13.941600 10.250000
-10.298200 2.153630 34.632800 -13.941600 10.380000
-17.099300 -0.974058 32.862100 -12.787200 6.860000
-17.553900 -0.985385 33.109900 -12.787200 10.180000
12.679900 1.363680 36.167500 -14.030400 8.390000
12.333000 0.809529 36.758800 -14.030400 9.980000
12.471400 0.576019 37.171300 -14.030400 6.550000
11.807900 0.827518 37.834400 -14.119200 11.470000
11.714900 0.836513 38.314000 -14.208000 9.060000
-15.961900 -1.032710 40.011200 -13.408800 10.230000
-16.354800 -1.043040 40.317500 -13.320000 11.270000
-16.827700 -1.291160 40.582300 -13.320000 9.530000
13.811700 0.104946 43.084700 -14.030400 8.230000
13.942400 0.529718 43.492200 -14.030400 7.640000
-16.260400 -2.527510 44.450800 -13.586400 8.050000
-16.744400 -2.993520 44.703100 -13.586400 8.700000
13.475900 2.014390 46.297400 -14.208000 5.610000
-16.895200 -3.020490 45.105800 -13.586400 8.010000
14.000900 0.000000 47.085100 -14.208000 8.520000
13.848900 0.000000 47.579000 -14.208000 8.060000
14.367100 0.896496 48.316500 -14.208000 8.040000
14.491200 0.589686 48.733900 -14.208000 7.120000
14.614000 0.594684 49.146900 -14.208000 7.090000
14.736200 0.759586 49.557900 -14.208000 4.850000
30.476200 0.282188 42.303500 -12.165600 7.290000
30.728000 0.284520 42.653100 -12.165600 9.330000
14.419600 0.122937 51.001300 -14.208000 11.430000
14.536400 0.454430 51.414200 -14.208000 10.200000
14.651800 0.957795 51.822500 -14.208000 10.530000
-26.436800 1.133340 47.408700 -12.609600 15.390000
14.770400 0.629665 52.241900 -14.208000 15.750000
-26.646600 1.142340 47.785000 -12.609600 16.260000
14.583000 0.634663 52.741700 -14.208000 21.540000
15.527000 14.908500 50.781300 -14.208000 9.020000
14.927400 0.649655 53.987500 -14.296800 12.820000
15.042300 0.654652 54.402800 -14.296800 12.490000
15.157100 0.659649 54.818100 -14.296800 16.250000
14.845200 0.841874 55.347200 -14.296800 15.660000
14.956800 0.848204 55.763400 -14.296800 10.610000
16.820800 1.414810 56.568500 -14.208000 13.580000
13.901400 1.797490 59.560600 -14.385600 6.830000
14.000500 1.619660 59.985200 -14.385600 10.440000
16.758500 1.619660 59.273900 -14.385600 10.090000
16.530400 1.630980 59.784900 -14.296800 9.980000
16.180700 1.642310 60.326600 -14.296800 8.570000
16.296800 0.729612 60.759600 -14.296800 13.560000
16.054600 0.734609 61.269600 -14.296800 19.150000
15.538000 0.549713 62.737200 -14.296800 15.420000
17.454200 0.557043 63.125900 -14.296800 8.820000
17.078700 0.560708 63.674700 -14.296800 8.120000
14.301800 0.361481 65.239300 -14.385600 6.990000
14.394000 0.363813 65.660200 -14.385600 10.850000
14.486300 0.366145 66.081100 -14.385600 10.760000
14.578600 0.368477 66.502000 -14.385600 11.760000
24.940900 1.807240 71.140500 -14.030400 9.130000
15.044500 -0.185905 78.722500 -14.474400 11.560000
15.125300 0.186905 79.145800 -14.474400 12.220000
15.206200 0.187904 79.569000 -14.474400 8.440000
15.286900 0.440773 79.991300 -14.474400 5.750000
-15.367500 0.696304 80.412800 -14.296800 7.060000
-15.448400 0.699968 80.836000 -14.296800 5.390000
-15.528800 0.959490 81.256700 -14.296800 6.470000
-15.609600 0.964487 81.679900 -14.296800 6.350000
-13.758600 0.000000 92.051900 -14.385600 8.510000
-13.822200 0.216889 92.477800 -14.385600 8.450000
-13.885900 0.217889 92.903900 -14.385600 5.370000
-13.949600 0.218888 93.330100 -14.385600 5.870000
-14.735500 0.000000 93.645700 -14.385600 10.000000
-14.077000 0.000000 94.182700 -14.385600 13.480000
-12.869800 0.541055 99.135400 -14.474400 12.750000
-12.925000 0.853888 99.560600 -14.474400 9.290000
-12.980900 0.233881 99.991300 -14.474400 13.280000
-12.455700 0.234880 100.492000 -14.474400 15.400000
13.090100 3.469900 144.148000 -14.563200 6.150000
13.129000 3.480230 144.577000 -14.563200 5.850000
13.169700 2.589880 145.024000 -14.563200 5.000000
-6.228650 1.276080 6.438800 -10.300800 3.020000
-6.069310 0.994990 7.213880 -11.011200 3.950000
-6.473070 1.336850 6.795500 -10.389600 5.210000
-6.740810 0.857157 7.214480 -10.389600 6.770000
-5.805190 1.268150 8.464060 -11.899200 2.910000
-5.941140 1.210350 9.420940 -12.165600 3.880000
-5.952760 1.042070 9.941610 -12.343200 7.460000
-5.758850 1.340540 10.517000 -12.609600 9.360000
-6.252510 1.080670 10.261900 -12.254400 10.130000
9.273460 0.106278 8.375210 -10.123200 12.130000
-6.054310 1.273140 10.857100 -12.609600 9.060000
-6.492700 0.666344 10.656100 -12.254400 8.990000
-5.941730 1.556000 11.862000 -12.876000 6.640000
-5.422740 1.447260 12.594900 -13.231200 5.990000
-6.160820 0.948101 12.299400 -12.876000 5.850000
-5.418250 1.448740 13.066900 -13.231200 6.030000
-6.279920 0.977730 12.720300 -12.876000 3.960000
-5.483490 1.357360 13.517700 -13.320000 3.700000
-6.166770 0.962150 13.254600 -13.053600 5.600000
-5.416290 1.484970 14.460100 -13.497600 4.910000
-5.452030 1.526210 14.904200 -13.586400 5.490000
9.610990 1.243770 12.659800 -11.899200 6.150000
-5.510810 1.567460 15.339100 -13.586400 4.490000
9.873090 1.226890 13.005000 -11.988000 9.380000
-5.442990 1.608710 15.817600 -13.586400 5.560000
10.027400 1.311000 13.421800 -11.988000 11.120000
-5.458950 1.596890 16.270500 -13.675200 5.190000
10.044200 1.344610 13.942200 -12.076800 9.700000
-5.819840 1.636810 16.600300 -13.586400 5.100000
9.645880 0.682815 14.785500 -12.432000 5.170000
-9.746170 1.300220 15.193800 -12.165600 7.260000
-9.737260 1.331170 15.707500 -12.254400 11.340000
-4.802760 1.613540 20.053000 -14.030400 5.300000
-4.784410 1.647150 20.498800 -14.119200 4.020000
-5.163720 1.680770 20.849400 -14.030400 5.930000
10.698300 0.645578 19.185100 -13.053600 7.630000
10.184800 0.658237 19.947500 -13.142400 6.470000
-5.419260 -0.269856 22.627100 -14.030400 10.170000
-5.200340 1.336940 23.083200 -14.119200 13.320000
-5.475870 1.361250 23.461400 -14.119200 11.350000
-4.977410 1.361250 23.572200 -14.296800 5.160000
-5.249130 1.537210 23.944500 -14.296800 11.310000
-8.747580 1.641310 23.353700 -13.586400 6.560000
12.339000 -0.289846 21.731900 -12.964800 11.320000
10.035900 1.512670 23.309400 -13.586400 10.490000
12.551800 -0.294843 22.106600 -12.964800 10.700000
-8.580510 1.512670 23.883500 -13.675200 10.420000
-8.725940 1.538310 24.288300 -13.675200 10.500000
-9.873130 1.015900 24.339000 -13.408800 7.780000
-10.036100 0.949982 24.740800 -13.408800 8.570000
-3.941470 1.672050 26.370500 -14.385600 5.300000
-8.270820 1.699020 25.800200 -13.764000 5.710000
-10.198000 0.965305 25.139800 -13.320000 5.430000
-3.851510 1.531410 26.828400 -14.385600 8.950000
-3.914380 1.321490 27.266400 -14.385600 7.810000
-3.870180 1.867700 28.112900 -14.385600 9.040000
-3.928820 1.896000 28.538800 -14.385600 5.250000
-4.388840 1.585440 29.363600 -14.385600 6.800000
-5.965900 1.585440 29.084200 -14.385600 5.400000
-5.482750 1.608420 29.616900 -14.385600 9.460000
-4.923160 1.631390 30.151100 -14.385600 7.590000
-4.822020 -0.455751 30.644400 -14.385600 8.610000
10.634300 0.462081 29.600000 -13.941600 5.230000
-4.649380 -0.462081 31.106800 -14.385600 6.960000
-8.259710 0.468411 30.794700 -14.030400 7.510000
-4.713070 -0.468411 31.532900 -14.385600 5.220000
-18.265500 -1.249050 26.631400 -11.810400 7.210000
-8.482010 0.683602 31.623500 -14.030400 10.140000
12.448500 -0.987355 31.204300 -13.764000 9.670000
-16.343100 -1.896030 29.307900 -12.609600 13.330000
-17.241700 -1.792240 28.795100 -12.343200 5.610000
-16.780900 -1.920330 29.555200 -12.520800 13.610000
-17.462700 -1.815210 29.164300 -12.254400 6.340000
-16.996300 -1.838190 29.934400 -12.520800 10.070000
-17.208700 -1.861170 30.308600 -12.520800 5.560000
-10.508000 2.102350 33.669500 -13.852800 7.330000
-19.284000 -1.693160 29.559100 -11.988000 7.290000
-10.638100 2.017570 34.086300 -13.852800 7.610000
-10.768100 1.930100 34.502800 -13.852800 8.080000
-16.953300 -0.419777 31.977000 -12.698400 7.250000
-17.404500 -0.311504 32.225500 -12.698400 8.830000
-17.797500 -0.315169 32.502300 -12.609600 7.630000
11.922600 0.666625 35.535600 -14.030400 6.830000
12.057400 0.996711 35.937300 -14.030400 5.750000
12.474200 1.008040 36.250600 -14.030400 10.100000
12.334900 0.449761 36.764300 -14.119200 11.510000
12.185000 0.454758 37.267800 -14.119200 8.970000
19.315000 -2.696160 34.018200 -12.876000 5.590000
12.319300 0.337158 37.678500 -14.119200 5.990000
11.921800 2.136900 38.199500 -14.119200 7.540000
18.868400 -2.182850 36.262000 -13.142400 6.350000
13.943100 0.247206 43.494500 -14.119200 10.220000
14.074400 0.392129 43.903900 -14.119200 9.910000
14.206200 0.251870 44.315100 -14.119200 9.180000
14.337700 0.254203 44.725500 -14.119200 6.740000
-16.579400 -3.551520 44.262600 -13.497600 6.410000
13.502500 1.538950 45.409000 -14.208000 7.830000
14.491900 0.275192 48.736500 -14.208000 6.550000
14.569900 0.765916 50.055900 -14.208000 7.590000
30.398800 0.000000 42.889300 -12.254400 7.470000
14.533700 1.115350 51.404900 -14.208000 17.110000
14.653100 0.624668 51.827300 -14.208000 22.020000
14.770800 0.461759 52.243500 -14.208000 17.470000
14.696400 0.980782 53.152100 -14.208000 5.870000
14.812600 0.644657 53.572200 -14.208000 8.530000
14.511800 -0.129934 54.104500 -14.208000 8.130000
14.623500 0.000000 54.520800 -14.208000 16.590000
14.735100 0.000000 54.937000 -14.208000 21.420000
15.289100 15.029800 54.076500 -14.208000 11.680000
15.376500 15.491000 54.385900 -14.208000 9.070000
12.285100 0.321835 58.180400 -14.385600 7.570000
16.738900 0.324167 57.507600 -14.385600 15.130000
13.711500 0.000000 58.747100 -14.296800 8.720000
16.076800 0.000000 58.144300 -14.296800 7.630000
13.352800 -0.328831 59.270500 -14.296800 8.470000
13.102400 0.141928 59.768300 -14.385600 10.880000
15.614300 1.476770 59.589200 -14.296800 7.890000
15.726300 0.911503 60.016700 -14.296800 12.520000
16.186300 0.000000 60.347500 -14.296800 18.900000
16.297900 0.000000 60.763700 -14.296800 20.770000
16.162300 1.134030 61.680700 -14.296800 14.660000
16.273000 0.744604 62.103200 -14.208000 15.210000
15.900900 0.000000 62.648600 -14.296800 11.530000
16.601800 0.000000 63.357800 -14.296800 8.290000
15.416000 0.000000 78.211700 -14.474400 9.390000
15.499300 0.185905 78.634200 -14.474400 10.020000
15.582600 0.186905 79.057000 -14.474400 10.850000
15.206200 0.187904 79.569000 -14.385600 6.920000
-14.823500 0.944498 80.074100 -14.296800 9.560000
-14.901900 0.949495 80.497800 -14.296800 8.330000
-14.980400 0.954492 80.921400 -14.296800 6.870000
-15.528800 0.959490 81.256700 -14.296800 7.020000
-13.694800 0.214890 91.625500 -14.385600 6.340000
-14.467600 0.215890 91.942800 -14.385600 5.940000
-14.534600 0.216889 92.368500 -14.385600 5.950000
-14.601600 0.000000 92.794400 -14.385600 7.290000
-14.140700 0.000000 94.608900 -14.385600 5.740000
-13.654900 0.000000 95.115500 -14.385600 7.660000
-12.814500 0.230882 98.709300 -14.474400 6.550000
-12.870000 0.231882 99.136600 -14.385600 7.420000
-12.925500 0.000000 99.564200 -14.385600 11.490000
-12.981000 0.000000 99.991500 -14.385600 10.780000
-13.036400 0.000000 100.419000 -14.385600 6.070000
13.052000 3.013250 143.729000 -14.563200 12.950000
13.091000 3.022240 144.158000 -14.563200 15.760000
13.129000 3.480230 144.577000 -14.563200 14.070000
-6.144490 1.408210 9.261660 -11.988000 2.860000
-5.691900 1.569400 10.024800 -12.520800 4.780000
-6.306500 1.462370 9.666770 -12.076800 4.700000
-5.900200 1.664490 10.391600 -12.520800 6.600000
-6.401460 0.936311 10.691000 -12.343200 12.240000
-6.791890 0.968598 10.956200 -12.254400 7.230000
-5.522440 1.118030 11.634400 -13.053600 13.470000
-5.706520 1.155300 12.022200 -12.964800 6.270000
-5.989180 1.107570 12.370700 -12.964800 6.430000
-5.529750 1.142190 13.050600 -13.320000 6.580000
-6.176340 1.142190 12.757300 -12.964800 7.070000
-5.304670 1.233240 13.600700 -13.408800 5.650000
-5.379670 1.269520 14.032100 -13.497600 5.790000
-5.539030 1.453440 15.799300 -13.586400 4.860000
-5.805780 1.490710 16.160100 -13.586400 5.690000
-5.239180 1.691210 16.787200 -13.852800 7.560000
10.099100 1.188540 14.970800 -12.432000 8.430000
10.095500 1.388320 15.474700 -12.609600 5.240000
-10.335200 1.331170 15.320700 -11.899200 4.980000
-5.258320 1.716660 17.683800 -13.852800 5.020000
10.330300 1.420610 15.834600 -12.609600 9.850000
-10.454400 1.362130 15.758100 -11.988000 10.280000
-10.939200 1.393090 15.949500 -11.810400 5.280000
10.516700 1.570290 20.211300 -13.231200 5.070000
-5.405620 1.671710 22.570200 -14.119200 11.670000
10.284200 1.312630 20.831200 -13.408800 6.510000
10.723400 1.312630 20.608600 -13.231200 12.620000
-8.758870 1.702660 21.955600 -13.408800 7.240000
-8.918120 1.733620 22.354800 -13.408800 12.490000
-9.077380 1.764580 22.754000 -13.408800 12.900000
-9.065280 1.487030 23.242600 -13.408800 11.170000
-10.215300 1.512670 23.231300 -13.231200 9.410000
-8.390720 1.857450 24.383900 -13.675200 4.810000
-4.147340 1.362710 26.356700 -14.385600 13.180000
-8.142540 1.507100 25.400000 -13.852800 7.610000
-4.368970 1.384690 26.757000 -14.385600 9.880000
-8.265650 1.950320 25.784100 -13.852800 7.900000
-4.437780 1.470550 27.178400 -14.385600 5.400000
-4.719730 1.493530 27.567500 -14.385600 4.350000
-3.656090 1.516510 28.162600 -14.385600 6.610000
-3.924600 2.318980 28.508100 -14.385600 8.340000
10.835100 1.628640 26.710300 -13.764000 8.170000
-3.646940 2.227770 29.423400 -14.474400 7.760000
-4.929850 -0.354811 30.192000 -14.385600 6.320000
-4.822220 -0.359809 30.645600 -14.385600 6.260000
-4.889190 -0.364806 31.071300 -14.385600 5.700000
-7.961870 1.677350 30.385100 -14.030400 7.530000
-4.956490 0.073962 31.498900 -14.385600 7.990000
-7.834250 1.626470 30.866400 -14.030400 6.040000
-7.941330 1.548620 31.288300 -14.030400 6.760000
10.310400 -0.384795 31.534300 -14.030400 8.040000
-17.677300 -1.999800 28.515900 -12.254400 13.060000
11.788600 -0.389793 31.472500 -13.941600 10.900000
-16.552700 -1.920330 29.683600 -12.432000 9.890000
-18.126000 -2.025440 28.742700 -12.165600 5.960000
10.827300 -0.394790 32.270900 -14.030400 5.600000
-16.352300 -2.051080 30.277300 -12.609600 8.510000
-18.355500 -2.051080 29.106500 -12.076800 8.150000
-16.543200 -2.507560 30.630800 -12.609600 7.160000
-10.371500 2.507560 33.231900 -13.852800 8.050000
-16.747500 -2.538520 31.009000 -12.609600 6.090000
-10.506100 2.211430 33.663200 -13.852800 6.010000
-10.439000 2.127990 34.141100 -13.852800 6.850000
-10.562800 2.265360 34.545900 -13.941600 6.990000
10.830800 1.088620 35.422600 -14.119200 7.300000
11.163700 1.101280 35.770500 -14.119200 6.220000
-18.718400 -0.791539 32.967600 -12.520800 9.320000
11.780700 0.908783 36.031300 -14.119200 7.280000
11.914600 0.919110 36.440700 -14.119200 13.050000
12.051500 0.329828 36.859400 -14.119200 6.180000
12.185000 0.454758 37.267800 -14.119200 5.370000
10.779700 -1.287120 38.127300 -14.208000 6.550000
11.194700 -1.177230 38.460300 -14.208000 6.020000
-16.895500 -1.301110 36.314600 -12.964800 6.630000
11.315100 -1.189890 38.873800 -14.208000 8.050000
12.036000 -2.910010 38.565400 -14.030400 10.480000
19.720200 -1.064670 35.363900 -12.964800 5.650000
12.164000 -2.940960 38.975700 -14.030400 12.810000
19.653900 -1.075990 35.892600 -12.964800 10.920000
12.292100 -2.971920 39.385900 -14.119200 7.590000
-16.936400 -1.087320 37.724700 -13.142400 10.380000
13.811300 0.384799 43.083200 -14.119200 9.930000
13.942800 0.388464 43.493600 -14.119200 7.210000
-14.646700 -2.351780 43.654700 -13.675200 8.840000
-14.789900 -1.942450 44.081700 -13.675200 7.030000
13.733200 0.254203 44.914800 -14.119200 6.780000
-5.827270 1.538950 47.014300 -14.474400 5.960000
-16.405400 -2.698190 44.847300 -13.586400 5.840000
14.615300 -0.115941 47.799800 -14.119200 6.370000
14.491200 0.589686 48.733900 -14.208000 19.260000
14.690300 0.772246 50.469600 -14.208000 10.050000
14.888000 0.465424 52.658100 -14.208000 7.870000
14.813600 0.128934 53.575700 -14.296800 6.970000
14.928400 0.129934 53.991000 -14.208000 16.820000
15.043200 0.130933 54.406300 -14.208000 11.390000
15.158100 0.131933 54.821700 -14.208000 22.670000
15.591900 0.132932 55.147800 -14.208000 12.810000
14.958200 -0.312506 55.768600 -14.296800 11.550000
15.502400 -0.314838 56.066900 -14.296800 20.640000
15.943400 -0.317170 56.391000 -14.208000 10.930000
-17.530000 6.702710 57.332400 -13.764000 11.420000
12.295000 -0.331163 59.938900 -14.385600 21.270000
15.851400 0.141928 59.098700 -14.208000 19.830000
14.813400 0.142927 59.811400 -14.296800 12.290000
17.341000 0.335827 59.576300 -14.208000 11.750000
15.836600 0.531390 60.437800 -14.296800 10.870000
13.746900 0.943152 62.708100 -14.385600 7.330000
17.223300 0.949482 62.290800 -14.296800 7.240000
17.338100 0.955812 62.706100 -14.296800 8.240000
-24.458300 0.150923 60.293800 -13.408800 10.340000
-24.620200 0.151922 60.693100 -13.408800 8.870000
14.510500 0.431445 78.383500 -14.474400 7.950000
14.589000 0.433777 78.807200 -14.474400 8.300000
14.667400 0.436109 79.230900 -14.474400 8.450000
15.205300 0.939500 79.563900 -14.474400 6.060000
-15.286100 0.944498 79.987100 -14.296800 7.540000
-15.367000 0.949495 80.410300 -14.296800 8.140000
-15.447900 0.954492 80.833500 -14.296800 6.860000
-15.528800 0.959490 81.256700 -14.296800 7.860000
-13.694700 0.501409 91.624400 -14.385600 5.670000
-13.758400 0.503741 92.050500 -14.385600 7.860000
-13.822200 0.216889 92.477800 -14.385600 5.490000
-13.885900 0.217889 92.903900 -14.385600 8.110000
-13.949600 -0.218888 93.330100 -14.385600 13.870000
-14.013100 -0.513070 93.755200 -14.385600 14.600000
-14.076800 -0.515402 94.181300 -14.385600 10.530000
-13.654800 0.222886 95.115300 -14.385600 13.540000
-13.163500 0.223886 95.619500 -14.385600 17.720000
-13.777100 0.524730 95.967200 -14.385600 17.230000
-13.280900 0.527062 96.472100 -14.385600 11.760000
-13.457400 0.228883 97.753900 -14.385600 4.920000
-12.759000 0.229883 98.282000 -14.385600 6.600000
-12.814300 0.538723 98.708100 -14.385600 5.380000
-12.869800 0.541055 99.135400 -14.385600 12.580000
-12.925300 0.543387 99.562800 -14.385600 14.460000
-12.980900 0.233881 99.991300 -14.385600 11.370000
13.052000 3.013250 143.729000 -14.563200 7.380000
13.091000 3.022240 144.158000 -14.563200 8.980000
13.129900 3.031240 144.587000 -14.563200 6.590000
-5.933250 1.339440 9.408430 -12.254400 4.450000
-5.857360 1.390950 9.955580 -12.432000 5.530000
-6.161450 1.390950 9.770300 -12.254400 5.490000
-5.924260 1.266350 10.434000 -12.432000 5.390000
-6.321860 1.266350 10.198000 -12.254400 4.690000
9.492750 0.029985 8.774630 -10.478400 13.100000
9.809170 0.030984 9.067120 -10.478400 9.390000
-5.608980 1.606190 12.493600 -13.231200 5.070000
-5.785820 1.623620 12.887500 -13.231200 4.570000
9.306840 1.229830 10.680400 -11.544000 5.090000
-5.979100 1.233240 13.318000 -13.231200 6.770000
9.482400 1.267100 11.095900 -11.632800 5.870000
-5.294300 1.771220 14.473000 -13.586400 2.500000
9.148740 1.437200 12.444700 -12.165600 4.590000
-5.394000 1.517050 15.385600 -13.675200 4.040000
-5.322470 1.556970 15.863700 -13.764000 3.850000
9.716610 0.246865 13.709000 -12.254400 8.020000
-5.458950 1.596890 16.270500 -13.764000 7.070000
9.260580 1.703010 14.436800 -12.609600 3.770000
-5.718600 1.799950 16.618600 -13.764000 8.880000
9.368720 1.908630 14.856100 -12.787200 4.190000
9.831680 1.745590 14.574300 -12.520800 6.490000
-5.136040 1.676740 17.272500 -13.852800 6.310000
9.638350 1.020940 15.283700 -12.787200 4.900000
9.995010 0.811315 15.065600 -12.609600 5.960000
-5.152950 1.830740 17.703300 -14.030400 5.650000
10.233000 0.830632 15.424300 -12.609600 5.170000
9.853690 0.908522 16.172400 -12.876000 3.960000
10.471000 0.849949 15.783000 -12.609600 6.800000
-10.671300 1.873320 15.558900 -11.899200 7.660000
-4.998760 1.915890 18.636900 -14.119200 4.200000
10.077600 0.929171 16.539900 -12.876000 7.830000
-5.114330 1.775380 19.067800 -14.119200 4.980000
1.048910 1.813970 20.143600 0.888000 4.790000
-9.610330 1.079940 17.794100 -12.787200 4.850000
1.308990 1.852570 20.558400 0.888000 4.490000
0.648395 1.826120 21.025000 0.888000 4.330000
0.826961 1.863390 21.448300 0.888000 6.120000
0.969408 2.036040 21.859900 0.888000 3.900000
9.832210 -0.985168 19.629000 -13.408800 10.920000
1.164570 0.727502 22.364700 0.976800 16.090000
-5.205410 1.609790 21.734200 -14.208000 16.880000
10.470800 1.540660 19.749800 -13.231200 13.460000
10.374700 -1.023800 20.319400 -13.408800 8.560000
10.826900 1.570290 20.046700 -13.231200 7.070000
9.806920 -0.971223 21.078600 -13.497600 11.140000
10.553700 1.671710 20.670100 -13.320000 10.380000
-8.764350 1.483270 21.969400 -13.497600 6.280000
1.254150 0.783463 24.085000 0.888000 10.280000
-8.923700 1.510240 22.368800 -13.497600 6.680000
10.661200 1.510240 21.594800 -13.320000 4.890000
-0.472979 0.797454 24.543800 0.888000 9.270000
-8.773400 1.613020 22.884100 -13.586400 8.800000
-9.867110 1.537210 22.439600 -13.320000 10.020000
0.769969 0.811444 24.967200 0.888000 8.290000
-8.923510 1.795540 23.275700 -13.586400 12.410000
-10.042100 1.487030 22.837600 -13.320000 9.160000
12.188700 1.512670 22.259400 -13.231200 8.510000
-8.731380 1.238890 24.303400 -13.764000 8.640000
11.428800 1.378640 23.149700 -13.408800 10.890000
-8.351250 1.259540 24.891100 -13.852800 7.630000
-8.292910 1.280190 25.363800 -13.852800 8.540000
-4.068620 1.725990 27.221200 -14.474400 5.600000
-4.133710 1.580020 27.656700 -14.474400 6.800000
10.164200 1.428650 26.060000 -13.941600 4.390000
-4.197310 1.604330 28.082200 -14.474400 8.540000
-4.094540 1.806900 28.521300 -14.474400 10.220000
-4.155650 1.833870 28.947000 -14.563200 6.030000
-4.786480 1.332870 29.314000 -14.563200 7.030000
-5.250440 1.980900 29.636400 -14.474400 6.450000
-5.325450 2.009200 30.059800 -14.385600 4.840000
-5.412130 0.071963 30.549000 -14.385600 5.460000
-4.889510 0.072963 31.073300 -14.474400 4.950000
-7.961870 1.677350 30.385100 -14.119200 7.880000
-8.070940 1.700330 30.801400 -14.119200 8.990000
-16.347900 -1.714380 29.316400 -12.698400 7.070000
-16.328100 -1.736360 29.819000 -12.698400 12.230000
-16.756000 -2.157490 30.048300 -12.609600 12.560000
-17.561600 -4.438710 29.329300 -0.799200 10.410000
-16.242000 -3.985260 30.635400 -1.154400 4.300000
-16.442500 -4.034460 31.013600 -1.154400 6.340000
-19.751500 -1.037990 29.279300 -11.988000 7.980000
-10.641200 1.824280 34.096200 -13.941600 5.210000
-10.769400 1.846260 34.507000 -13.941600 6.890000
-4.268610 1.976060 36.757700 -14.563200 6.920000
-3.169980 1.999030 37.300500 -14.652000 12.260000
11.646200 0.985385 35.619800 -14.208000 5.710000
11.780700 0.908783 36.031300 -14.208000 6.490000
11.914600 0.919110 36.440700 -14.119200 13.340000
12.049300 0.809529 36.852700 -14.208000 6.540000
12.183200 0.818524 37.262200 -14.208000 4.920000
12.099100 0.827518 37.742300 -14.208000 9.990000
20.362100 -0.704937 34.006500 -12.876000 6.400000
11.923300 2.044070 38.204200 -14.208000 6.150000
-16.903300 -0.464753 36.331300 -13.231200 5.800000
20.847800 -0.712599 34.216400 -12.876000 9.260000
-18.664600 -0.935456 40.731000 -13.231200 10.850000
13.479100 0.244874 43.189300 -14.296800 11.040000
13.607500 0.247206 43.600700 -14.208000 11.330000
-5.930560 1.924460 45.682800 -14.563200 9.320000
13.735900 0.249538 44.012000 -14.208000 8.020000
-5.985990 1.942450 46.109700 -14.563200 8.190000
13.864200 0.251870 44.423300 -14.208000 8.630000
-15.378900 -2.230010 43.866000 -13.764000 7.590000
-2.710770 2.105550 46.842500 -14.652000 6.930000
13.730400 0.980429 44.905600 -14.296800 6.500000
-2.738380 -0.109944 47.319700 -14.652000 6.970000
-5.242590 -0.110943 47.541600 -14.563200 8.180000
-15.120600 -1.881910 46.246200 -13.852800 10.400000
-15.254400 -1.898560 46.655400 -13.852800 4.640000
-15.126600 0.421447 47.186400 -13.852800 8.160000
14.614700 0.277524 49.149500 -14.296800 6.040000
14.450500 -0.439771 49.645800 -14.296800 6.320000
14.184700 -0.443435 50.170300 -14.296800 16.570000
-26.803000 0.965457 47.206400 -12.609600 19.600000
15.291600 0.973120 52.535400 -14.296800 10.290000
-27.015700 0.973120 47.581000 -12.609600 7.250000
-2.443270 0.810225 55.095100 -14.740800 9.690000
15.717800 0.980782 52.859100 -14.385600 12.910000
-2.462360 0.816555 55.525500 -14.740800 8.610000
14.510900 0.649655 54.101000 -14.385600 11.380000
14.621200 1.003770 54.512200 -14.385600 6.190000
14.732800 1.011430 54.928300 -14.385600 9.000000
14.842500 1.373500 55.337300 -14.385600 8.360000
15.387800 0.000000 55.652400 -14.385600 7.180000
15.826400 0.000000 55.977200 -14.385600 8.190000
12.879300 -0.317170 57.168700 -14.474400 5.720000
12.640900 -0.319502 57.663100 -14.474400 8.930000
12.725300 -2.114480 58.048100 -14.474400 13.280000
13.605000 -2.129800 58.290600 -14.474400 9.280000
12.909800 -2.145120 58.889400 -14.385600 16.910000
12.856000 16.422700 57.065100 -14.474400 7.480000
15.618500 10.451200 58.230400 -14.385600 6.480000
15.615400 1.286250 59.593400 -14.296800 21.300000
16.071200 1.295250 59.918200 -14.385600 15.700000
15.836100 0.724615 60.436000 -14.385600 12.440000
15.946200 0.340492 60.856000 -14.385600 7.490000
16.164600 0.345156 61.689600 -14.474400 8.770000
-24.458300 0.150923 60.293800 -13.497600 9.920000
16.598100 1.367200 63.344000 -14.385600 7.090000
16.215400 1.376200 63.887600 -14.385600 6.520000
14.510500 0.431445 78.383500 -14.563200 9.450000
14.589000 0.433777 78.807200 -14.563200 7.140000
14.667100 0.685309 79.229200 -14.563200 7.640000
15.205700 0.688974 79.566300 -14.563200 10.920000
-15.285500 1.196350 79.983800 -14.385600 8.070000
-15.366400 1.202680 80.407000 -14.385600 11.690000
-15.447300 1.209010 80.830200 -14.385600 7.500000
-15.527400 1.471170 81.249300 -14.385600 10.460000
-14.467600 0.000000 91.943100 -14.474400 8.770000
-14.534600 0.000000 92.368800 -14.474400 7.860000
-13.886000 0.000000 92.904200 -14.474400 9.170000
-13.949600 0.000000 93.330400 -14.474400 8.400000
-14.013300 -0.219888 93.756300 -14.474400 8.930000
-13.532300 -0.220887 94.262200 -14.474400 10.630000
-13.593600 -0.221887 94.688800 -14.563200 8.690000
-14.203900 0.817241 95.031600 -14.474400 7.780000
-15.553800 0.820905 95.256600 -14.474400 8.190000
-15.623200 0.824570 95.681900 -14.474400 7.390000
-13.899300 0.831900 96.818200 -14.563200 5.370000
-13.398200 0.835564 97.323700 -14.563200 5.230000
-13.515300 1.149390 98.174400 -14.563200 7.080000
-12.813700 1.154390 98.702900 -14.563200 7.860000
-12.869500 0.850223 99.133300 -14.563200 6.880000
-12.925000 0.853888 99.560600 -14.563200 5.090000
-12.980500 0.857553 99.987900 -14.563200 6.210000
13.051100 3.459570 143.719000 -14.740800 7.800000
13.090100 3.469900 144.148000 -14.740800 7.520000
13.129000 3.480230 144.577000 -14.740800 8.060000
