VERSION .7
FIELDS x y z velocity SNR
SIZE 4 4 4 4 4
TYPE F F F F F
COUNT 1 1 1 1 1
WIDTH 231
HEIGHT 1
VIEWPOINT 0 0 0 1 0 0 0
POINTS 231
DATA ascii
0.0727207257831781 3.12425425380603 -0.29215122614539 0 5.25829834504471
-8.10649666261395 7.60906640133653 -2.01584346040319 1.23771765833382 5.22445247309066
-7.5862819673392 8.29619921015299 -1.13938978196702 1.23771765833382 5.22445247309066
-7.21104397593087 8.57074296307951 -1.48997125334149 1.23771765833382 5.22445247309066
-3.93545188546807 10.3037159277346 2.45407029962127 1.23771765833382 5.22445247309066
-7.52088298486214 11.870251660167 -1.42423722745877 -1.08300295104209 5.32585009965826
-6.89687995020445 12.313731650627 0.547783549022606 -1.08300295104209 5.32585009965826
-0.426996008190866 13.7556691486459 3.17714458433111 -1.08300295104209 5.32585009965826
-8.21576444935089 11.4868712385007 0.219113419609041 -0.618858829166909 5.17326189851702
-10.7908321087152 9.00136088317795 1.42423722745877 2.78486473125109 6.41504795418419
6.67008026074169 12.4192135537072 -0.87645367843617 2.78486473125109 6.41504795418419
8.20091835337093 11.4661141690926 0.87645367843617 2.78486473125109 6.41504795418419
10.1639167678218 9.75794991167905 -0.986010388240691 2.78486473125109 6.41504795418419
-12.0218370372086 7.3483484398092 -0.986010388240691 2.93957943854282 8.51266017972769
-10.7908321087152 9.00136088317795 1.42423722745877 2.93957943854282 8.51266017972769
-7.01141849599789 12.2606286555413 -0.109556709804521 2.93957943854282 8.51266017972769
6.6731010152797 12.4248379831345 -0.766896968631647 2.93957943854282 8.51266017972769
-3.22263932872183 13.9593623878525 1.79186085369172 -0.154714707291727 5.64186672164448
6.26233386410237 12.704501560268 2.79978258389332 -0.154714707291727 5.64186672164448
7.19130742528007 12.3178019362869 2.23982606711465 -0.154714707291727 5.64186672164448
7.14125791520445 12.2320734427515 2.79978258389332 0 10.2943116789253
-12.2889889713688 7.51164507180496 -1.00792173020159 2.78486473125109 16.0584446441204
-12.2953027757206 7.51550438500426 -0.895930426845863 2.93957943854282 24.4266896463871
-6.86369475690969 13.0534982079051 -0.343277690720834 -1.39243236562554 5.32963994802083
-3.12181525988432 14.030850893953 -3.31835101030138 0 7.12926841625345
6.17434966970684 13.3855158571448 0.572129484534721 0 7.12926841625345
7.43095527406279 12.4690222646185 2.63179562885972 0 7.12926841625345
6.95452617966398 12.9488315603103 1.25868486597639 0.309429414583454 8.27817758585969
6.95452617966398 12.9488315603103 1.25868486597639 0.464144121875182 8.02697900531224
-12.5489269717156 7.67053218642679 -1.14425896906944 2.78486473125109 11.117851579167
-11.0722333439665 9.69366047337098 1.0298330721625 2.78486473125109 11.117851579167
-12.5625919664971 7.67888491511305 -0.915407175255555 2.93957943854282 13.7176412782721
-11.0722333439665 9.69366047337098 1.0298330721625 2.93957943854282 13.7176412782721
7.08007565851328 13.1825957323193 1.75290735687234 0.309429414583454 9.11703297774133
6.92674427585505 13.173406917676 2.33720980916312 0.464144121875182 12.0432624041751
7.38852722757872 12.9200658469333 2.33720980916312 0.464144121875182 12.0432624041751
7.43985862614597 12.7435387713622 3.03837275191205 0.618858829166909 9.18922462609695
-3.21747715030226 15.0224018144031 0.715770504056204 -0.154714707291727 5.30070489509003
-2.13071056066916 15.1113830683235 1.90872134414988 -0.154714707291727 5.30070489509003
7.72051705398072 13.2242712336771 1.43154100811241 -0.154714707291727 5.30070489509003
-2.25834107892123 15.1563501248324 1.31224592410304 0 5.32313965688667
-0.356807014476248 15.329272649024 -1.19295084009367 0 5.32313965688667
6.99060748933124 13.5818409462856 1.78942626014051 0 5.32313965688667
7.91448348948116 13.0110355954095 2.14731151216861 0 5.32313965688667
7.0218388865221 13.3542595595675 2.98237710023419 0.309429414583454 8.66590032470504
7.56821750619786 13.2342841153789 2.02801642815925 0.309429414583454 8.66590032470504
7.07105144826869 13.4478528951276 2.38590168018735 0.464144121875182 7.49328330897269
7.75394719088655 13.2815328386617 -0.119295084009367 0.464144121875182 7.49328330897269
7.2761244264029 13.547624550592 0.238590168018734 0.618858829166909 7.64730021364501
7.59485568085734 13.0090291624323 3.10167218424355 0.618858829166909 7.64730021364501
-3.28036734134837 15.3160361359368 0.973837420484633 -0.154714707291727 5.16554645368878
8.12048104578821 13.3496858107066 1.46075613072695 -0.154714707291727 5.16554645368878
8.10765705701968 13.3286037812142 1.70421548584811 0 5.29549886331075
-0.245896227818177 15.8488093010437 -2.23495688001223 -0.309429414583454 6.71448965941403
7.57310909686833 14.1005888179631 0.24832854222358 -0.154714707291727 12.160973412423
8.18275337611346 13.7305272699961 0.869149897782533 -0.154714707291727 12.160973412423
-13.7926327506588 8.71173073275401 0.506395458652009 -2.01129119479245 10.882255497246
-7.34074588185802 14.5724607174039 0.379796593989008 -2.01129119479245 10.882255497246
14.681491763716 7.12017984704265 0.379796593989008 -2.01129119479245 10.882255497246
15.3180017975065 5.63295664586137 0.126598864663002 -2.01129119479245 10.882255497246
-14.2901706237158 7.84865903508149 0.759593187978013 -1.85657648750073 5.93986291479167
-13.7726830301945 8.69913004976471 1.01279091730402 -1.85657648750073 5.93986291479167
14.796017371458 6.84750283295967 0.759593187978013 -1.85657648750073 5.93986291479167
15.3110877323827 5.63041410607036 0.506395458652009 -1.85657648750073 5.93986291479167
-2.39493590245933 16.0730756762146 1.51918637595603 -0.309429414583454 29.5594896118135
1.48549669456017 15.8901486716863 3.41816934590106 -0.309429414583454 29.5594896118135
8.34647133774554 14.0052433506908 0.759593187978013 -0.309429414583454 29.5594896118135
-2.3911537827867 16.0476928274911 1.77238410528203 -0.154714707291727 71.0537777503029
-1.73307947698687 15.8650547041064 3.41816934590106 -0.154714707291727 71.0537777503029
0.502956194320616 16.2027252541526 1.89898296994503 -0.154714707291727 71.0537777503029
1.61701628576541 15.9543397314683 3.03837275191205 -0.154714707291727 71.0537777503029
2.25119188965289 15.9658583539212 2.53197729326004 -0.154714707291727 71.0537777503029
8.34319952074314 13.999753294898 0.886192052641014 -0.154714707291727 71.0537777503029
8.71401036151605 13.753371268865 1.13938978196702 -0.154714707291727 71.0537777503029
8.34923879686126 14.009887102141 0.632994323315011 0 8.37968045665335
-7.35490711821018 14.9210232138144 -0 -2.16600590208418 15.9995922731977
-7.35468585986445 14.9205743433039 0.129033458214213 -2.01129119479245 37.7113346776556
-7.61205790610969 14.7892382618364 0.258066916428427 -1.85657648750073 19.2523106529221
8.37808675947942 14.3506051410778 0.774200749285282 -0.309429414583454 88.5677904013421
8.3748025492308 14.3449797034533 0.903234207499495 -0.154714707291727 221.853870814229
8.3748025492308 14.3449797034533 0.903234207499495 0 22.3860039762462
-7.49367895062924 15.2025519536977 -0 -2.16600590208418 10.6129929218902
-7.49345351759774 15.2020946139323 0.131468051765425 -2.01129119479245 28.5051429029878
-7.62422940899762 15.1352172314909 0.26293610353085 -1.85657648750073 16.9621089845035
8.53616386814884 14.6213712758152 0.788808310592552 -0.309429414583454 82.7124803321128
8.52895508750576 14.6090235444622 1.0517444141234 -0.154714707291727 154.171105756531
7.50282137922781 14.894204428014 3.02376519060478 0 14.4010834531295
8.53281769166912 14.6156396978581 0.920276362357976 0 14.4010834531295
-7.23074284709839 15.6756951284502 -0 -2.16600590208418 5.46598683912123
8.55712771358271 14.9635577043596 0.937318517216457 -0.309429414583454 6.02323587567989
8.55325410484908 14.9567840567351 1.0712211625331 -0.154714707291727 10.8563711309099
-7.49832255821996 15.8966321187186 -0.136337238867848 -2.32072060937591 5.65942677244003
-6.54399059626469 16.3126926342951 -0.136337238867848 -2.32072060937591 5.65942677244003
-7.63465569564214 15.831607193017 -0.136337238867848 -2.16600590208418 6.22481124704811
-7.49345351759774 16.2452316843507 0.13877183241906 -2.32072060937591 10.1237752622706
-6.65784107371251 16.5964961969002 -0.555087329676241 -2.32072060937591 10.1237752622706
-7.76635342836494 16.4648642941249 -0 -2.32072060937591 5.38505476176584
-7.46371346992143 16.9325586565863 -0.718205097607416 -2.32072060937591 6.09411302545624
-12.6290005239363 15.9596433979955 -1.42423722745878 1.39243236562554 7.74162273001365
0.625331080459137 20.145030131795 -3.16497161657506 1.39243236562554 7.74162273001365
-14.871338639971 13.9588046350732 0.474745742486259 1.54714707291727 5.57943574388055
0.626082373471234 20.1692330234143 -3.0067230357463 1.54714707291727 5.57943574388055
-15.3427222111686 13.4324426908291 0.632994323315012 1.701861780209 6.54867911713918
-14.3988879164179 14.4499889142497 -0.316497161657504 1.701861780209 6.54867911713918
7.60978316639922 18.9694731343227 3.37434666197925 -1.39243236562554 7.85495031358113
8.33035152164953 18.8986576640111 1.60683174379964 -1.39243236562554 7.85495031358113
7.6285729198341 19.016311751822 3.05298031321932 -1.23771765833382 6.99697964693762
8.33035152164953 18.8986576640111 1.60683174379964 -1.23771765833382 6.99697964693762
0.635714409986176 20.4795289160822 -3.05298031321932 1.23771765833382 7.80590708447979
8.45656896894725 19.1850009619506 1.63117767931176 -1.23771765833382 5.07420829127138
0.645346446501118 20.7898248087501 -3.09923759069234 1.23771765833382 11.186024678604
0.491792455636358 21.1285662369864 -2.97994250668297 1.39243236562554 21.4329750745819
6.85704062694046 25.8961275273926 5.29524097388519 -2.47543531666763 8.30452961214884
6.62760063726845 25.8657602103497 5.718860251796 -2.32072060937591 7.54279249322086
8.24839043528014 25.9891084194632 1.48266747268785 -2.32072060937591 7.54279249322086
9.10754048386392 25.742491081044 -0.211809638955407 -2.32072060937591 7.54279249322086
8.89573721679732 25.8164482470485 0.211809638955407 -2.16600590208418 5.05297277793283
6.96635910476523 26.3089769469699 4.71337311514562 -2.47543531666763 7.79424530786565
7.20476331317665 26.3520319043297 4.07064041762576 -2.32072060937591 5.93993870466261
7.06383608964801 26.6771060815112 4.33357652115661 -2.47543531666763 5.59027264408193
8.66298034445049 26.5433085877291 0.866715304231324 -2.47543531666763 5.59027264408193
7.26868808760228 26.5858421798263 4.55025534721444 -2.32072060937591 8.66014932176242
7.82575063939997 26.1207715442981 6.06700712961926 -2.32072060937591 8.66014932176242
8.92776658429239 25.9094011398971 5.41697065144577 -2.32072060937591 8.66014932176242
5.96675806783419 26.8173116602598 6.57340258827127 -2.78486473125109 6.50821771001393
7.15178711234447 27.009259706351 4.1631549725718 -2.78486473125109 6.50821771001393
5.91797710092274 26.5980679138432 7.44985626670743 -2.63015002395936 5.40311079843426
7.30844455535974 26.7312548271553 5.47783549022606 -2.63015002395936 5.40311079843426
7.70710693921928 25.7247628889767 8.76453678436169 -2.32072060937591 5.70358616109739
8.97689136375817 26.7618232242877 1.09556709804521 -2.32072060937591 5.70358616109739
2.8745737517149 28.3620682251275 1.77238410528203 1.23771765833382 5.5983294139139
-11.8678637002453 26.316195938415 0.671947820134398 -2.47543531666763 6.98498686649429
-10.7459891014307 26.7873271949968 -0.895930426845863 -2.47543531666763 6.98498686649429
8.46100569293756 27.4302439876917 3.13575649396052 -2.01129119479245 5.40358966540795
9.33454150388394 27.0899085451747 3.58372170738345 -2.01129119479245 5.40358966540795
10.2332241075233 26.7924084189953 3.35973910067198 -2.01129119479245 5.40358966540795
15.7470015696896 23.8666569398905 4.03168692080638 1.08300295104209 13.6672389120393
-21.133832395972 19.3884798987443 3.35973910067198 2.01129119479245 5.54553829250855
-11.7705063278068 26.7031672124743 0.679251600788033 -2.47543531666763 9.21042263575211
-11.7722775932032 26.7071855949245 0.452834400525352 -2.32072060937591 5.97741742205747
17.6584163898048 23.2387739077915 -0.452834400525352 1.08300295104209 10.8531194142755
17.6600103367947 23.2408715689237 -0.226417200262676 1.23771765833382 28.1055068736381
17.6584163898048 23.2387739077915 -0.452834400525352 1.39243236562554 7.55910364155021
-10.3169219664772 35.4769450840871 2.5855383513867 -3.09429414583454 6.79310318741581
6.87399636052199 36.2799200242787 2.87282039042967 -3.09429414583454 6.79310318741581
8.61820190133074 36.0191835685672 0.287282039042966 -3.09429414583454 6.79310318741581
7.12652625167123 36.0530472388053 4.59651262468746 -2.93957943854282 8.42777740848224
8.89260601599021 35.8972848645228 2.01097427330076 -2.93957943854282 8.42777740848224
-14.8682050293799 37.9770331275404 1.26598864663002 -2.78486473125109 5.38653218514754
7.4178378295823 42.8316166045266 3.72249353980251 -3.09429414583454 5.18397206405413
7.46032837145745 43.0769628416279 4.43096026320507 -3.09429414583454 14.6748357484243
7.51361643125357 43.3846554333538 4.46260997937082 -3.09429414583454 6.92739363841634
8.25228394252419 49.9853277437318 4.33844570825904 -3.09429414583454 8.6177867892076
8.25228394252419 49.9853277437318 4.33844570825904 -2.93957943854282 8.00484071433219
8.2974348118606 50.258813365096 4.76206498616985 -3.24900885312627 6.54989279833569
10.3174970784858 50.1085300253359 0.396838748847486 -3.24900885312627 6.54989279833569
8.2974348118606 50.258813365096 4.76206498616985 -3.09429414583454 17.0558071427569
10.3174970784858 50.1085300253359 0.396838748847486 -3.09429414583454 17.0558071427569
8.2974348118606 50.258813365096 4.76206498616985 -2.93957943854282 17.454639292654
10.3174970784858 50.1085300253359 0.396838748847486 -2.93957943854282 17.454639292654
8.34200354262969 50.5287728854096 5.19055345118309 -2.93957943854282 6.25510785460718
8.14580659519851 54.6687557332892 5.60199976133784 -3.403723560418 10.2828022312132
10.3309470404263 54.5251863318216 2.5855383513867 -3.403723560418 10.2828022312132
8.19804981995693 55.0193744301192 5.20029182538793 -3.403723560418 23.2419575369626
10.3955764133406 54.8662904519832 1.73343060846265 -3.403723560418 23.2419575369626
8.19182810138607 54.9776187600309 5.63364947750359 -3.24900885312627 34.6789734380785
10.3955764133406 54.8662904519832 1.73343060846265 -3.24900885312627 34.6789734380785
8.19182810138607 54.9776187600309 5.63364947750359 -3.09429414583454 47.7268965876858
10.3955764133406 54.8662904519832 1.73343060846265 -3.09429414583454 47.7268965876858
8.24410627961961 55.3284720392771 5.22950694800247 -3.403723560418 9.57511263588925
10.4539785280223 55.1745280387921 1.74316898266749 -3.403723560418 9.57511263588925
8.23784960757364 55.2864817867727 5.66529919366934 -3.24900885312627 20.33983861211
10.4539785280223 55.1745280387921 1.74316898266749 -3.24900885312627 20.33983861211
8.2310870599773 55.2410964638635 6.10109143933622 -3.09429414583454 21.444298389539
10.4511450673998 55.1595734593327 2.17896122833436 -3.09429414583454 21.444298389539
8.45353295838881 56.7339922676135 6.71947820134396 -3.403723560418 7.02403308497614
-25.3366126533993 51.4008103004831 7.16744341476689 -3.24900885312627 9.48338833381026
-15.9859288141118 54.9710388911686 7.61540862818982 -3.24900885312627 9.48338833381026
8.43701798522569 56.6231557257382 7.61540862818982 -3.24900885312627 9.48338833381026
10.2920357521384 56.7645070753504 2.68779128053758 -3.24900885312627 9.48338833381026
8.50698941952961 57.092753328574 6.305597297638 -3.403723560418 16.2821529292386
8.49143721173708 56.9883781707567 7.20639691158628 -3.24900885312627 18.1321552116781
8.06587450550432 57.2046347747116 5.85519749066385 -3.09429414583454 9.58929740753613
-32.1425607961647 51.7732891395474 5.6969489098351 -3.403723560418 6.6344561725827
-27.8443565495557 54.0979625139716 6.64644039480762 -3.403723560418 6.6344561725827
-17.4297921714603 58.1771181262963 7.59593187978013 -3.403723560418 6.6344561725827
-12.9755841151302 58.3181485210895 13.2928807896152 -3.403723560418 6.6344561725827
8.47935835368339 60.1371367004711 7.59593187978013 -3.403723560418 6.6344561725827
8.0768486103183 60.7171166015703 5.72616403244963 -3.403723560418 28.0466654280549
10.4929132711434 60.5875254513984 1.90872134414988 -3.403723560418 28.0466654280549
8.0768486103183 60.7171166015703 5.72616403244963 -3.24900885312627 16.2129378414193
10.4929132711434 60.5875254513984 1.90872134414988 -3.24900885312627 16.2129378414193
8.0768486103183 60.7171166015703 5.72616403244963 -3.09429414583454 6.46635183462658
8.11805702159543 61.0268978087211 5.75537915506417 -3.403723560418 26.2715394415637
11.0258325676138 60.8116767050582 1.91845971835473 -3.403723560418 26.2715394415637
8.11805702159543 61.0268978087211 5.75537915506417 -3.24900885312627 17.0543319475443
11.0281563629638 60.8244933237292 1.43884478876605 -3.24900885312627 17.0543319475443
8.11805702159543 61.0268978087211 5.75537915506417 -3.09429414583454 8.34915313491276
11.0308115296411 60.8391375818015 0.47961492958868 -3.09429414583454 8.34915313491276
1.60562284555024 13.7062823153075 0.535610581266548 -1.5573256720812 7.97235159730267
7.8199144864916 11.3831461269628 -0 -1.5573256720812 7.97235159730267
8.34923879686126 10.9877391278666 -0.535610581266548 -1.0382171147208 7.21375360053765
8.08741764321306 11.5376109488183 -0.986010388240691 -1.14203882619288 9.33016458891873
8.52895508750576 11.2242487985892 -0.87645367843617 -1.0382171147208 8.99039879626269
8.0546366755866 11.9637486595431 -0.671947820134396 -1.45350396060912 13.3077832577107
9.32512514156523 10.8571338711311 1.90385215704746 -1.34968224913704 7.87885075605079
8.2149911961408 11.7196089716698 -1.90385215704746 -1.24586053766496 9.58894821437591
9.06447079169727 11.2241608061891 0.559956516778664 -1.24586053766496 9.58894821437591
8.21856495634624 12.2072353403445 -1.0298330721625 -1.45350396060912 6.64506610063905
9.61999646929837 10.9704581709105 2.17409204123194 -1.45350396060912 6.64506610063905
-6.81730238821217 13.8303754969594 -2.92151226145389 -2.38789936385784 6.62525917169275
-6.94302232759176 14.0854256429058 -3.10410677779477 -2.28407765238576 5.61885337260543
-12.5850199094037 15.9040637879515 -2.21548013160254 0.5191085573604 32.3176081041891
-7.85125773489203 18.6595060564731 -2.53197729326004 0.5191085573604 32.3176081041891
-12.5953595881749 15.9171303473935 -2.05723155077378 0.62293026883248 38.3583748346289
-7.85869053625962 18.6771710480984 -2.37372871243129 0.62293026883248 38.3583748346289
-12.6049258024175 15.929219456717 -1.89898296994503 0.726751980304561 6.14248850524935
-7.88859045610751 18.7482319856359 -1.58248580828753 0.726751980304561 6.14248850524935
0.636437295529403 20.5028166615745 -2.89229713883936 0.5191085573604 151.924552432157
0.636437295529403 20.5028166615745 -2.89229713883936 0.62293026883248 184.635379542701
0.636437295529403 20.5028166615745 -2.89229713883936 0.726751980304561 27.6771987605615
0.646773689942931 20.8358034319774 -2.77300205482999 0.5191085573604 235.123116762959
0.647426791677251 20.8568430932514 -2.60988428689881 0.62293026883248 350.508856291644
0.647426791677251 20.8568430932514 -2.60988428689881 0.726751980304561 50.0732055640249
0.658293349107271 21.2069090562224 -2.31773306075343 0.5191085573604 112.027775773915
0.658834193842996 21.2243323601942 -2.15218069927104 0.62293026883248 180.50382668861
0.658834193842996 21.2243323601942 -2.15218069927104 0.726751980304561 16.3093507698519
0.652232985914018 21.0116745589253 5.20759560604157 0.5191085573604 7.5716562708749
0.652232985914018 21.0116745589253 5.20759560604157 0.62293026883248 13.1473365475249
0.674242556045944 21.7207124867538 -3.2380094231114 0.62293026883248 6.90134660873489
-10.4746561795909 24.8943439410907 5.78459427767871 -2.595542786802 11.0038085146927
