VERSION .7
FIELDS x y z velocity intensity
SIZE 4 4 4 4 4
TYPE F F F F F
COUNT 1 1 1 1 1
WIDTH 874
HEIGHT 1
VIEWPOINT 0 0 0 1 0 0 0
POINTS 874
DATA ascii
7.985640 0.640095 10.688900 -11.366400 7.410000
8.157960 0.660744 11.096900 -11.455200 5.130000
7.985150 1.700060 11.642500 -11.810400 7.820000
8.134420 1.751570 12.058300 -11.810400 8.910000
-7.015100 1.628160 13.739400 -12.076800 5.380000
8.034680 1.771430 13.656300 -12.165600 4.270000
6.814400 0.734047 14.870800 -12.432000 4.160000
8.365310 1.718620 13.970800 -12.165600 3.270000
8.694210 1.567460 13.786500 -11.988000 4.170000
-6.584370 0.734047 14.974000 -12.432000 3.600000
-6.261220 0.413083 16.053200 -12.698400 4.880000
-7.261260 0.879170 15.607100 -12.343200 6.450000
-7.109290 0.423410 16.167800 -12.609600 5.660000
-7.560870 1.105710 15.928900 -12.343200 7.580000
9.176120 1.051180 15.060300 -12.165600 6.960000
-7.156400 0.209888 16.621400 -12.609600 8.800000
-7.870820 1.132680 16.257200 -12.343200 8.020000
-0.461945 1.773710 18.437800 1.154400 4.680000
-7.457730 0.214886 16.960200 -12.520800 8.030000
-7.996250 4.953140 15.963700 -12.343200 6.590000
-0.581738 1.814960 18.863600 1.154400 11.530000
-7.007100 1.362130 17.564500 -12.698400 8.980000
-0.594960 1.856210 19.292300 1.154400 13.620000
-7.170830 1.213590 17.974900 -12.698400 10.510000
-0.760381 1.836430 19.721500 1.154400 11.480000
-6.436910 1.240560 18.706000 -12.964800 8.750000
-7.436270 1.240560 18.331700 -12.698400 8.500000
-0.233718 1.205010 20.215100 1.243200 9.830000
-6.576840 1.267520 19.112700 -12.964800 7.080000
8.387430 2.187940 18.303500 -12.787200 5.970000
-11.536800 1.813970 16.545900 -12.343200 8.700000
-0.119347 1.230650 20.646200 1.154400 6.340000
-11.249300 1.979950 17.243200 -13.053600 6.190000
9.875680 2.234490 18.035300 -12.698400 5.640000
-11.782200 1.852570 16.898000 -12.343200 10.620000
-11.347600 2.021200 17.690400 -13.053600 7.250000
-12.027700 1.891160 17.250000 -12.343200 8.780000
-6.002910 1.680770 20.623500 -13.231200 6.470000
-0.252398 2.509230 21.830700 1.243200 7.840000
-6.127150 1.511040 21.050300 -13.231200 8.100000
-0.257346 2.558440 22.258800 1.243200 7.670000
-6.252140 1.264020 21.479700 -13.142400 8.690000
-0.699359 2.607640 22.677600 1.243200 4.770000
-11.113000 0.953237 19.928700 -13.231200 9.300000
-6.203450 1.288330 21.941200 -13.231200 8.440000
-0.712555 2.656840 23.105400 1.243200 5.940000
-11.133700 2.012460 20.332700 -13.231200 8.540000
-11.225800 1.903640 20.785200 -13.320000 6.570000
8.452080 2.049720 22.046000 -13.142400 6.920000
-5.612360 1.286730 23.433400 -13.320000 4.470000
9.703280 1.081750 22.067000 -12.876000 6.800000
-5.705930 1.764580 23.824100 -13.320000 5.180000
-14.809600 1.840340 19.507600 -12.609600 6.390000
-5.806040 1.795540 24.242000 -13.320000 4.190000
-10.563900 1.777690 23.530300 -12.698400 3.850000
-6.100440 2.212580 25.471300 -13.408800 4.730000
-10.739900 1.807320 23.922400 -12.698400 10.370000
-10.918300 1.754510 24.319700 -12.698400 11.860000
-11.094400 1.782810 24.711900 -12.698400 9.280000
18.538600 1.428650 20.946500 -10.744800 6.720000
8.875720 -2.422400 26.454300 -13.320000 9.000000
18.823800 1.450630 21.268700 -10.744800 7.530000
8.990160 -3.159850 26.795400 -13.320000 10.760000
7.689470 -3.159850 27.197200 -13.320000 10.410000
8.907650 -3.451630 27.244000 -13.320000 10.740000
8.880620 -3.503140 27.702400 -13.320000 9.370000
9.663220 -1.424730 28.081800 -13.231200 7.710000
-5.081010 1.794690 29.677800 -13.586400 5.490000
9.760330 -3.165880 28.364100 -13.231200 7.250000
-5.334160 0.993319 30.108900 -13.586400 4.440000
10.111600 -1.371510 28.842000 -13.142400 4.770000
-5.997660 0.815491 30.428600 -13.497600 5.930000
-6.076950 1.410140 30.830900 -13.497600 5.540000
-5.792930 1.995680 31.292400 -13.586400 5.620000
10.137300 1.035290 30.214500 -13.320000 5.510000
10.272100 1.249050 30.616100 -13.320000 5.630000
-5.592600 1.589910 32.665900 -13.586400 6.960000
-5.665240 1.610560 33.090100 -13.586400 9.150000
-5.734290 2.025440 33.493500 -13.586400 9.190000
-5.085770 2.157490 34.026400 -13.675200 10.200000
18.824900 1.603310 30.367200 -12.076800 7.620000
19.051700 1.622630 30.733000 -12.076800 6.220000
-18.247100 -3.910360 31.014100 -0.088800 5.320000
19.278500 1.641950 31.098900 -12.076800 4.920000
19.505300 1.661260 31.464800 -12.076800 6.140000
-18.271000 -1.976060 32.179500 -11.810400 10.820000
-18.483400 -1.999030 32.553600 -11.810400 10.470000
-17.990800 -2.139110 33.311000 -11.988000 9.610000
10.714100 1.008040 36.809300 -13.497600 5.920000
-18.389600 -2.163410 33.583800 -11.899200 7.980000
10.834500 1.019360 37.222800 -13.497600 7.950000
-18.596300 -2.187720 33.961100 -11.899200 11.160000
10.954900 1.030690 37.636400 -13.408800 9.250000
11.063400 2.113920 38.009000 -13.408800 8.440000
-18.545000 -2.022090 34.979200 -12.076800 8.850000
10.904500 1.202550 39.438100 -13.497600 13.670000
19.155400 1.835120 36.130600 -12.520800 8.400000
-19.497000 -5.270970 35.606200 -0.444000 7.930000
11.020900 0.991400 39.858900 -13.497600 7.180000
19.359600 1.726620 36.515800 -12.520800 7.230000
11.135700 1.001730 40.274100 -13.497600 6.400000
19.561300 1.744600 36.896200 -12.520800 8.730000
-19.856600 1.001730 36.765800 -11.988000 12.060000
-20.060200 1.109970 37.142700 -11.988000 10.850000
-20.264900 1.121300 37.521700 -11.988000 5.140000
19.294000 0.899476 38.518600 -12.609600 8.490000
-20.469600 1.132630 37.900700 -12.076800 13.150000
-20.378600 1.143950 38.437900 -12.076800 15.210000
-8.386350 3.496000 43.882900 -13.586400 6.130000
19.519500 1.316470 40.317700 -12.698400 7.890000
-8.825240 1.906470 44.774100 -13.497600 8.400000
-7.773700 1.924460 45.405500 -13.586400 5.270000
19.442500 1.211910 41.788900 -12.787200 4.930000
19.624200 1.223240 42.179500 -12.787200 8.760000
-7.919990 1.815290 46.259900 -13.586400 6.740000
19.807000 1.125650 42.572500 -12.787200 5.370000
-17.275600 -0.410453 45.060900 -12.787200 6.440000
-17.429900 -0.414117 45.463300 -12.787200 8.490000
20.119000 0.000000 44.813600 -12.876000 5.890000
-29.341200 1.302520 39.911700 -11.011200 10.120000
20.295400 0.000000 45.206700 -12.876000 6.180000
-29.596400 1.313850 40.258800 -11.011200 8.330000
20.468700 -0.888834 45.592600 -12.876000 4.980000
-18.024000 -2.571570 47.013000 -12.787200 7.800000
-30.106700 1.336500 40.952900 -11.011200 10.990000
-30.361800 1.347820 41.299900 -11.011200 11.280000
-30.618700 1.239250 41.649400 -10.922400 8.360000
-3.365690 1.884640 52.860100 -13.764000 13.120000
-3.803680 1.899960 53.262200 -13.764000 11.720000
-3.835940 1.124350 53.714000 -13.764000 12.530000
-15.869800 -1.427110 51.902700 -13.142400 9.950000
-17.259000 -1.930610 51.441000 -12.964800 5.130000
-15.592100 -1.438430 52.436300 -13.142400 8.890000
20.191200 -1.461090 51.768700 -13.053600 8.240000
20.331400 -2.684270 52.128000 -13.053600 10.910000
13.007400 3.055990 55.730300 -13.586400 6.710000
24.048700 -1.205300 52.480300 -12.787200 10.640000
24.136000 -5.210350 52.671000 -12.787200 6.980000
-15.179500 -1.065070 57.929900 -13.320000 9.170000
-15.287800 -1.259270 58.343200 -13.320000 7.570000
-14.603000 -1.268260 58.962200 -13.408800 6.730000
-13.903400 -1.466450 59.569200 -13.320000 9.160000
32.489500 0.663321 70.900500 -12.787200 7.480000
15.757500 0.909516 76.819000 -13.675200 6.080000
32.669700 0.424448 71.293800 -12.876000 7.160000
16.290300 0.914514 77.148300 -13.675200 6.040000
15.931500 0.429113 77.667300 -13.675200 7.530000
15.415800 0.431445 78.210500 -13.675200 8.440000
16.646400 0.934503 78.834600 -13.675200 5.620000
16.735400 0.939500 79.256100 -13.675200 8.320000
16.824400 0.944498 79.677700 -13.675200 10.930000
16.913400 0.949495 80.099300 -13.675200 9.330000
17.003000 0.699968 80.523400 -13.675200 7.330000
17.092000 0.703633 80.944900 -13.675200 6.820000
17.181000 0.707298 81.366500 -13.675200 8.900000
16.797000 0.710963 81.886600 -13.675200 9.140000
16.883000 0.974482 82.306100 -13.675200 10.780000
16.969600 0.979479 82.728200 -13.675200 8.710000
17.056700 0.721957 83.152900 -13.675200 12.710000
17.143300 0.725622 83.575000 -13.675200 11.160000
17.229900 0.729286 83.997100 -13.675200 8.780000
17.316500 0.732951 84.419200 -13.675200 16.030000
17.551900 4.664410 85.566600 -13.675200 14.740000
16.991900 2.582310 86.207000 -13.675200 15.440000
17.078900 1.843930 86.648100 -13.675200 11.770000
18.006900 1.593770 87.785200 -13.675200 12.630000
18.093500 1.601430 88.207300 -13.675200 19.850000
17.445900 7.059220 88.510300 -13.675200 21.710000
17.544600 5.970990 89.011000 -13.675200 19.070000
27.328700 1.189370 98.838700 -13.497600 6.680000
27.443500 1.194360 99.254000 -13.497600 8.860000
27.558300 1.199360 99.669300 -13.497600 8.650000
17.497500 1.259330 107.160000 -13.764000 8.350000
17.567800 0.590030 107.591000 -13.764000 8.180000
17.637500 0.000000 108.018000 -13.764000 6.920000
-13.564100 2.899520 109.435000 -13.764000 5.830000
-13.617100 2.910850 109.862000 -13.764000 6.170000
-11.104600 2.183770 122.284000 -13.764000 6.100000
-11.143600 2.191430 122.713000 -13.764000 6.060000
-9.886040 1.886300 128.013000 -13.852800 5.080000
-9.919210 1.892630 128.443000 -13.764000 6.620000
-9.952390 1.898960 128.872000 -13.764000 7.950000
-43.174500 -19.977000 164.768000 -13.231200 5.280000
16.658000 4.151490 172.369000 -13.852800 7.370000
16.699400 4.161810 172.798000 -13.852800 9.420000
16.742000 3.633880 173.239000 -13.852800 7.470000
6.820330 0.018990 4.528950 -5.949600 5.270000
7.179290 0.019990 4.767310 -6.304800 10.950000
7.538260 0.020989 5.005680 -6.482400 12.040000
7.017490 1.054060 5.614830 -8.702400 6.820000
7.897220 0.021989 5.244040 -6.660000 8.800000
7.166850 1.104260 6.106020 -9.057600 6.900000
7.430760 1.154450 6.455460 -9.146400 8.210000
7.349020 1.236400 7.170210 -9.679200 5.890000
7.979720 1.106960 7.785560 -9.679200 7.880000
-7.643870 0.398380 8.181000 -9.679200 8.530000
8.208350 1.149530 8.164460 -9.768000 9.510000
-7.873730 0.341777 8.558300 -9.768000 9.110000
7.608220 1.113720 8.731060 -10.300800 8.930000
8.512370 1.192110 8.466850 -9.768000 7.330000
7.802410 1.154970 9.130030 -10.389600 7.550000
-7.835030 0.354435 9.168190 -10.123200 6.880000
7.841690 1.196220 9.655540 -10.567200 6.310000
8.366930 1.574420 10.846500 -10.922400 5.960000
8.284950 1.142190 11.500200 -11.188800 9.300000
8.352350 1.176800 11.978900 -11.277600 9.590000
8.502710 1.211410 12.397100 -11.277600 8.710000
8.125410 -1.675870 13.107400 -11.632800 8.860000
8.443470 -1.906120 13.388900 -11.721600 8.770000
8.882600 -1.957640 13.615500 -11.632800 5.700000
9.158480 1.207340 14.038400 -11.632800 5.810000
7.965260 1.207340 14.748200 -11.988000 7.260000
7.039440 1.291460 15.679900 -12.254400 8.500000
7.339080 1.323750 16.015800 -12.343200 7.490000
-6.195280 1.523420 16.936000 -12.432000 5.670000
-6.612630 1.445460 17.248100 -12.432000 10.600000
-6.787100 0.000000 17.703200 -12.432000 11.760000
-6.941330 0.044977 18.105500 -12.520800 8.870000
-7.447660 0.582286 18.359800 -12.432000 4.270000
-6.694510 0.845324 19.095100 -12.698400 6.150000
-6.724100 0.863309 19.540600 -12.698400 8.330000
-6.555900 0.881295 20.051200 -12.609600 7.640000
18.468800 1.483270 14.777300 -8.702400 10.350000
18.952300 1.435750 14.866900 -8.613600 10.670000
-10.956000 1.094360 20.008200 -12.432000 8.150000
19.290700 1.461390 15.132400 -8.613600 6.470000
-6.191170 1.312630 22.391400 -12.964800 4.350000
18.361600 1.252820 16.264700 -9.324000 8.950000
-5.997650 1.336940 22.889000 -12.964800 6.670000
18.681500 1.332690 16.548000 -9.324000 7.460000
-7.658970 1.584720 22.827700 -12.876000 9.060000
19.003600 1.355670 16.833300 -9.324000 5.680000
-10.507200 1.688810 22.136000 -12.787200 7.030000
18.609500 1.401620 18.510000 -9.768000 9.480000
18.914500 1.424600 18.813400 -9.768000 8.380000
19.219600 1.447580 19.116800 -9.768000 7.000000
19.094600 1.493530 20.436300 -10.123200 4.610000
-10.375600 1.782810 25.022200 -12.343200 4.560000
-10.344100 1.811110 25.499900 -12.432000 5.800000
-10.355800 1.839400 25.958600 -12.520800 9.660000
-11.446600 1.839400 25.496400 -12.254400 4.720000
-5.684910 2.897490 27.714400 -13.142400 9.600000
-9.954140 1.867700 26.574900 -12.609600 9.470000
-11.622700 1.867700 25.888700 -12.254400 5.640000
-5.554030 2.941390 28.177900 -13.142400 6.590000
-11.798800 1.896000 26.280900 -12.254400 6.750000
8.691120 0.712569 28.424500 -12.964800 10.020000
-11.009900 1.057240 27.598200 -12.520800 6.200000
8.593330 0.886088 28.899400 -12.964800 7.950000
10.534800 -2.794560 28.125000 -12.698400 6.140000
8.783380 -1.312950 30.176000 -12.964800 8.670000
19.135600 0.849469 26.029400 -11.100000 9.980000
-5.883970 1.564680 34.367800 -13.231200 9.480000
-5.547320 2.348780 35.253700 -13.231200 6.220000
-10.188300 1.161200 34.263200 -12.876000 7.860000
-10.312000 1.063310 34.679300 -12.787200 7.170000
-10.435700 0.962732 35.095200 -12.787200 5.780000
11.642800 1.333040 35.609500 -12.876000 7.830000
-18.210600 -1.482210 33.718100 -11.721600 6.940000
10.362400 9.793910 35.601000 -13.053600 9.300000
-18.412900 -1.618700 34.092700 -11.721600 10.350000
10.209400 9.787950 36.110000 -13.053600 7.140000
-18.084000 -1.636690 34.754400 -11.810400 5.490000
9.617430 9.896700 36.703300 -13.142400 10.350000
-8.181980 1.777170 38.748500 -13.142400 9.080000
-8.043200 1.920290 39.211200 -13.142400 12.650000
-7.907220 1.961580 40.116600 -13.142400 8.690000
10.682800 2.642920 40.769000 -13.142400 7.600000
-16.678400 -6.407380 38.737300 -12.165600 12.070000
11.029700 2.669890 41.122000 -13.231200 4.770000
-19.584300 1.399040 38.356800 -11.899200 11.360000
-20.078100 1.413030 38.586800 -11.899200 6.400000
-20.274800 1.562870 38.964700 -11.899200 6.530000
-20.167400 1.715370 39.498800 -11.899200 9.120000
23.904600 -0.683627 39.922600 -11.810400 7.490000
11.435500 2.230010 45.055200 -13.231200 7.090000
11.541400 2.250660 45.472300 -13.231200 7.670000
20.456600 1.931870 45.565700 -12.432000 5.800000
-16.404100 0.272860 47.671100 -12.609600 8.430000
20.633000 1.948520 45.958500 -12.520800 7.720000
-16.164900 1.650870 48.179900 -12.609600 6.420000
11.942400 -0.594684 49.863500 -13.231200 8.890000
12.043200 -0.439771 50.284000 -13.231200 8.330000
13.215000 -0.604678 50.432800 -13.231200 7.670000
10.859200 -0.934808 51.427500 -13.320000 8.440000
12.046400 -0.286852 51.612800 -13.231200 8.930000
11.441600 0.123937 52.192100 -13.231200 10.110000
11.533800 0.124936 52.613000 -13.231200 7.960000
19.621100 -2.987060 52.383100 -12.787200 8.500000
21.823400 -2.987060 51.504600 -12.609600 6.960000
19.785400 -2.181680 52.821800 -12.787200 6.570000
22.006100 -2.181680 51.935900 -12.609600 8.110000
19.218300 -3.101950 54.817500 -12.787200 7.090000
19.785700 -3.124920 55.072700 -12.787200 9.010000
19.927800 -3.330200 55.468200 -12.787200 9.860000
22.154100 -3.563740 55.533000 -12.609600 8.810000
22.313500 -3.589380 55.932600 -12.609600 7.410000
-15.845900 -1.608330 59.078500 -12.964800 6.250000
-15.153700 -1.619660 59.704300 -12.964800 6.130000
-15.722500 -1.630980 60.002500 -12.964800 8.880000
16.450700 0.696304 80.198200 -13.231200 8.430000
16.537200 0.699968 80.620300 -13.231200 5.760000
16.623800 0.703633 81.042400 -13.231200 5.610000
16.797300 0.452434 81.888400 -13.231200 6.430000
16.883900 0.454766 82.310500 -13.231200 7.050000
17.057300 0.196900 83.155700 -13.231200 5.410000
17.143900 0.197899 83.577800 -13.231200 5.670000
17.229400 0.994471 83.994500 -13.320000 10.580000
17.315200 1.265980 84.413100 -13.320000 8.330000
17.401800 1.272310 84.835200 -13.320000 10.580000
17.489100 1.009460 85.260700 -13.231200 7.880000
14.328700 2.423820 91.060300 -13.320000 8.480000
17.999200 0.215890 91.317200 -13.320000 9.250000
18.080600 1.373580 91.730300 -13.320000 8.640000
17.094300 2.251300 92.340300 -13.320000 10.610000
16.457200 2.261630 92.893500 -13.320000 12.840000
26.901000 1.204360 100.295000 -13.142400 10.120000
27.011500 1.531830 100.707000 -13.142400 7.810000
27.123100 1.538160 101.123000 -13.142400 8.610000
17.703100 2.293660 108.420000 -13.320000 5.880000
17.772500 2.302660 108.845000 -13.320000 6.740000
17.842000 2.311650 109.270000 -13.320000 6.780000
17.911400 2.320650 109.695000 -13.320000 8.420000
-11.105600 1.424240 122.295000 -13.408800 11.730000
-11.144600 1.429240 122.724000 -13.408800 10.380000
-11.183500 1.434240 123.153000 -13.408800 13.790000
-10.653900 1.459220 125.362000 -13.408800 13.560000
-10.690400 1.464220 125.792000 -13.408800 10.450000
-10.727200 1.077440 126.225000 -13.408800 7.530000
-10.763700 1.081100 126.654000 -13.408800 6.850000
16.783500 3.642880 173.667000 -13.408800 5.850000
16.824900 3.651870 174.096000 -13.408800 5.260000
16.866300 3.660870 174.525000 -13.408800 5.030000
6.820330 -0.018990 4.528950 -6.038400 5.080000
7.179290 -0.019990 4.767310 -6.216000 11.610000
7.538260 -0.020989 5.005680 -6.393600 13.030000
6.770050 0.293799 5.996890 -9.146400 4.750000
7.897240 0.000000 5.244060 -6.571200 10.080000
7.329220 0.307789 6.004540 -8.791200 5.790000
6.844400 -0.337091 6.550350 -9.590400 2.870000
7.598910 0.413669 6.348810 -8.968800 6.320000
7.089210 -0.352413 6.916710 -9.679200 6.840000
7.395660 -0.431655 7.215710 -9.768000 8.300000
8.008520 0.571461 7.813660 -9.679200 7.490000
8.457000 0.129931 7.347000 -9.146400 8.170000
8.237980 0.593440 8.193930 -9.768000 7.580000
8.782270 0.134928 7.629580 -9.146400 8.170000
8.635220 0.139926 8.425110 -9.679200 5.700000
9.107540 0.139926 7.912150 -9.235200 6.550000
7.845480 1.404840 11.251900 -11.277600 7.150000
8.193450 1.196970 11.560000 -11.277600 9.300000
8.257140 1.233240 12.039100 -11.366400 10.710000
7.946190 0.034982 12.818300 -11.721600 9.220000
8.274600 -0.035982 13.121100 -11.721600 15.710000
8.504160 -0.135596 13.485200 -11.721600 17.040000
7.333070 -0.139261 14.639700 -12.076800 14.430000
8.373690 1.556970 14.486800 -11.899200 8.440000
8.588400 1.596890 14.858300 -11.988000 6.640000
8.710580 0.942073 15.341400 -11.988000 7.270000
8.923030 0.965050 15.715600 -11.988000 6.490000
9.137990 0.887874 16.094100 -11.988000 10.000000
9.221890 0.967087 16.537500 -11.988000 6.360000
-7.033410 1.153730 18.033100 -12.520800 7.460000
-7.437680 1.179370 18.335200 -12.343200 6.890000
-6.578090 1.205010 19.116300 -12.698400 6.990000
-6.945180 1.205010 18.986000 -12.520800 4.590000
-7.246710 0.991115 19.346800 -12.520800 5.380000
-7.243250 1.125890 19.800800 -12.520800 4.330000
18.606600 1.556420 14.595800 -8.702400 9.400000
-12.732800 1.781610 18.874900 -11.810400 8.060000
18.948700 1.510240 14.864100 -8.702400 8.080000
-9.514860 1.312630 21.193700 -12.698400 7.450000
-6.195640 0.971223 22.407600 -12.964800 7.660000
18.356300 1.385560 16.259900 -9.412800 4.650000
-6.129860 1.336940 22.854000 -12.964800 8.810000
18.681500 1.332690 16.548000 -9.412800 8.620000
-5.926900 1.361250 23.351600 -13.053600 8.370000
-10.832100 2.124260 21.941100 -12.609600 11.020000
18.996900 1.512670 16.827400 -9.412800 6.440000
-10.735900 1.811110 25.337400 -12.432000 9.490000
-11.252000 1.752960 25.589000 -12.343200 4.900000
-10.671500 1.692140 26.307000 -12.520800 7.030000
-11.625000 1.779930 25.893800 -12.343200 8.300000
8.104010 0.593654 27.253800 -13.053600 6.150000
-10.312600 1.896000 26.898900 -12.698400 7.950000
8.210830 1.896000 27.613100 -12.964800 8.780000
9.740190 1.896000 27.111400 -12.964800 8.000000
9.997110 -3.120650 27.826600 -12.876000 7.110000
18.906900 1.087880 24.027800 -10.833600 7.150000
9.203880 -0.886088 28.710800 -12.964800 6.780000
19.175200 1.007310 24.368700 -10.833600 9.300000
19.175200 1.007310 24.368700 -10.922400 10.670000
18.878800 0.936721 25.680100 -11.277600 6.230000
19.132100 1.049280 26.024600 -11.277600 7.000000
-4.826930 2.235580 33.622900 -13.320000 6.890000
-4.691130 2.263880 34.076200 -13.408800 5.090000
-4.951930 1.968950 34.493700 -13.320000 8.930000
-4.811130 1.993260 34.947900 -13.320000 7.510000
-10.065500 1.147210 33.850400 -12.876000 7.300000
-10.188300 1.161200 34.263200 -12.876000 5.970000
-10.312000 1.063310 34.679300 -12.876000 9.540000
-19.263700 -2.179270 31.075100 -11.277600 6.480000
-19.247500 -2.204910 31.589900 -11.366400 8.830000
-19.446400 -2.924530 31.916400 -11.366400 5.420000
9.012020 -0.318834 36.387600 -13.231200 6.280000
9.115610 -0.322499 36.805800 -13.231200 7.590000
-18.381400 -2.786180 34.034200 -11.721600 9.790000
-8.606700 2.000110 38.203400 -13.142400 8.190000
-19.566800 -1.042020 34.461700 -11.544000 8.450000
-8.700220 2.113920 38.618500 -13.142400 4.930000
-19.779500 -1.053340 34.836300 -11.544000 8.900000
-8.791720 2.384380 39.024600 -13.142400 12.520000
10.586600 1.615440 40.402100 -13.231200 7.080000
10.694400 1.762590 40.813500 -13.231200 6.540000
-20.175100 1.265840 38.054000 -11.810400 4.280000
-20.080000 1.278500 38.590500 -11.810400 10.970000
-20.280600 1.155280 38.975900 -11.810400 13.600000
10.811900 0.509729 42.598200 -13.231200 9.320000
10.918200 0.377470 43.017100 -13.231200 7.490000
-18.037300 -0.519724 41.020100 -12.254400 14.330000
11.024200 0.381135 43.434800 -13.231200 8.250000
-18.210700 -0.524721 41.414500 -12.254400 9.540000
11.842700 -0.275192 49.447000 -13.320000 9.190000
-17.986400 -0.118939 48.018900 -12.609600 11.720000
11.943100 -0.277524 49.866100 -13.320000 16.610000
12.042300 -0.759586 50.280400 -13.231200 7.910000
11.457800 -0.765916 50.858600 -13.320000 17.710000
19.210100 -3.333000 52.514500 -12.876000 6.580000
21.214200 -1.178310 52.296600 -12.698400 5.640000
19.947000 -1.187310 53.253200 -12.787200 7.290000
22.488100 -1.187310 52.230900 -12.609600 7.640000
19.934000 -2.374100 53.218400 -12.787200 5.970000
22.643700 -2.392090 52.592200 -12.609600 6.270000
20.238500 -2.231640 54.031500 -12.787200 7.950000
22.816800 -2.231640 52.994300 -12.609600 7.660000
20.244900 -1.696230 54.048500 -12.876000 8.940000
19.975700 -1.708880 54.607500 -12.876000 5.650000
-14.193700 -2.028610 60.813100 -13.053600 5.960000
17.000900 1.463510 80.513500 -13.320000 7.030000
17.090800 1.215340 80.939100 -13.320000 5.720000
16.709200 1.221670 81.458600 -13.320000 4.320000
17.142800 0.989474 83.572400 -13.320000 5.910000
17.228700 1.259650 83.991000 -13.320000 5.750000
17.315200 1.265980 84.413100 -13.320000 7.380000
17.402500 1.004470 84.838600 -13.320000 7.040000
17.490000 0.471091 85.265200 -13.320000 10.250000
17.523300 6.823910 85.427400 -13.320000 12.810000
17.613800 6.586460 85.868600 -13.320000 9.870000
17.700100 6.618750 86.289500 -13.320000 9.220000
17.298600 5.609470 87.762900 -13.320000 18.510000
17.374700 6.192290 88.148900 -13.320000 18.250000
15.910400 5.153300 89.806900 -13.408800 8.860000
18.465500 2.284670 107.855000 -13.408800 6.960000
17.703100 2.293660 108.420000 -13.408800 11.130000
17.772500 2.302660 108.845000 -13.408800 11.040000
17.840700 2.654060 109.263000 -13.408800 7.010000
-11.144100 1.810350 122.719000 -13.408800 7.000000
-11.894800 1.816680 123.082000 -13.408800 12.780000
-11.222100 1.823010 123.577000 -13.408800 9.420000
16.782300 4.182470 173.655000 -13.497600 5.030000
16.824900 3.651870 174.096000 -13.497600 4.660000
7.179290 0.019990 4.767310 -6.571200 8.840000
7.538280 0.000000 5.005690 -6.748800 11.170000
7.897240 0.000000 5.244060 -6.748800 9.150000
8.068200 0.835853 8.340410 -10.034400 6.430000
8.011020 1.585190 10.020900 -10.922400 3.400000
8.071590 1.743710 11.576200 -11.366400 5.880000
8.589520 0.637461 11.314300 -11.100000 7.080000
8.848540 0.702040 11.655500 -11.100000 7.480000
7.660920 1.796550 12.358100 -11.721600 7.820000
9.195260 0.897346 11.920300 -11.100000 6.840000
7.830450 1.517050 14.300200 -11.988000 11.060000
8.136700 1.815520 14.591400 -12.076800 11.670000
-6.325630 1.523420 16.887700 -12.520800 6.950000
-6.239510 1.659590 17.367400 -12.698400 4.200000
-6.649400 0.337144 17.752100 -12.609600 5.690000
-6.940250 0.344806 18.102600 -12.609600 4.400000
-6.952730 0.045976 18.561900 -12.609600 10.260000
-6.689680 1.142480 19.081400 -12.698400 8.300000
-6.832010 1.166790 19.487400 -12.698400 4.630000
-7.382480 1.547880 20.181400 -12.698400 8.550000
-6.082950 1.471520 21.515000 -12.876000 11.310000
18.465200 1.556420 14.774400 -8.880000 6.380000
-6.471140 2.299070 22.232100 -12.876000 8.860000
-6.721760 2.341650 22.605300 -12.876000 5.240000
18.511200 1.564180 16.718200 -9.501600 9.190000
18.830400 1.591150 17.006400 -9.501600 7.950000
-10.565900 1.866570 24.936300 -12.520800 5.790000
-10.733700 1.896200 25.332100 -12.520800 8.260000
-10.901400 1.925830 25.727900 -12.520800 7.120000
-10.867400 1.955460 26.208300 -12.609600 9.030000
9.503310 -2.353600 27.617200 -12.964800 6.320000
9.647130 -2.227770 28.035100 -12.964800 7.080000
18.656600 1.725870 24.185500 -11.011200 5.460000
9.538270 -3.258630 28.429000 -12.964800 8.440000
18.922600 1.654370 24.530300 -11.011200 12.240000
9.674530 -3.305180 28.835200 -12.964800 12.080000
19.185400 1.677350 24.871000 -11.011200 12.560000
9.845190 -2.133230 29.343800 -12.964800 7.690000
10.210900 -2.162860 29.673600 -12.964800 13.130000
18.862400 1.626470 25.657800 -11.277600 8.210000
19.117300 1.648440 26.004500 -11.277600 10.710000
19.366500 1.847410 26.343500 -11.277600 4.820000
9.455240 0.590002 31.798100 -13.231200 6.290000
10.011600 0.597664 32.078900 -13.142400 6.210000
-5.290830 0.500061 33.623700 -13.320000 4.770000
-19.491300 -1.448900 31.990100 -11.366400 8.280000
9.711760 -0.086956 36.208400 -13.231200 7.140000
-19.715300 -1.465550 32.357800 -11.366400 8.520000
10.316500 -0.087955 36.488700 -13.231200 7.220000
-17.984100 -2.373240 33.298700 -11.721600 6.210000
-18.188500 -2.400210 33.677100 -11.721600 7.350000
-18.118500 -2.786180 34.174900 -11.721600 10.510000
-17.785000 -2.817130 34.832900 -11.899200 11.230000
-4.762390 2.588990 41.009700 -13.408800 14.080000
11.135700 1.001730 40.274100 -13.231200 6.310000
11.250500 1.012050 40.689300 -13.231200 8.260000
11.363700 1.253180 41.098600 -13.231200 6.670000
-19.879300 1.399040 38.204800 -11.899200 8.970000
-20.078100 1.413030 38.586800 -11.899200 8.680000
-20.278900 1.291160 38.972600 -11.899200 10.680000
10.669400 -0.377470 43.079500 -13.320000 10.000000
-19.868600 1.303810 39.665600 -11.899200 11.010000
10.773000 -0.381135 43.497800 -13.320000 7.350000
19.767700 0.819872 41.645600 -12.520800 5.870000
-8.463770 1.942450 45.719800 -13.231200 7.120000
-8.542130 1.960430 46.143200 -13.231200 7.200000
-6.729710 1.978420 46.877100 -13.320000 8.920000
-7.430050 1.700770 47.218700 -13.320000 9.870000
20.119800 -0.115941 45.756100 -12.698400 10.420000
-29.389500 1.493690 41.465200 -10.833600 8.200000
19.937000 -0.116940 46.305600 -12.698400 7.080000
-29.638500 1.506350 41.816600 -10.833600 7.280000
20.107400 -0.117940 46.701300 -12.698400 5.660000
8.262700 -0.594684 50.603500 -13.320000 8.150000
20.277500 -0.277524 47.096600 -12.698400 8.040000
-30.141000 1.249580 42.525600 -10.833600 9.880000
12.042300 -0.759586 50.280400 -13.320000 13.110000
-30.390100 1.259900 42.877000 -10.833600 13.890000
12.532400 -0.927146 50.601800 -13.320000 5.020000
10.859200 -0.934808 51.427500 -13.320000 13.720000
10.645400 -1.556980 51.897300 -13.408800 9.110000
10.735400 -0.784905 52.336100 -13.408800 10.020000
-2.799950 1.415780 53.771000 -13.497600 19.390000
20.358100 -1.011430 53.101100 -12.876000 9.090000
23.986500 -1.363180 51.555700 -12.609600 6.880000
20.512300 -1.019090 53.503400 -12.876000 10.850000
24.168200 -1.373500 51.946300 -12.520800 7.020000
24.752600 -1.383830 52.147600 -12.520800 7.260000
23.173100 0.679639 53.821800 -12.609600 6.840000
-15.156500 -1.095720 59.715500 -13.053600 8.280000
-15.260500 -1.487100 60.125400 -13.053600 6.900000
-15.471600 -1.653630 60.956900 -13.053600 7.930000
-1.726300 1.652330 68.902600 -13.586400 8.230000
-1.336520 1.019110 69.354500 -13.586400 7.130000
16.145700 1.107730 73.650400 -13.320000 5.920000
16.236100 1.583080 74.063100 -13.408800 6.080000
15.657700 2.630200 79.438100 -13.408800 6.330000
15.746800 1.448190 79.890100 -13.408800 8.040000
16.911900 1.455850 80.092000 -13.408800 6.360000
17.001800 1.209010 80.517600 -13.408800 6.890000
17.090800 1.215340 80.939100 -13.408800 6.310000
17.142800 0.989474 83.572400 -13.408800 14.460000
17.229400 0.994471 83.994500 -13.408800 10.160000
17.315900 0.999469 84.416500 -13.408800 9.600000
17.402500 1.004470 84.838600 -13.408800 11.250000
17.490000 0.471091 85.265200 -13.320000 8.750000
17.527500 6.554180 85.447700 -13.408800 6.070000
17.617800 6.315330 85.888100 -13.408800 5.880000
17.715200 5.528570 86.363100 -13.408800 10.470000
17.790500 6.377250 86.730200 -13.408800 16.620000
17.204700 6.408210 87.286400 -13.408800 17.680000
17.279700 6.991990 87.667300 -13.408800 13.800000
17.746400 1.632080 90.034900 -13.320000 10.400000
18.502900 4.917160 90.203200 -13.408800 8.490000
17.973600 4.963120 91.187500 -13.408800 8.230000
17.076100 2.293660 108.520000 -13.497600 13.270000
17.143100 2.302660 108.946000 -13.497600 14.610000
17.840700 2.654060 109.263000 -13.497600 11.740000
-10.398500 1.424240 122.357000 -13.497600 8.810000
-10.435000 1.429240 122.786000 -13.497600 9.980000
-10.471500 1.434240 123.216000 -13.497600 12.060000
-10.508000 1.439230 123.645000 -13.497600 9.880000
-9.238340 1.504200 129.363000 -13.497600 6.760000
-9.269030 1.509200 129.792000 -13.497600 6.850000
-52.949000 -14.858600 117.940000 -12.076800 9.350000
-9.300010 1.110420 130.226000 -13.497600 6.120000
30.409000 1.110420 126.967000 -13.320000 8.000000
-53.124400 -14.907800 118.331000 -12.076800 8.840000
16.825900 3.110920 174.107000 -13.497600 6.610000
7.846250 1.720000 10.672900 -11.277600 3.590000
7.559450 1.775480 11.394400 -11.632800 4.330000
8.184020 1.775480 10.954500 -11.277600 5.070000
8.400800 1.021600 11.427300 -11.455200 6.870000
8.488630 1.021600 11.362200 -11.277600 6.490000
8.035100 1.841510 12.111400 -11.632800 6.740000
8.357770 1.052560 11.986700 -11.455200 7.090000
7.892120 1.756770 12.731100 -11.810400 8.140000
8.406910 1.211410 12.462300 -11.455200 4.200000
8.142620 1.341640 13.135200 -11.810400 9.870000
8.448500 1.246020 12.950100 -11.455200 3.430000
8.368800 1.378910 13.500000 -11.810400 7.060000
6.669280 1.718620 14.855400 -12.343200 5.040000
6.844790 1.763850 15.246300 -12.432000 4.870000
6.899570 1.809070 15.690900 -12.432000 6.100000
7.076540 1.745590 16.093300 -12.432000 6.510000
-7.184430 -0.224880 18.009000 -12.609600 8.030000
-5.785480 1.179370 18.921600 -12.876000 5.120000
-7.342980 -0.413759 18.406400 -12.520800 5.630000
-5.894760 1.179370 18.887800 -12.876000 6.200000
-7.237010 1.205010 18.876700 -12.609600 5.800000
-6.836950 0.863309 19.501400 -12.698400 7.940000
-7.132610 0.881295 19.853300 -12.698400 8.700000
-6.786120 1.671710 22.194200 -12.964800 7.600000
-4.593140 2.124260 24.034300 -13.053600 10.050000
-10.561200 2.034050 24.925200 -12.698400 6.140000
-10.728900 2.066340 25.320900 -12.698400 4.560000
-11.045000 2.098630 25.653100 -12.698400 12.380000
-5.988060 1.580020 27.315200 -13.231200 7.600000
-11.224500 1.779930 26.070000 -12.609600 13.230000
8.428620 -2.897490 27.006700 -13.142400 10.200000
-11.801100 1.806900 26.286200 -12.520800 4.240000
18.839300 1.494590 22.392100 -10.744800 5.160000
19.116400 1.516570 22.721400 -10.744800 5.640000
9.950450 -0.898746 28.916600 -13.142400 6.870000
9.067690 -0.911405 29.656100 -13.142400 11.930000
18.870500 1.330940 25.668800 -11.277600 9.520000
9.079160 1.429460 30.533300 -13.231200 11.410000
19.125500 1.348920 26.015700 -11.277600 6.340000
-6.487390 1.448780 31.626500 -13.320000 7.460000
-19.620500 -1.714380 27.234900 -10.833600 6.230000
-5.342150 1.384890 32.717100 -13.408800 7.600000
-19.658900 -1.736360 27.736500 -10.922400 5.690000
-19.026900 -1.944640 28.679500 -11.188800 5.330000
-19.907700 -1.758340 28.087500 -10.922400 4.740000
-19.273300 -1.672510 29.050900 -11.188800 5.570000
-18.785100 -0.974058 31.928400 -11.455200 11.530000
-18.990900 -1.680580 32.278400 -11.544000 7.470000
10.776000 1.654680 38.114200 -13.320000 7.010000
10.893200 1.672660 38.528500 -13.320000 6.160000
-4.969420 2.910010 40.093100 -13.497600 9.380000
-5.022290 2.940960 40.519700 -13.497600 7.130000
-15.067400 -5.253720 38.631400 -12.432000 10.120000
-15.222700 -5.307880 39.029700 -12.432000 12.240000
-15.800000 1.253180 39.605400 -12.432000 7.030000
-20.173200 1.399040 38.050400 -11.899200 6.930000
-20.376900 1.278500 38.434600 -11.899200 8.640000
-20.578600 1.291160 38.815100 -11.899200 10.290000
10.812600 0.000000 42.601000 -13.320000 8.410000
-20.477700 1.303810 39.354700 -11.899200 9.070000
10.918500 0.240210 43.018100 -13.320000 8.760000
10.773200 0.242542 43.498700 -13.408800 14.590000
-8.302450 2.435600 44.848400 -13.320000 5.350000
19.436900 1.639490 41.776900 -12.609600 17.580000
-8.383070 2.209360 45.283900 -13.320000 8.780000
-8.461420 2.230010 45.707100 -13.320000 9.970000
-10.664700 2.105550 45.692800 -13.320000 11.850000
19.740100 1.135980 43.077900 -12.698400 9.200000
-7.632600 1.831940 46.744500 -13.408800 10.040000
-7.701990 1.848600 47.169500 -13.408800 5.310000
19.937000 0.116940 46.305600 -12.787200 9.810000
-29.712500 1.218600 41.243400 -10.922400 10.280000
20.107400 0.000000 46.701500 -12.787200 5.490000
-29.959900 1.506350 41.587000 -10.922400 8.250000
20.277800 -0.118939 47.097100 -12.787200 10.490000
-30.211700 1.519010 41.936400 -10.922400 7.780000
-30.467900 1.249580 42.292000 -10.922400 7.570000
-30.719700 1.259900 42.641500 -10.922400 7.870000
10.857800 -1.259900 51.420900 -13.408800 14.610000
10.647000 -1.270230 51.904700 -13.408800 14.820000
-15.872800 -0.965457 51.912400 -12.964800 13.820000
-15.991200 -1.945930 52.299600 -12.964800 18.010000
-15.710400 -1.961250 52.834000 -12.964800 8.320000
-29.875800 0.996107 47.374500 -11.366400 8.570000
-30.105700 1.003770 47.738900 -11.366400 8.160000
20.502500 -1.658250 52.566700 -12.964800 8.930000
-15.471400 1.187310 54.721300 -12.964800 10.630000
24.222900 -1.708880 52.860700 -12.609600 8.730000
23.578600 -1.721540 53.622100 -12.698400 5.250000
24.907200 -3.563740 54.354000 -12.609600 7.910000
-15.738100 -0.892513 58.676400 -13.053600 10.170000
-5.881450 2.364870 60.858500 -13.497600 10.560000
-5.922870 2.381530 61.287100 -13.497600 9.070000
14.745100 0.939500 79.650400 -13.497600 7.090000
16.824400 0.944498 79.677700 -13.497600 6.510000
16.450100 0.949495 80.195700 -13.497600 4.680000
16.536700 0.954492 80.617800 -13.497600 6.070000
16.623300 0.959490 81.039900 -13.408800 6.620000
16.710800 0.450102 81.466200 -13.497600 7.690000
16.797000 0.710963 81.886600 -13.497600 7.490000
17.357800 1.234330 82.203800 -13.408800 6.960000
16.910500 7.109290 82.440100 -13.497600 8.120000
16.498200 0.989474 83.702000 -13.497600 6.800000
16.581500 0.994471 84.124700 -13.497600 9.490000
16.664800 0.999469 84.547500 -13.497600 8.110000
17.402500 1.004470 84.838600 -13.408800 7.890000
17.606400 7.060780 85.832400 -13.497600 7.580000
17.544600 5.970990 89.011000 -13.408800 5.620000
17.895300 4.439370 90.790200 -13.497600 16.950000
17.009100 2.284670 108.095000 -13.586400 14.200000
17.076100 2.293660 108.520000 -13.586400 9.580000
17.144100 1.961560 108.952000 -13.586400 12.450000
17.213500 0.599358 109.394000 -13.586400 11.800000
-10.398100 1.804020 122.352000 -13.586400 6.270000
-10.434600 1.810350 122.782000 -13.586400 9.350000
-10.469900 2.581500 123.197000 -13.497600 9.580000
-10.506400 2.590490 123.627000 -13.586400 9.330000
-9.206260 2.698430 128.914000 -13.586400 12.770000
-9.236950 2.707420 129.343000 -13.586400 12.350000
-10.016900 3.118780 129.708000 -13.586400 10.060000
-10.050100 3.129110 130.138000 -13.586400 7.640000
7.612980 0.703336 11.475100 -11.721600 5.610000
7.963080 0.703336 11.235000 -11.544000 5.550000
7.839020 1.065460 11.815900 -11.810400 9.440000
8.211930 0.725316 11.586100 -11.544000 8.730000
8.076570 1.097740 12.173900 -11.810400 9.550000
8.355870 1.097740 11.983900 -11.632800 8.560000
7.801250 1.629320 12.803800 -12.076800 7.840000
8.005400 1.490140 12.694300 -11.899200 7.120000
8.601630 1.130030 12.336400 -11.632800 6.920000
8.024140 1.675870 13.169600 -12.076800 9.910000
8.150330 1.575290 13.611700 -12.076800 7.430000
8.256880 1.660440 14.542300 -12.165600 4.840000
8.468590 1.703010 14.915200 -12.165600 4.070000
8.562220 1.745590 15.354500 -12.254400 5.870000
8.807600 0.699469 15.794500 -12.343200 7.870000
-0.213515 1.488300 18.467600 1.243200 12.640000
-0.218480 1.522910 18.897100 1.243200 17.200000
-7.024780 -0.219883 17.608800 -12.698400 8.810000
-0.372463 1.512690 19.327800 1.243200 16.750000
-7.170830 1.213590 17.974900 -12.698400 9.250000
-0.609408 1.424050 19.760800 1.243200 13.160000
-6.440380 1.056960 18.716100 -12.876000 5.690000
-7.334130 1.056960 18.384300 -12.698400 6.300000
-1.712520 1.079940 20.150800 1.154400 8.400000
-7.239540 1.079940 18.883300 -12.787200 7.190000
-0.517302 1.102910 20.647300 1.243200 7.890000
-6.714040 1.422150 19.511400 -12.964800 6.510000
-7.386580 1.422150 19.266800 -12.787200 5.640000
-0.528079 1.125890 21.077400 1.243200 8.210000
-6.546090 1.451780 20.021100 -12.964800 6.150000
-0.538764 1.215400 21.503900 1.243200 5.910000
8.494130 1.680770 19.728500 -12.876000 7.430000
0.549337 1.375400 21.925900 1.243200 6.310000
8.664010 1.714380 20.123000 -12.876000 6.460000
-1.291450 1.540660 22.316400 1.243200 6.090000
15.003300 0.727502 16.626400 -9.856800 5.210000
8.113020 1.886140 20.801100 -13.053600 6.290000
-11.475800 1.748000 19.165500 -12.787200 6.790000
-0.570647 1.570290 22.776500 1.243200 6.590000
15.291800 0.741492 16.946100 -9.768000 7.630000
-10.929700 1.922410 19.960100 -13.053600 7.480000
15.580300 0.755482 17.265900 -9.768000 5.620000
-6.617680 1.528120 22.255300 -13.142400 9.090000
-11.125500 1.156300 21.381400 -13.231200 9.600000
-11.156100 1.176950 21.849800 -13.231200 3.440000
9.202780 1.972870 22.686400 -12.964800 10.640000
-5.659200 2.161530 24.246900 -13.320000 8.100000
9.230640 2.007480 23.138200 -13.053600 8.110000
-14.561400 2.007480 20.212500 -12.876000 7.310000
-5.756770 2.198790 24.664900 -13.320000 9.750000
-14.812500 2.042090 20.561000 -12.876000 10.090000
-15.005100 2.140040 20.410800 -12.698400 7.150000
-5.661980 2.176310 25.132300 -13.408800 8.850000
-15.264300 2.076700 20.763400 -12.698400 8.540000
-5.608550 2.212580 25.584100 -13.408800 5.690000
-10.565900 1.866570 24.936300 -12.787200 8.090000
-10.731300 1.981280 25.326600 -12.787200 11.490000
-10.896500 2.098630 25.716500 -12.787200 15.080000
-10.862600 2.130910 26.196600 -12.787200 14.200000
18.546400 1.896000 22.043900 -10.922400 7.760000
8.203510 -2.252230 27.588500 -13.320000 8.770000
18.823200 1.924300 22.372900 -10.922400 7.490000
19.100000 1.952600 22.701900 -10.922400 8.640000
9.436940 -1.952600 28.127000 -13.231200 9.180000
18.662000 1.560530 24.192600 -11.188800 10.890000
9.731480 0.000000 29.004900 -13.231200 11.450000
18.924900 1.582510 24.533300 -11.188800 9.110000
9.836660 -2.492040 29.318400 -13.320000 6.700000
-5.887970 2.356920 30.809700 -13.497600 8.420000
10.377700 -2.356920 29.600800 -13.231200 5.690000
-5.786620 2.487530 31.258300 -13.497600 6.970000
10.346200 -2.389210 30.066600 -13.142400 5.620000
-5.864810 2.521150 31.680700 -13.497600 9.770000
-5.017920 2.550640 33.572500 -13.586400 10.580000
-19.447400 -2.476600 28.354600 -11.100000 5.790000
-5.082590 2.476600 34.005200 -13.586400 4.990000
-19.484500 -2.076710 28.883500 -11.277600 6.820000
-5.411340 2.507560 34.389600 -13.586400 10.060000
-20.379200 -2.538520 28.752800 -11.011200 6.400000
-5.949740 2.320480 34.751900 -13.586400 9.410000
-8.695070 1.398940 35.107800 -13.320000 6.100000
-10.307500 1.510790 34.664000 -13.142400 8.760000
-8.510700 2.518390 35.534900 -13.320000 8.070000
-8.402860 2.548020 36.002100 -13.320000 8.500000
-18.144700 -4.771610 31.957000 -0.266400 7.270000
-17.694300 -1.126600 34.005500 -12.076800 7.170000
-18.205900 -1.719210 33.709300 -11.899200 11.700000
9.642400 1.151910 37.990400 -13.497600 9.930000
19.333200 2.090940 34.050400 -12.254400 7.220000
10.780800 1.164570 38.131000 -13.408800 7.930000
-18.274800 -2.022090 35.121100 -12.076800 7.700000
10.675000 1.177230 38.607800 -13.408800 13.400000
-4.427200 3.034940 40.147400 -13.675200 6.000000
11.015100 1.189890 38.959900 -13.408800 14.950000
-4.474300 3.067230 40.574500 -13.675200 11.640000
-4.284320 3.099510 41.027000 -13.675200 6.710000
-19.682400 1.253180 37.826300 -12.076800 10.010000
-19.881200 1.265840 38.208400 -12.076800 8.510000
-20.080000 1.278500 38.590500 -12.076800 6.470000
19.450000 1.155280 39.397000 -12.609600 14.850000
-20.280600 1.155280 38.975900 -12.076800 17.320000
19.639000 1.303810 39.779800 -12.609600 10.700000
-20.479400 1.166600 39.358100 -12.076800 15.480000
19.829700 1.316470 40.166000 -12.609600 12.020000
-8.377840 2.743310 45.255700 -13.497600 11.660000
-8.461420 2.230010 45.707100 -13.497600 7.570000
-8.539760 2.250660 46.130400 -13.497600 13.800000
-7.361350 1.978420 46.782100 -13.586400 10.840000
19.743600 0.696287 43.085600 -12.787200 9.870000
-7.702870 1.700770 47.174900 -13.586400 7.270000
19.922100 0.850522 43.475100 -12.787200 8.840000
-7.772270 1.716100 47.599900 -13.586400 8.260000
-17.736200 -0.881171 46.262300 -12.787200 9.010000
-17.890400 -0.888834 46.664600 -12.787200 6.440000
-29.140400 1.481030 41.113800 -11.011200 8.710000
19.936300 -0.428776 46.304000 -12.876000 9.970000
-29.392000 1.336500 41.468800 -11.011200 8.760000
-29.641100 1.347820 41.820200 -11.011200 12.250000
-17.752600 -1.838680 48.530200 -12.787200 11.260000
-30.241600 0.822885 47.145200 -11.455200 9.060000
-16.488700 -2.530530 53.926700 -13.053600 7.050000
-30.474200 0.829214 47.507900 -11.455200 7.330000
20.186700 -2.530530 52.654100 -13.053600 6.490000
20.647200 -2.549850 52.937600 -13.053600 6.240000
-30.706900 0.835544 47.870500 -11.455200 7.790000
20.815500 -1.683570 53.369300 -13.053600 6.050000
20.972000 -1.696230 53.770600 -13.053600 7.540000
21.131600 -1.394160 54.179700 -13.053600 6.020000
21.708200 -1.404480 54.415300 -12.964800 9.490000
24.517500 -4.605300 53.503400 -12.787200 8.830000
20.851000 -1.563020 55.666700 -13.053600 7.480000
23.862800 -4.638920 54.268200 -12.787200 8.980000
-15.043400 -2.175770 59.269800 -13.320000 6.290000
-15.614300 -1.476770 59.589200 -13.231200 7.610000
-15.723500 -1.487100 60.006000 -13.231200 8.400000
14.663400 1.931160 79.209300 -13.675200 5.780000
14.741800 1.941490 79.632900 -13.675200 6.220000
16.363600 0.944498 79.773600 -13.586400 7.860000
16.913400 0.949495 80.099300 -13.586400 6.100000
17.002500 0.954492 80.520900 -13.586400 8.470000
16.623300 0.959490 81.039900 -13.586400 7.880000
17.180500 0.964487 81.364000 -13.586400 7.460000
17.268800 1.228000 81.782300 -13.586400 16.590000
16.882400 1.234330 82.302800 -13.586400 19.470000
16.967100 1.762970 82.715700 -13.586400 17.030000
17.143300 0.725622 83.575000 -13.675200 14.750000
17.229900 0.729286 83.997100 -13.675200 15.970000
17.316500 0.732951 84.419200 -13.675200 10.010000
17.403400 0.468759 84.843100 -13.675200 7.270000
17.489600 0.740281 85.263400 -13.675200 14.820000
17.576200 0.743945 85.685400 -13.675200 20.110000
17.374700 6.192290 88.148900 -13.586400 11.470000
17.457800 6.221920 88.570700 -13.586400 8.900000
17.704200 1.953900 108.426000 -13.675200 8.050000
17.775800 0.938177 108.865000 -13.675200 13.810000
-11.222100 1.823010 123.577000 -13.764000 8.150000
-11.261000 1.829340 124.006000 -13.764000 9.490000
-9.985970 1.504200 129.307000 -13.764000 7.950000
-10.018200 2.314030 129.725000 -13.764000 4.690000
-10.051400 2.321700 130.155000 -13.764000 7.340000
30.406800 1.917950 126.958000 -13.497600 6.930000
16.781300 4.587130 173.645000 -13.764000 5.550000
16.823700 4.192800 174.084000 -13.764000 5.250000
