VERSION .7
FIELDS x y z velocity intensity
SIZE 4 4 4 4 4
TYPE F F F F F
COUNT 1 1 1 1 1
WIDTH 975
HEIGHT 1
VIEWPOINT 0 0 0 1 0 0 0
POINTS 975
DATA ascii
19.224400 2.230550 32.106400 -9.856800 11.040000
19.194500 2.256180 32.624300 -9.856800 4.900000
19.412600 2.281820 32.995100 -9.856800 17.280000
18.857500 2.187720 33.816800 -9.945600 18.420000
19.070200 2.090940 34.198400 -9.945600 15.070000
19.279800 2.113920 34.574200 -9.945600 10.670000
18.935600 2.535050 35.716100 -10.123200 17.600000
19.137000 2.562020 36.096000 -10.123200 19.130000
-13.302400 2.088030 38.657500 -13.586400 16.260000
19.338500 2.588990 36.476000 -10.123200 8.170000
-13.139300 2.205830 39.162100 -13.586400 12.500000
-14.113600 2.131990 39.284500 -13.497600 14.490000
19.168700 2.512570 37.542900 -10.212000 12.240000
19.364300 2.538210 37.926000 -10.212000 6.850000
19.559900 2.563840 38.309100 -10.212000 7.730000
19.751800 2.723830 38.684800 -10.212000 11.470000
9.410610 0.645648 42.927700 -11.011200 11.140000
19.127500 2.241880 39.507900 -10.300800 12.300000
9.502880 0.651978 43.348500 -11.011200 10.150000
19.315000 2.263860 39.895200 -10.300800 8.440000
9.847490 0.796885 43.711000 -11.011200 6.340000
19.502500 2.285840 40.282600 -10.300800 11.140000
9.941580 0.944450 44.128700 -11.011200 15.200000
19.687600 2.412630 40.665000 -10.300800 14.640000
6.470870 -3.563230 45.074100 -11.100000 9.480000
9.583980 -3.583810 46.722600 -11.011200 17.920000
9.670320 -3.616100 47.143500 -11.011200 15.850000
19.587800 1.455720 45.494500 -10.478400 6.830000
19.754100 1.777390 45.880900 -10.478400 8.180000
19.922100 1.948520 46.271100 -10.478400 7.600000
20.089900 2.122300 46.660800 -10.478400 6.400000
19.785900 2.318040 47.716500 -10.567200 7.210000
19.950800 2.337360 48.114100 -10.567200 5.620000
20.115700 2.356680 48.511800 -10.567200 7.620000
20.115700 2.356680 48.511800 -10.478400 6.770000
20.280500 2.375990 48.909400 -10.478400 9.270000
10.029700 0.000000 52.481800 -11.100000 13.560000
10.110500 0.124936 52.904900 -11.100000 13.290000
19.940700 2.248200 49.984800 -10.567200 8.660000
10.191400 0.125936 53.328200 -11.100000 14.910000
20.100200 2.266190 50.384700 -10.567200 7.260000
17.957500 1.301210 51.221200 -9.768000 19.050000
20.257000 2.453260 50.777800 -10.567200 18.590000
17.801300 1.311540 51.731500 -9.768000 18.590000
17.941400 1.321870 52.138800 -9.768000 13.160000
20.180600 2.320140 51.741400 -10.567200 9.550000
20.337100 2.338130 52.142500 -10.567200 9.060000
20.493500 2.356110 52.543600 -10.567200 6.290000
20.649900 2.374100 52.944700 -10.656000 9.140000
20.492000 2.746220 53.450300 -10.656000 11.090000
20.230400 2.766860 54.009700 -10.656000 8.820000
20.381400 2.787510 54.412800 -10.656000 15.320000
20.532300 2.808160 54.815900 -10.656000 18.270000
20.407900 2.665750 55.788900 -10.656000 16.690000
20.561100 2.314910 56.207700 -10.656000 7.010000
20.709000 2.331560 56.612100 -10.656000 8.700000
-20.581200 -3.377680 59.810100 -10.478400 9.180000
21.089300 2.769780 62.857200 -10.744800 7.360000
21.231400 2.374960 63.280500 -10.744800 7.890000
21.368300 2.390280 63.688800 -10.744800 8.030000
-19.102400 -1.846180 67.563900 -10.744800 7.410000
-19.043300 -3.206620 68.873300 -10.744800 9.200000
21.036500 1.502130 68.800400 -10.833600 6.330000
21.162500 1.511120 69.212400 -10.833600 5.980000
21.288400 1.520120 69.624400 -10.833600 5.940000
21.415700 1.302600 70.040500 -10.833600 5.970000
21.239600 1.959440 71.429000 -10.833600 5.580000
-28.898900 -0.422116 72.440100 -10.300800 14.220000
-17.251900 1.432860 78.696800 -10.833600 6.040000
-17.802100 1.190020 79.020000 -10.922400 6.260000
-17.896800 1.196350 79.440300 -10.922400 5.210000
21.916900 3.180920 79.266200 -10.922400 8.970000
-13.223300 1.942870 92.109800 -11.011200 10.680000
19.269400 0.000000 112.551000 -11.100000 10.480000
19.991700 2.038190 112.844000 -11.100000 4.930000
-55.801100 -12.573100 105.251000 -9.679200 5.540000
-56.001800 -12.618300 105.630000 -9.679200 7.140000
-56.220600 -12.292400 106.043000 -9.679200 7.590000
-55.599500 -12.336300 106.853000 -9.679200 7.470000
-60.225300 -3.769390 145.242000 -10.212000 6.680000
-59.266100 -3.779710 146.101000 -10.212000 6.020000
-60.555400 -3.790040 146.038000 -10.300800 4.470000
-6.373560 3.453990 165.307000 -11.188800 6.340000
-6.390860 2.437000 165.755000 -11.188800 6.620000
-6.407720 1.928970 166.193000 -11.188800 4.590000
-5.206600 0.914197 168.830000 -11.188800 4.960000
-5.219880 0.916529 169.261000 -11.188800 5.020000
-5.233220 0.393799 169.693000 -11.188800 5.550000
-6.557550 0.394799 170.079000 -11.188800 8.590000
-48.188900 -14.571500 174.283000 -10.656000 8.900000
-48.278400 -15.727000 174.607000 -10.656000 7.380000
-48.392800 -15.764200 175.021000 -10.656000 4.610000
6.381350 0.487131 5.105850 -7.015200 3.200000
6.602980 0.486161 5.516720 -7.104000 7.840000
6.821400 0.482525 5.926070 -7.281600 8.220000
7.139910 -0.742591 6.833170 -7.725600 8.190000
6.157990 1.797900 8.111440 -8.968800 9.540000
6.911850 -0.711076 7.659590 -8.169600 9.560000
7.381310 -0.774878 7.201710 -7.814400 9.160000
6.283570 1.872810 8.547290 -9.057600 8.990000
6.790540 0.158247 8.361240 -8.613600 10.800000
4.456350 -1.717000 10.134500 -10.034400 5.890000
7.034840 0.026986 9.266450 -8.880000 9.130000
4.546500 -1.783030 10.559700 -10.123200 7.030000
7.221110 0.027986 9.665600 -8.968800 9.060000
-9.105900 0.405722 8.548130 -7.370400 7.410000
5.289990 -1.664490 10.715200 -9.945600 5.740000
6.560100 1.192110 10.055500 -9.324000 4.850000
6.305680 1.234690 10.717600 -9.590400 4.400000
6.351440 1.277260 11.186400 -9.590400 4.820000
6.563160 1.319840 11.559300 -9.590400 4.160000
-8.680460 0.735276 10.688300 -8.347200 6.140000
-7.840810 1.021600 11.818500 -8.968800 5.690000
-8.410590 0.758254 11.440600 -8.613600 6.290000
-8.951720 0.758254 11.022300 -8.347200 6.610000
-8.172020 1.052560 12.114100 -8.880000 7.200000
-8.740190 1.176800 11.698900 -8.613600 6.940000
7.010090 1.267100 12.802100 -9.768000 4.800000
-8.412370 1.083510 12.470400 -8.880000 7.660000
7.159560 0.227876 13.759500 -9.856800 16.400000
7.358440 0.234206 14.141700 -9.856800 18.180000
-7.956160 1.194600 13.764500 -9.412800 5.650000
7.669030 0.240535 14.465200 -9.856800 15.140000
-7.952320 1.226890 14.260800 -9.501600 5.730000
-8.946600 1.051780 14.186700 -9.235200 6.450000
-9.063580 1.078740 14.620800 -9.146400 7.380000
-8.367340 1.384470 15.005000 -9.501600 5.300000
-7.886710 1.419080 15.745000 -9.590400 5.720000
6.853390 -2.718280 16.527900 -10.212000 8.180000
-8.586490 5.742720 15.898400 -9.679200 5.860000
7.258990 -0.556969 17.506100 -10.212000 9.100000
-8.529970 5.873230 16.393200 -9.679200 9.260000
7.281580 -0.869266 17.950300 -10.212000 10.760000
-8.702210 6.120480 16.724200 -9.679200 4.960000
4.613270 -0.766086 19.261800 -10.656000 9.140000
7.426810 1.592140 18.308300 -10.212000 9.610000
-7.442320 0.949819 18.346600 -10.034400 9.140000
6.695340 -0.782740 19.097500 -10.478400 7.920000
7.250450 -0.735470 19.356800 -10.300800 9.270000
4.497750 -2.151160 20.517000 -10.744800 8.940000
7.248990 -0.750793 19.816500 -10.389600 7.530000
4.589540 -2.195060 20.935700 -10.744800 6.700000
4.681330 -2.238970 21.354400 -10.744800 8.900000
4.788680 1.402370 21.844100 -10.744800 5.320000
17.872900 1.510240 16.141700 -7.548000 9.870000
18.192100 1.537210 16.429900 -7.548000 10.200000
18.511200 1.564180 16.718200 -7.548000 11.590000
-7.382490 0.797479 26.111400 -10.478400 7.930000
18.939700 2.076580 27.163200 -9.235200 7.960000
18.810800 1.758340 28.833700 -9.324000 9.370000
19.045900 1.780320 29.194100 -9.324000 6.650000
19.284000 1.693160 29.559100 -9.324000 8.360000
18.723700 2.346270 32.392800 -9.679200 5.110000
18.938900 2.373240 32.765100 -9.679200 12.370000
19.154100 2.400210 33.137400 -9.679200 7.170000
19.373000 2.307460 33.516100 -9.679200 10.850000
19.072500 2.000110 34.202500 -9.768000 7.890000
19.015000 2.022090 34.725900 -9.768000 4.920000
19.221700 2.044070 35.103400 -9.768000 12.050000
19.428400 2.066050 35.480900 -9.768000 16.350000
-5.877390 0.735587 40.940100 -10.744800 15.980000
19.359600 1.726620 36.515800 -9.768000 11.170000
-7.607140 0.743249 41.092500 -10.744800 14.810000
19.561300 1.744600 36.896200 -9.768000 20.470000
19.278800 1.931700 38.488200 -9.945600 7.410000
19.471600 1.951020 38.873100 -9.945600 6.020000
19.664400 1.970340 39.258000 -9.945600 5.900000
19.630400 1.852520 39.762300 -9.945600 11.260000
19.485800 2.943050 40.248000 -10.034400 6.570000
9.686330 0.944450 44.185400 -10.744800 14.250000
19.673100 2.971350 40.635000 -10.034400 16.920000
9.779170 0.812210 44.608900 -10.744800 12.170000
19.860500 2.999640 41.022000 -10.034400 15.480000
9.871420 0.819872 45.029700 -10.744800 8.090000
12.658400 0.971435 44.772000 -10.744800 7.120000
6.941460 0.980429 46.442000 -10.744800 5.820000
6.730540 -1.831940 46.882900 -10.744800 8.910000
7.429190 -1.848600 47.213200 -10.833600 8.890000
9.329690 -1.268540 47.333400 -10.744800 6.780000
9.136780 -1.279870 47.809700 -10.833600 10.290000
19.930100 1.325170 46.289700 -10.212000 10.110000
20.101600 1.218600 46.688100 -10.212000 7.640000
20.272000 1.228920 47.083700 -10.212000 7.260000
20.443800 1.079370 47.482700 -10.212000 7.270000
19.748500 1.869320 48.683500 -10.212000 6.000000
19.910400 1.884640 49.082600 -10.212000 8.260000
20.072300 1.899960 49.481600 -10.212000 9.310000
20.231800 2.081750 49.874900 -10.212000 10.050000
20.416500 2.472580 51.177600 -10.212000 8.220000
18.082800 1.160320 52.549800 -9.412800 7.240000
20.576100 2.491890 51.577400 -10.212000 11.640000
18.224100 0.996107 52.960300 -9.412800 15.760000
-4.886870 1.874720 57.502900 -10.833600 14.780000
-5.256980 2.248290 57.889800 -10.833600 19.350000
20.391900 2.068510 54.440900 -10.389600 19.260000
20.525500 1.103380 58.546100 -10.478400 7.460000
20.666800 1.304240 58.949100 -10.478400 6.560000
20.807900 1.507750 59.351500 -10.478400 8.360000
20.950400 1.518080 59.758000 -10.478400 11.760000
20.877700 2.283020 60.671900 -10.478400 9.240000
-21.707900 0.000000 60.423000 -10.212000 6.730000
21.017900 2.298340 61.079100 -10.478400 7.580000
-21.853600 0.000000 60.828500 -10.212000 10.840000
-11.752000 3.097240 63.482100 -10.922400 13.930000
-11.830300 3.117880 63.905300 -10.922400 12.860000
-20.969300 -0.764593 62.499300 -10.300800 7.840000
20.885500 1.403180 63.878100 -10.567200 8.270000
21.017900 1.621350 64.283100 -10.478400 8.090000
21.151800 1.631680 64.692600 -10.478400 6.390000
21.288400 1.218320 65.110400 -10.478400 10.910000
-7.606540 1.529110 72.841000 -10.833600 9.480000
-7.650750 1.765930 73.264400 -10.833600 7.050000
22.037400 2.448320 72.073900 -10.567200 12.790000
22.158500 2.931110 72.469800 -10.567200 12.040000
22.030200 2.072710 75.686400 -10.567200 8.230000
22.154700 1.409870 76.114300 -10.567200 7.870000
22.717100 1.417540 76.397900 -10.567200 8.210000
-14.273000 -2.911240 80.564700 -10.656000 8.130000
-14.348100 -2.926560 80.988700 -10.656000 7.370000
21.877100 1.240660 81.564300 -10.656000 10.630000
21.988700 1.246990 81.980500 -10.656000 7.950000
22.099200 1.517150 82.392500 -10.656000 6.780000
21.844100 0.466427 83.364300 -10.656000 10.290000
21.953300 0.468759 83.781100 -10.656000 11.170000
22.062100 0.740281 84.196200 -10.656000 11.320000
22.716700 1.039450 86.694300 -10.656000 6.680000
31.535400 0.776601 139.979000 -10.744800 4.910000
31.630100 0.778933 140.400000 -10.744800 5.680000
31.724800 0.781265 140.820000 -10.744800 6.810000
31.002600 0.783597 141.422000 -10.744800 5.240000
21.367800 2.209130 148.842000 -10.833600 6.190000
21.429900 1.749070 149.274000 -10.833600 5.210000
-5.139710 2.449660 166.661000 -10.922400 5.590000
-5.233220 -0.393799 169.693000 -10.922400 5.600000
-5.246500 0.394799 170.124000 -10.922400 7.340000
-5.259790 0.395798 170.555000 -10.922400 8.740000
-48.479600 -11.407700 175.335000 -10.389600 6.880000
-48.574400 -12.562300 175.678000 -10.389600 4.650000
5.988030 0.485435 4.905760 -7.192800 1.960000
6.157370 0.708086 5.349200 -7.370400 7.370000
6.422030 0.638691 5.037680 -6.926400 2.230000
6.426900 0.745354 5.692920 -7.459200 9.150000
6.708630 0.672307 5.367710 -7.015200 5.170000
6.620040 0.782622 6.119250 -7.636800 7.510000
6.274620 -0.483544 7.089570 -8.436000 5.240000
6.120660 -0.505523 7.778420 -8.702400 6.020000
6.715740 -0.303802 7.858450 -8.524800 9.720000
6.838560 0.398380 8.865190 -8.880000 5.920000
7.101580 0.413702 9.206160 -8.880000 7.070000
6.525090 1.237470 11.090500 -9.590400 7.820000
6.318610 1.278720 11.699300 -9.768000 8.340000
-8.508400 0.905553 10.812900 -8.436000 5.160000
-8.666450 0.933851 11.234800 -8.524800 6.140000
-8.843020 0.871707 11.648200 -8.613600 3.990000
-9.103110 0.897346 11.990800 -8.613600 6.320000
6.944960 -1.036990 13.347100 -9.945600 10.350000
7.265690 0.179904 13.704400 -9.856800 11.480000
5.890990 -1.194600 14.766800 -10.300800 8.880000
7.467750 0.135596 14.085600 -9.856800 10.860000
-7.419180 1.820430 13.994000 -9.501600 16.890000
6.050210 -1.226890 15.165900 -10.300800 11.240000
7.557850 0.139261 14.524900 -9.945600 18.160000
-9.051990 1.155500 14.111600 -9.146400 6.700000
5.328190 -1.349860 15.880800 -10.478400 9.090000
-9.287870 1.078740 14.479300 -9.146400 14.890000
5.590190 -1.384470 16.245400 -10.478400 6.420000
7.041040 -1.238300 15.683400 -10.123200 7.620000
6.801900 -0.321819 16.767900 -10.300800 8.820000
6.731680 -0.329481 17.259500 -10.300800 4.910000
-8.535850 1.159650 16.404500 -9.679200 4.750000
6.649400 -0.337144 17.752100 -10.478400 9.190000
-8.607900 1.069550 16.859000 -9.679200 4.180000
6.659990 -0.404764 18.206400 -10.478400 8.640000
-8.671850 1.033980 17.312500 -9.679200 7.640000
5.646500 -0.643559 18.989200 -10.567200 9.230000
7.416660 1.897460 18.283300 -10.300800 10.470000
-8.864560 1.056960 17.697200 -9.679200 8.800000
5.655050 -0.845324 19.428400 -10.567200 10.770000
7.469780 1.938700 18.724300 -10.389600 9.020000
5.505710 -0.991115 19.912300 -10.656000 9.240000
7.745700 1.788850 19.094500 -10.300800 8.180000
4.617710 -2.086190 20.497100 -10.744800 8.890000
-7.226390 1.826120 19.754700 -10.212000 10.190000
4.595000 -1.929760 20.960700 -10.744800 7.250000
-7.367610 2.062450 20.140800 -10.212000 9.150000
5.683030 -1.307560 21.188100 -10.744800 9.630000
-7.396090 2.103700 20.586700 -10.300800 9.490000
5.794460 -1.333200 21.603500 -10.744800 8.500000
4.146390 -1.640750 22.398100 -10.744800 8.280000
-7.534470 1.711190 21.491000 -10.300800 8.240000
18.328300 -3.566770 17.882400 -7.992000 9.640000
-8.188890 -0.067965 28.133600 -10.567200 7.420000
18.289700 1.466020 24.481100 -8.968800 6.410000
18.544500 1.582510 24.822100 -8.968800 7.910000
18.802000 1.604490 25.166900 -8.968800 7.720000
7.715080 7.939110 29.443300 -10.744800 7.850000
7.993170 8.047870 29.800900 -10.744800 6.260000
18.211600 1.700330 26.119000 -9.235200 9.560000
18.700700 1.847410 26.820300 -9.146400 5.820000
18.946700 1.871720 27.173200 -9.146400 7.340000
19.192800 1.896030 27.526100 -9.146400 5.580000
18.590800 1.651860 28.982200 -9.501600 6.390000
7.669220 0.728576 34.042100 -10.744800 6.710000
18.820300 1.780320 29.340000 -9.501600 9.360000
7.293610 1.474820 34.541400 -10.744800 8.540000
8.790850 1.492810 34.635300 -10.744800 7.890000
8.896760 1.510790 35.052600 -10.744800 8.650000
18.814300 1.622630 30.879000 -9.590400 10.140000
19.038300 1.641950 31.246600 -9.590400 7.850000
19.262300 1.661260 31.614200 -9.590400 6.880000
18.477000 2.230550 32.542300 -9.768000 15.670000
18.689300 2.256180 32.916300 -9.768000 6.850000
18.901700 2.281820 33.290400 -9.768000 14.760000
19.114100 2.307460 33.664400 -9.768000 9.670000
18.808400 2.000110 34.348500 -9.856800 11.850000
19.015000 2.022090 34.725900 -9.856800 16.460000
19.221700 2.044070 35.103400 -9.856800 16.510000
19.428400 2.066050 35.480900 -9.856800 11.940000
19.348900 2.205830 36.495700 -9.945600 12.590000
19.550500 2.228810 36.875800 -9.945600 18.580000
19.752000 2.251780 37.256000 -9.945600 11.550000
19.662900 2.274760 37.788800 -9.945600 6.510000
19.276100 2.064820 38.482700 -10.034400 6.800000
19.468800 2.085470 38.867500 -10.034400 5.740000
19.661600 2.106120 39.252300 -10.034400 13.350000
19.624900 2.126770 39.751300 -10.034400 16.540000
8.411420 0.519724 44.014000 -10.833600 5.200000
9.687790 0.524721 44.192000 -10.833600 15.360000
19.379000 2.168060 40.826700 -10.034400 6.800000
10.037400 0.670967 44.553800 -10.833600 9.690000
19.883500 2.047600 41.069400 -10.034400 7.180000
10.132500 0.534716 44.976000 -10.833600 11.370000
9.965230 -0.107945 45.457600 -10.744800 9.370000
8.815010 -0.835197 46.125900 -10.833600 16.030000
19.217200 2.105550 42.805000 -10.123200 9.420000
9.164810 -0.842860 46.496900 -10.833600 15.650000
-24.978400 -2.596440 41.716000 -9.324000 8.810000
20.106200 1.746740 44.785200 -10.123200 9.450000
-24.229800 -2.202140 42.674300 -9.412800 7.780000
19.931500 1.915210 45.327900 -10.123200 7.450000
9.098640 0.000000 49.149300 -10.833600 14.670000
19.663400 1.208270 46.406800 -10.212000 9.290000
20.103000 1.061380 46.691300 -10.212000 9.660000
20.274600 0.911821 47.089800 -10.212000 8.210000
20.167600 1.239250 47.596800 -10.212000 7.990000
20.123200 1.869320 48.529900 -10.212000 6.030000
20.285800 2.048450 48.922000 -10.212000 13.280000
20.072300 1.899960 49.481600 -10.300800 11.460000
20.231800 2.081750 49.874900 -10.300800 6.180000
17.804500 0.803895 51.740700 -9.501600 15.710000
17.944600 0.810225 52.148100 -9.501600 7.170000
18.083900 0.988444 52.552900 -9.501600 5.660000
-21.848200 -1.342520 51.563200 -9.945600 6.670000
20.191900 2.181680 52.667700 -10.389600 9.670000
19.084200 0.654652 53.120000 -9.501600 5.370000
20.343500 2.374100 53.063200 -10.389600 8.550000
19.229800 0.659649 53.525500 -9.501600 6.690000
20.497700 2.392090 53.465200 -10.389600 6.960000
-4.881660 3.257280 57.441600 -10.922400 6.980000
-5.252530 3.281580 57.840900 -10.922400 10.060000
20.389600 2.248290 54.434700 -10.478400 6.920000
20.540600 2.264950 54.837900 -10.478400 7.810000
-4.994560 2.464030 58.770000 -10.922400 8.110000
20.691600 2.281600 55.241100 -10.478400 9.910000
-5.031640 2.298260 59.206300 -10.922400 8.400000
20.840100 2.482010 55.637400 -10.478400 15.520000
20.861500 1.972650 57.029000 -10.478400 16.330000
21.009500 1.986640 57.433500 -10.478400 5.940000
20.972200 1.630980 58.375200 -10.478400 12.660000
21.116000 1.835470 58.775500 -10.478400 6.780000
21.263500 1.653630 59.185900 -10.478400 7.380000
-20.886400 -1.340220 60.697000 -10.300800 12.290000
-21.026600 -1.349210 61.104400 -10.300800 11.250000
20.952400 2.751800 62.449100 -10.567200 7.030000
20.879000 2.182500 63.858300 -10.567200 11.290000
21.012900 2.196490 64.267700 -10.567200 9.940000
21.146700 2.210490 64.677000 -10.567200 5.690000
-18.078800 -1.672990 67.403300 -10.567200 10.490000
-17.798100 -1.683310 67.923400 -10.567200 4.720000
21.659600 2.406350 70.838400 -10.656000 7.600000
20.940700 2.666080 71.943500 -10.656000 6.960000
21.063300 2.448320 72.364600 -10.656000 10.820000
21.185700 2.227880 72.785100 -10.656000 11.790000
21.732000 1.827890 73.084800 -10.656000 9.020000
21.977500 1.848550 73.910600 -10.656000 6.420000
22.099000 2.038730 74.319200 -10.656000 11.280000
22.030200 2.072710 75.686400 -10.656000 6.480000
22.150600 2.084030 76.100000 -10.656000 6.560000
21.466600 2.118010 77.637400 -10.656000 7.040000
21.581400 2.129340 78.052600 -10.656000 8.170000
-13.251300 -3.435250 81.155400 -10.744800 9.620000
22.158200 1.735990 80.138600 -10.656000 11.860000
22.506000 0.979479 81.396600 -10.656000 5.190000
21.989600 0.984476 81.983800 -10.656000 7.360000
22.101200 0.989474 82.400000 -10.656000 8.600000
22.319500 2.065420 83.214000 -10.656000 5.430000
22.431100 2.075740 83.630000 -10.656000 5.830000
-27.680700 1.816940 82.503000 -10.389600 7.210000
-27.819400 1.555460 82.916400 -10.389600 5.570000
-27.956500 1.563120 83.324900 -10.389600 6.900000
-28.093500 1.570780 83.733300 -10.389600 5.100000
30.722900 2.107850 140.146000 -10.744800 8.810000
30.816400 1.669110 140.573000 -10.744800 8.950000
30.908700 1.674110 140.994000 -10.744800 7.080000
31.000900 1.679110 141.415000 -10.744800 5.610000
21.369400 1.279000 148.853000 -10.922400 6.970000
21.430600 1.282660 149.279000 -10.922400 10.670000
21.492300 0.818579 149.709000 -10.922400 10.200000
-60.522200 -13.348000 145.958000 -10.034400 5.440000
-59.556900 -13.384300 146.818000 -10.034400 6.170000
-59.690100 -14.280200 147.146000 -10.034400 7.260000
-5.140250 0.386803 166.679000 -11.011200 8.610000
-6.440660 2.455990 167.047000 -10.922400 9.970000
-6.457260 2.462320 167.478000 -10.922400 9.570000
-5.246520 0.000000 170.125000 -10.922400 5.800000
-5.259790 0.395798 170.555000 -10.922400 4.500000
-5.273080 0.000000 170.986000 -10.922400 6.850000
-48.470000 -11.970300 175.300000 -10.478400 5.380000
-48.563800 -13.126000 175.639000 -10.478400 8.700000
-48.667300 -13.721800 176.013000 -10.478400 10.540000
-47.213200 -21.946200 176.025000 -10.478400 8.290000
6.324110 0.436570 5.181090 -7.192800 3.800000
6.656950 0.459548 5.453780 -7.192800 3.440000
5.646790 -0.321768 7.063490 -8.702400 5.070000
7.174790 -0.679165 7.416860 -8.080800 6.790000
6.579680 0.024987 8.529590 -8.880000 11.830000
4.760210 -1.511270 10.028600 -10.034400 4.190000
6.927560 0.129931 8.803870 -8.880000 11.550000
6.536780 1.493990 10.544700 -9.501600 4.130000
-8.666450 0.933851 11.234800 -8.524800 6.790000
-8.929070 0.962150 11.575200 -8.524800 8.500000
7.063580 0.221546 13.323200 -9.945600 9.870000
7.265030 0.275845 13.703200 -9.945600 15.590000
4.508110 -2.003990 15.160800 -10.567200 5.610000
7.466840 0.283507 14.083800 -9.945600 16.820000
-7.726880 1.575290 13.856500 -9.501600 5.700000
4.539870 -2.058160 15.597100 -10.656000 6.520000
7.444770 0.291170 14.581000 -9.945600 13.620000
-8.045160 1.617860 14.169400 -9.412800 5.580000
-8.809430 1.378330 13.733500 -9.146400 5.070000
6.540820 -1.155500 15.436800 -10.300800 8.720000
-8.059750 0.896118 14.719000 -9.501600 7.400000
-9.041260 1.414600 14.094900 -9.146400 4.190000
6.708540 -1.185130 15.832600 -10.300800 4.800000
-8.263520 1.025540 15.091100 -9.590400 6.490000
-8.841900 0.919096 14.766700 -9.324000 5.950000
6.877680 -1.160240 16.231800 -10.300800 6.720000
-7.516300 1.411840 16.402500 -9.945600 6.500000
-7.811910 0.601588 16.790600 -9.945600 5.520000
7.108510 -1.362130 17.523700 -10.389600 6.490000
-8.486750 0.615578 16.942900 -9.768000 7.040000
7.407980 -1.393090 17.865400 -10.300800 4.440000
-8.576370 0.809352 17.371900 -9.768000 8.160000
7.075660 -1.485180 18.455800 -10.389600 9.260000
-7.962930 1.240560 18.109100 -10.034400 6.240000
6.584840 -0.782740 19.135900 -10.478400 9.700000
-8.137570 1.205010 18.506300 -10.034400 7.550000
5.622980 -0.799394 19.888100 -10.656000 9.410000
-8.166260 1.166790 18.967000 -10.123200 8.110000
4.203910 -2.848170 20.494400 -10.744800 8.690000
-7.224420 1.891160 19.749300 -10.212000 6.540000
6.084610 -2.906290 20.462600 -10.744800 4.890000
-7.253190 1.996110 20.189000 -10.212000 8.230000
6.127150 1.511040 21.050300 -10.656000 5.280000
-7.239320 2.036040 20.649100 -10.212000 8.500000
-7.248670 1.499820 21.604800 -10.300800 4.910000
-7.846950 1.671710 21.841700 -10.300800 9.410000
6.752870 0.567990 22.710000 -10.656000 5.570000
5.153820 -1.733620 23.509800 -10.744800 5.520000
-6.855410 1.938250 23.054800 -10.478400 9.550000
7.105070 -0.058970 24.410000 -10.744800 6.530000
7.368870 -0.059969 24.781600 -10.744800 12.310000
7.685550 -0.142260 25.135800 -10.744800 10.430000
7.614410 -0.144592 25.607300 -10.744800 12.450000
8.424510 4.783980 26.279600 -10.656000 6.700000
7.831270 4.857580 26.904900 -10.744800 4.650000
-7.691230 0.758859 27.816600 -10.567200 4.650000
7.808190 0.339819 28.239600 -10.744800 5.280000
-7.806020 0.770186 28.231800 -10.567200 5.050000
7.923020 0.344817 28.654900 -10.744800 7.530000
-7.920820 0.781512 28.646900 -10.567200 10.520000
6.855740 -0.069964 29.373500 -10.833600 7.750000
18.020800 1.794690 24.121300 -9.057600 10.350000
7.125780 -0.070964 29.752400 -10.833600 9.360000
18.278300 1.820330 24.465800 -9.057600 7.210000
7.863460 -0.359809 30.009600 -10.744800 8.710000
18.535700 1.845970 24.810400 -9.057600 9.710000
7.835450 1.527970 30.871100 -10.744800 6.540000
18.578500 1.631210 28.477600 -9.412800 6.990000
-7.379550 0.826167 33.662700 -10.744800 4.900000
18.813700 1.651860 28.838100 -9.412800 5.390000
-7.473130 0.512720 34.089600 -10.744800 7.100000
18.823200 1.672510 29.344500 -9.501600 9.830000
7.764760 0.519050 34.466200 -10.833600 9.080000
19.055600 1.693160 29.706800 -9.501600 13.400000
9.062300 0.940080 34.584700 -10.744800 7.990000
18.595100 1.382280 30.519200 -9.679200 12.580000
9.169820 1.175190 34.995100 -10.744800 7.240000
18.819200 1.398940 30.886900 -9.679200 7.340000
19.040800 1.528780 31.250800 -9.679200 9.390000
19.264800 1.546760 31.618400 -9.679200 13.540000
18.720000 2.461970 32.386300 -9.768000 5.550000
18.938900 2.373240 32.765100 -9.768000 13.250000
19.154100 2.400210 33.137400 -9.768000 5.980000
19.369300 2.427180 33.509800 -9.768000 8.420000
18.811200 1.878990 34.353700 -9.856800 11.320000
19.015000 2.022090 34.725900 -9.856800 16.720000
19.221700 2.044070 35.103400 -9.856800 17.070000
19.428400 2.066050 35.480900 -9.856800 12.790000
19.354200 1.982230 36.505700 -9.945600 7.530000
19.555800 2.002880 36.885900 -9.945600 14.180000
19.757400 2.023530 37.266200 -9.945600 12.570000
19.050400 2.197930 38.587600 -10.123200 7.120000
19.240900 2.219910 38.973400 -10.123200 12.180000
19.431400 2.241880 39.359300 -10.123200 9.390000
19.627700 1.989650 39.757000 -10.123200 7.200000
8.660800 1.593520 43.939800 -10.833600 12.000000
9.687400 0.664638 44.190200 -10.833600 6.450000
9.780060 0.529718 44.612900 -10.833600 7.140000
10.132500 0.534716 44.976000 -10.833600 6.290000
19.611200 2.086240 42.151600 -10.212000 11.940000
19.792800 2.105550 42.541900 -10.212000 16.020000
19.725900 2.124870 43.046900 -10.212000 7.680000
20.156000 2.144190 43.322500 -10.212000 14.820000
9.324790 2.014390 47.308500 -10.833600 8.490000
9.408040 2.032370 47.730900 -10.833600 16.430000
19.584900 1.881910 44.539600 -10.300800 10.840000
8.287670 1.025400 48.407600 -10.922400 13.600000
19.758200 1.898560 44.933700 -10.300800 10.940000
7.982740 1.302520 48.888900 -10.922400 7.870000
19.931500 1.915210 45.327900 -10.300800 8.980000
8.119240 1.792710 49.724900 -10.833600 6.940000
19.662200 1.325170 46.404100 -10.300800 12.240000
19.830300 1.336500 46.800700 -10.300800 6.540000
19.998300 1.347820 47.197400 -10.300800 11.060000
20.158300 1.998480 47.574900 -10.300800 7.110000
7.220940 2.375990 52.452700 -10.922400 6.900000
19.905600 2.212230 49.070800 -10.389600 10.830000
6.871880 2.395310 52.933700 -10.922400 11.070000
20.070000 2.065100 49.475900 -10.389600 7.270000
20.259800 2.284170 50.784600 -10.389600 5.850000
20.419300 2.302160 51.184500 -10.389600 10.190000
-23.144200 -1.804760 50.506500 -9.945600 7.810000
-22.928200 -1.991900 51.070900 -10.034400 8.320000
20.505500 1.352850 52.574300 -10.478400 9.020000
20.662000 1.363180 52.975700 -10.478400 7.610000
18.506700 0.483748 53.781600 -9.412800 7.600000
20.818500 1.373500 53.377000 -10.478400 7.800000
20.663900 1.383830 53.898700 -10.478400 14.970000
19.971700 2.068510 54.596500 -10.478400 14.080000
-4.165400 3.848600 58.327300 -10.922400 7.690000
20.117300 2.264950 54.994600 -10.478400 8.340000
-4.196030 3.876900 58.756200 -11.011200 8.180000
20.265200 2.281600 55.399000 -10.478400 9.640000
-4.226660 3.905200 59.185100 -11.011200 7.250000
20.413200 2.298260 55.803300 -10.478400 15.150000
20.529400 2.160440 57.142600 -10.478400 4.420000
20.517900 2.014620 58.524400 -10.567200 6.330000
20.660400 2.028610 58.930900 -10.567200 5.840000
20.802900 2.042600 59.337300 -10.567200 6.000000
-31.062400 0.000000 54.708100 -9.501600 6.780000
20.947400 1.860780 59.749400 -10.567200 10.860000
-30.849600 0.000000 55.322200 -9.590400 14.140000
-30.510100 0.148924 56.491400 -9.590400 12.750000
-18.885000 -2.498100 61.764000 -10.389600 6.030000
-20.350000 1.367200 62.240200 -10.389600 5.370000
-20.486100 0.968472 62.656600 -10.389600 7.160000
-19.779800 -0.784583 64.690400 -10.478400 7.020000
-17.962900 -2.252460 66.971200 -10.567200 7.940000
-18.074500 -2.266450 67.387100 -10.567200 5.500000
-18.187800 -2.063320 67.809600 -10.567200 8.510000
-19.744100 -1.693640 67.832200 -10.478400 9.040000
-19.337900 -1.703970 68.396900 -10.478400 7.470000
21.436200 1.057090 68.685200 -10.656000 6.930000
21.412900 1.755600 70.031500 -10.656000 10.140000
21.540400 1.538100 70.448300 -10.656000 9.490000
21.668700 1.088740 70.868100 -10.656000 7.360000
21.369700 0.173911 71.866500 -10.656000 6.020000
21.492500 0.174911 72.279500 -10.656000 11.010000
21.549900 1.848550 74.036400 -10.656000 11.050000
21.670300 1.858880 74.450000 -10.656000 6.280000
21.437600 3.047690 75.823500 -10.744800 5.580000
22.144200 2.819300 76.078200 -10.744800 6.230000
22.262000 3.081000 76.482900 -10.744800 7.640000
-12.017400 -4.845670 80.402700 -10.833600 6.750000
22.960200 2.065420 83.039500 -10.744800 5.410000
23.078000 1.540130 83.465500 -10.744800 6.310000
23.194000 1.278640 83.884900 -10.744800 7.700000
-27.179500 1.555460 83.128400 -10.389600 7.270000
22.762600 2.582310 84.866000 -10.744800 5.500000
-27.313400 1.563120 83.537900 -10.389600 6.550000
-27.447300 1.570780 83.947400 -10.389600 9.710000
19.486200 1.339290 113.817000 -10.922400 8.230000
19.559000 1.344290 114.242000 -10.922400 5.750000
19.629900 2.068840 114.656000 -10.922400 6.330000
-55.285800 -11.231200 111.984000 -9.768000 5.590000
-55.475700 -11.269800 112.369000 -9.768000 5.060000
-55.616900 -12.474600 112.655000 -9.679200 6.030000
30.724100 1.664120 140.152000 -10.833600 6.600000
30.816400 1.669110 140.573000 -10.833600 6.210000
30.908700 1.674110 140.994000 -10.833600 9.890000
22.227900 2.209130 148.716000 -10.922400 9.390000
21.429100 2.215460 149.268000 -10.922400 5.060000
22.355200 2.221790 149.568000 -10.922400 6.630000
-60.717200 -12.404100 146.428000 -10.034400 7.430000
-60.881800 -12.437700 146.825000 -10.034400 6.940000
-61.046300 -12.471300 147.222000 -10.034400 8.500000
-6.424320 1.933970 166.623000 -11.011200 9.320000
-6.440920 1.938970 167.054000 -11.011200 6.160000
-6.457520 1.943970 167.484000 -11.011200 5.590000
-5.246500 0.394799 170.124000 -11.011200 8.580000
-5.259790 0.395798 170.555000 -11.011200 7.260000
-5.273080 0.000000 170.986000 -11.011200 6.530000
-48.470000 -11.970300 175.300000 -10.478400 7.530000
5.880250 0.694713 5.009860 -7.370400 3.230000
6.155690 0.733309 5.347740 -7.459200 6.690000
6.535390 0.745354 5.568040 -7.459200 5.840000
5.040160 -0.810499 7.471440 -9.235200 2.270000
5.519080 -0.482525 7.154680 -8.880000 3.090000
6.918170 0.782622 5.780060 -7.370400 1.150000
5.592480 -0.849094 7.607220 -9.057600 6.820000
5.768160 -0.918213 8.006700 -9.146400 6.930000
6.508170 -0.291143 7.468660 -8.613600 6.690000
7.365890 -1.021810 7.186670 -7.992000 4.230000
6.996160 -0.283156 8.186590 -8.436000 5.010000
6.675390 1.585190 10.956000 -9.590400 4.400000
6.220370 1.443110 11.732800 -9.945600 5.180000
6.421020 1.489660 12.111200 -9.945600 6.680000
-8.398340 1.033170 10.887200 -8.613600 6.160000
6.525220 1.536210 12.540400 -9.945600 5.440000
-8.574000 1.065460 11.293900 -8.702400 8.630000
-8.743870 1.097740 11.703800 -8.702400 8.130000
7.064090 0.128266 13.324200 -9.945600 9.580000
7.265920 0.131931 13.704900 -9.945600 16.060000
5.874970 -1.673390 14.726600 -10.389600 10.210000
7.358960 0.135596 14.142700 -9.945600 17.760000
6.121080 -1.718620 15.089500 -10.389600 9.520000
7.557850 0.139261 14.524900 -9.945600 15.390000
-8.469930 1.768970 13.901300 -9.412800 6.950000
7.502000 -1.349860 14.977000 -10.212000 6.200000
6.798460 -1.238300 15.790100 -10.212000 9.200000
-8.251440 1.384470 15.069100 -9.501600 8.490000
-8.582090 1.269260 15.390100 -9.501600 10.160000
-8.791410 1.300220 15.765500 -9.501600 5.910000
-8.800320 0.601588 16.294300 -9.590400 10.380000
5.297560 -0.395770 18.200200 -10.567200 3.660000
-9.004980 0.615578 16.673300 -9.590400 4.700000
5.525460 -0.404764 18.582200 -10.656000 9.130000
7.426000 -0.344806 17.908900 -10.389600 6.320000
-8.675480 0.869266 17.319700 -9.768000 8.280000
-9.306000 0.749431 16.994900 -9.590400 5.140000
5.903930 -0.413759 18.917200 -10.656000 6.870000
-8.628670 0.888583 17.822600 -9.856800 9.050000
6.015210 -1.579920 19.273700 -10.656000 7.980000
-7.740530 1.330030 18.667400 -10.123200 6.130000
-8.816250 0.907900 18.210000 -9.856800 5.550000
6.029300 -1.613540 19.719000 -10.656000 8.030000
7.747240 1.741050 19.098300 -10.389600 9.530000
-7.905220 1.358330 19.064600 -10.123200 8.720000
-7.382260 1.695970 19.708700 -10.212000 10.060000
7.239420 -2.393830 20.150600 -10.567200 5.520000
7.951150 1.929760 19.930900 -10.389600 8.290000
-7.534300 1.680770 20.114600 -10.212000 8.470000
4.232730 -1.968350 21.474400 -10.833600 5.840000
7.935900 -2.441700 20.347000 -10.478400 6.150000
-7.684990 1.714380 20.516900 -10.212000 5.040000
5.365040 -2.006950 21.662300 -10.744800 8.050000
-7.831730 1.886140 20.908600 -10.300800 5.520000
-7.817860 1.922410 21.371600 -10.300800 6.180000
-7.837800 2.012460 21.816200 -10.300800 10.150000
6.614770 -1.208860 22.725500 -10.656000 6.080000
5.926900 -1.361250 23.351600 -10.744800 5.310000
-7.029250 2.086990 22.989400 -10.478400 9.480000
6.032730 -1.385560 23.768500 -10.744800 6.120000
-7.154770 2.124260 23.399900 -10.478400 7.640000
6.006510 -0.598971 24.252300 -10.833600 7.290000
-7.280300 2.161530 23.810400 -10.478400 10.090000
6.110070 -0.609298 24.670400 -10.833600 5.260000
-7.222660 2.042090 24.289900 -10.478400 10.410000
6.020490 -0.539686 25.137500 -10.744800 8.660000
-7.205200 1.937200 24.754000 -10.567200 10.980000
7.829130 -0.548681 25.085800 -10.656000 5.810000
-7.573350 1.615220 26.018800 -10.478400 7.720000
18.176900 1.472610 22.381400 -8.791200 7.800000
18.448200 1.494590 22.715400 -8.791200 5.500000
6.718010 1.276980 29.819900 -10.833600 5.430000
18.459200 2.009200 24.314800 -9.057600 8.840000
7.041610 1.654370 30.169800 -10.833600 6.580000
18.528500 2.037490 24.800800 -9.057600 5.440000
6.903440 1.677350 30.642900 -10.833600 8.920000
18.785900 2.065790 25.145300 -9.057600 8.110000
18.436300 2.321810 26.441100 -9.235200 9.510000
18.682100 2.352770 26.793700 -9.235200 4.750000
18.927900 2.383730 27.146200 -9.235200 10.170000
-6.582800 0.289516 33.397300 -10.744800 5.600000
18.586000 1.315670 28.489100 -9.412800 10.300000
-6.665650 0.506391 33.817600 -10.744800 9.900000
18.821200 1.332320 28.849700 -9.412800 8.340000
19.056500 1.348980 29.210300 -9.412800 6.120000
19.294000 1.256430 29.574300 -9.412800 6.390000
7.644920 2.127990 34.873200 -10.833600 9.700000
18.582600 1.907120 30.498600 -9.590400 4.350000
7.737020 2.153630 35.293400 -10.833600 9.440000
18.806400 1.930100 30.866100 -9.590400 10.660000
19.030300 1.953080 31.233500 -9.590400 11.650000
19.256500 1.890220 31.604800 -9.590400 8.500000
18.730600 2.114800 32.404700 -9.768000 4.600000
18.942500 2.256180 32.771300 -9.768000 7.300000
19.157700 2.281820 33.143700 -9.768000 6.880000
19.376500 2.187720 33.522100 -9.768000 7.100000
18.802900 2.212030 34.338500 -9.856800 10.570000
18.784100 2.205830 36.789600 -10.034400 4.810000
18.979700 2.228810 37.172800 -10.034400 8.540000
19.508300 2.008970 40.294500 -10.123200 12.940000
9.688090 0.384799 44.193400 -10.833600 11.870000
19.695900 2.028290 40.682000 -10.123200 14.580000
9.780360 0.388464 44.614300 -10.833600 6.200000
19.566300 2.047600 41.221500 -10.123200 6.610000
10.132800 0.392129 44.977400 -10.833600 8.630000
20.068200 2.209360 41.450900 -10.123200 6.140000
19.364500 2.230010 42.258200 -10.212000 7.840000
8.535970 -2.649580 46.109900 -10.922400 7.050000
19.543800 2.250660 42.649500 -10.212000 5.780000
8.614280 -2.673880 46.532900 -10.833600 5.500000
19.723100 2.271310 43.040800 -10.212000 6.270000
8.692590 -2.698190 46.955900 -10.833600 5.210000
19.902400 2.291950 43.432000 -10.212000 8.950000
8.784770 0.261199 47.453800 -10.922400 14.460000
8.863200 0.263531 47.877500 -10.922400 14.930000
19.582400 2.032370 44.534000 -10.300800 15.360000
19.755700 2.050360 44.928100 -10.300800 7.210000
19.929000 2.068350 45.322200 -10.300800 14.020000
19.832800 1.061380 46.806700 -10.300800 9.330000
19.999500 1.228920 47.200100 -10.300800 12.650000
19.746300 2.031790 48.677900 -10.389600 8.610000
19.905600 2.212230 49.070800 -10.389600 9.310000
20.067500 2.230220 49.469800 -10.389600 7.540000
20.229300 2.248200 49.868700 -10.389600 9.630000
20.391100 2.266190 50.267700 -10.389600 6.790000
6.311940 0.803895 54.353100 -10.922400 6.450000
20.560100 1.776780 50.684100 -10.389600 12.140000
20.426300 1.790770 51.202100 -10.389600 10.650000
20.585900 1.804760 51.602100 -10.389600 9.770000
-22.754200 -1.804760 50.683400 -9.945600 9.290000
-24.007900 -1.818750 50.578800 -9.856800 6.320000
17.097600 0.996107 53.334600 -9.590400 9.660000
20.194300 2.007220 52.673800 -10.478400 9.750000
-24.192600 -1.832740 50.967900 -9.856800 12.450000
20.348400 2.022540 53.075900 -10.478400 16.750000
20.502600 2.037870 53.478000 -10.478400 16.480000
-4.443540 1.874720 57.538800 -10.922400 6.220000
20.656700 2.053190 53.880100 -10.478400 11.550000
-4.140110 2.428060 57.973200 -10.922400 7.290000
20.391900 2.068510 54.440900 -10.478400 5.960000
20.542900 2.083830 54.844200 -10.478400 13.880000
20.694000 2.099150 55.247500 -10.478400 5.830000
20.845000 2.114480 55.650700 -10.478400 15.310000
-8.567130 2.145120 59.676000 -11.011200 12.290000
-5.799280 2.145120 60.008300 -11.011200 12.020000
20.968400 2.014620 58.364600 -10.567200 9.710000
21.114000 2.028610 58.769900 -10.567200 7.530000
20.804900 1.848130 59.343000 -10.567200 13.540000
-19.353700 -3.670510 62.012400 -10.478400 15.900000
-17.961000 -2.466890 66.964100 -10.656000 7.350000
-18.072600 -2.482210 67.380000 -10.656000 8.850000
-20.003900 -2.714610 67.273100 -10.478400 14.940000
-20.126600 -2.731260 67.685800 -10.478400 4.480000
21.180300 0.824561 67.865400 -10.656000 5.250000
-20.789000 0.164916 67.991100 -10.478400 10.730000
21.834300 0.829559 68.110400 -10.656000 13.520000
21.964900 1.057090 68.517900 -10.656000 11.890000
21.414400 1.529110 70.036300 -10.656000 6.800000
21.540400 1.538100 70.448300 -10.656000 7.800000
21.666300 1.547100 70.860300 -10.656000 9.030000
20.949400 1.565090 71.973300 -10.656000 7.950000
21.487900 1.574080 72.264000 -10.656000 5.390000
21.610700 1.583080 72.676900 -10.656000 8.640000
21.733500 1.592070 73.089900 -10.656000 8.230000
21.542500 2.742690 74.010800 -10.744800 7.890000
21.660300 2.997730 74.415800 -10.744800 10.780000
21.203300 3.014380 74.994800 -10.744800 7.070000
21.007400 2.072710 75.976700 -10.744800 11.860000
21.122200 2.084030 76.391900 -10.744800 8.830000
-28.381400 0.674315 74.028700 -10.212000 13.050000
-28.965400 0.677980 74.264800 -10.212000 6.900000
21.676700 2.588230 76.669100 -10.744800 9.440000
21.986300 1.771970 81.971400 -10.744800 8.460000
22.319500 2.065420 83.214000 -10.744800 9.320000
22.431100 2.075740 83.630000 -10.744800 4.590000
22.544300 1.816940 84.051900 -10.744800 7.140000
22.167300 1.825940 84.597600 -10.744800 5.010000
-27.820800 1.284970 82.920600 -10.389600 6.850000
22.276400 1.834930 85.014300 -10.744800 10.350000
-27.957900 1.291300 83.329100 -10.389600 12.500000
22.385600 1.843930 85.431100 -10.744800 11.650000
-28.093500 1.570780 83.733300 -10.389600 8.470000
22.493300 2.127380 85.841800 -10.744800 8.970000
23.100700 2.137710 86.126500 -10.744800 8.310000
23.212300 2.148030 86.542500 -10.744800 6.540000
23.323900 2.158360 86.958600 -10.744800 6.650000
19.413500 1.334290 113.393000 -10.922400 10.640000
19.486800 0.982155 113.821000 -10.922400 10.690000
19.560000 0.627344 114.248000 -10.922400 10.170000
22.226700 2.674160 148.708000 -11.011200 8.610000
22.290400 2.681830 149.135000 -11.011200 8.170000
21.489200 2.689490 149.687000 -11.011200 6.080000
-59.328500 -9.897480 146.255000 -10.123200 5.440000
-59.490200 -9.924450 146.654000 -10.123200 9.300000
-59.614600 -11.423300 146.960000 -10.034400 12.310000
-59.762500 -11.946000 147.325000 -10.034400 11.060000
-6.407720 1.928970 166.193000 -11.011200 4.990000
-6.424320 1.933970 166.623000 -11.011200 6.090000
-6.441120 1.421930 167.059000 -11.011200 5.690000
-5.233220 0.393799 169.693000 -11.011200 4.780000
-5.246500 0.394799 170.124000 -11.011200 6.160000
-5.259790 0.395798 170.555000 -11.011200 7.270000
-5.273080 0.000000 170.986000 -11.011200 8.470000
-48.479600 -11.407700 175.335000 -10.567200 5.450000
5.354910 -0.483544 7.807540 -9.412800 0.450000
5.717300 -0.681066 7.530950 -9.057600 3.420000
5.164960 -1.458270 8.331780 -9.679200 5.660000
5.661060 -0.505523 8.119040 -9.412800 5.830000
6.034870 -0.773153 7.823330 -9.057600 5.790000
5.389520 -1.521680 8.694030 -9.679200 7.760000
5.614090 -1.585080 9.056290 -9.679200 8.570000
5.451640 -0.467626 9.776350 -9.768000 7.270000
5.582910 -0.485611 10.195700 -9.768000 4.220000
7.027790 0.521559 9.257160 -9.146400 6.880000
7.332970 -0.242859 9.029150 -8.968800 5.500000
-2.407890 1.405420 11.738700 2.752800 6.080000
-2.493890 1.455610 12.157900 2.752800 8.200000
-1.995710 1.505810 12.682900 2.752800 11.470000
-1.961170 1.556000 13.121200 2.752800 10.780000
-2.034310 0.862996 13.610600 2.752800 11.150000
-8.406060 0.889964 11.434400 -8.791200 10.140000
-2.645890 1.874570 13.845000 2.752800 6.780000
-8.651350 1.142920 11.768100 -8.791200 7.070000
6.918330 1.675680 13.295900 -10.123200 7.200000
-1.560100 1.350830 14.939600 2.752800 7.900000
7.159560 0.227876 13.759500 -10.123200 6.760000
7.358440 0.234206 14.141700 -10.123200 8.650000
4.946390 -2.359220 15.429900 -10.656000 17.850000
-7.946430 1.378330 14.250200 -9.501600 7.290000
-8.699210 1.466620 13.794500 -9.235200 6.830000
4.753630 -2.060750 15.986500 -10.656000 6.430000
-8.042590 1.414600 14.687700 -9.590400 6.730000
-8.949900 0.948013 14.192000 -9.235200 7.540000
4.875520 -2.113590 16.396400 -10.656000 6.440000
5.225600 -2.112190 16.743700 -10.656000 7.760000
7.091340 -1.323750 16.127000 -10.300800 7.180000
5.485090 -2.163710 17.110300 -10.656000 7.610000
7.264300 -1.356040 16.520300 -10.300800 7.460000
-9.144700 1.523420 15.543000 -9.412800 7.240000
6.490060 -0.988028 17.326700 -10.567200 3.200000
-7.534300 2.215220 16.782100 -10.034400 10.380000
6.777440 -1.011010 17.678000 -10.567200 7.060000
7.251800 -1.011010 17.488700 -10.389600 11.920000
-7.709520 2.266740 17.172400 -10.034400 10.660000
4.761830 -1.153730 18.761300 -10.833600 7.380000
6.938350 -0.569628 18.097700 -10.567200 7.560000
7.423970 -0.569628 17.904000 -10.389600 11.460000
-7.564900 -0.104946 17.853700 -10.123200 9.850000
-8.794790 1.393090 17.225100 -9.768000 7.940000
6.291290 -1.301730 18.751300 -10.656000 7.310000
-7.816450 1.485180 18.154500 -10.123200 9.170000
-8.990230 1.424050 17.607800 -9.768000 9.080000
6.575530 -1.330030 19.108900 -10.656000 6.170000
-8.271350 1.517470 18.423800 -10.034400 9.640000
-9.185670 1.455000 17.990600 -9.768000 9.180000
5.456950 -2.916750 19.736000 -10.833600 4.420000
5.609000 -1.661360 19.838700 -10.656000 6.080000
-7.365580 2.107260 19.212000 -10.300800 6.450000
-8.592100 1.549760 18.750200 -10.034400 6.640000
4.751070 -2.977520 20.356000 -10.833600 7.010000
-7.369950 2.086190 19.675800 -10.300800 8.640000
4.412360 -2.840260 20.896200 -10.922400 7.590000
6.394660 -1.863390 20.489600 -10.744800 6.680000
8.059150 2.128770 19.867200 -10.478400 7.010000
-7.251070 2.062450 20.183000 -10.300800 8.900000
5.671780 -1.900650 21.146100 -10.833600 6.290000
8.220340 2.171340 20.264500 -10.478400 9.110000
5.782990 -1.937920 21.560800 -10.833600 6.390000
-7.096630 2.075960 21.151700 -10.478400 10.050000
7.070660 -1.975190 21.625600 -10.744800 5.530000
-7.228800 2.256490 21.545600 -10.478400 7.060000
7.571190 0.053972 22.002300 -10.656000 6.870000
-7.534170 2.299070 21.894700 -10.478400 7.390000
-8.589590 2.012460 21.531300 -10.300800 5.170000
-7.029250 2.086990 22.989400 -10.567200 5.470000
-7.152820 2.199930 23.393500 -10.567200 9.990000
6.143770 -0.965934 24.206000 -10.922400 13.480000
-7.278310 2.238520 23.803900 -10.567200 9.280000
6.439290 -0.982588 24.574500 -10.922400 12.590000
-7.397300 2.511950 24.193100 -10.567200 8.400000
6.881080 -1.318760 24.886600 -10.833600 7.360000
7.481950 -1.340730 25.161900 -10.744800 5.370000
-8.882430 0.853415 24.723900 -10.389600 8.660000
-7.955010 0.867406 25.489200 -10.478400 7.030000
-7.082630 1.925830 27.029700 -10.744800 6.670000
-6.988370 1.362780 27.533700 -10.656000 5.210000
-8.096470 1.362780 27.228500 -10.567200 6.430000
17.878600 2.130910 22.014000 -8.880000 6.430000
18.149400 2.163200 22.347500 -8.880000 8.560000
18.199200 1.980900 23.972300 -9.146400 10.380000
18.267400 2.103600 24.451300 -9.146400 10.410000
7.226060 0.167914 30.171100 -10.922400 12.610000
18.524700 2.133230 24.795600 -9.146400 7.580000
18.782000 2.162860 25.140000 -9.146400 10.580000
18.260800 1.448780 26.624500 -9.412800 7.220000
18.504300 1.468090 26.979500 -9.412800 7.620000
18.750300 1.384890 27.338200 -9.412800 9.640000
-6.941890 0.805513 32.875600 -10.833600 7.320000
-7.287310 0.815840 33.241900 -10.833600 4.980000
7.296830 -1.037990 34.556600 -11.011200 14.620000
18.582600 1.907120 30.498600 -9.768000 8.030000
18.803200 2.041870 30.860800 -9.768000 13.430000
19.027100 2.066180 31.228200 -9.768000 18.770000
8.419880 0.974058 36.075000 -10.922400 5.770000
19.250900 2.090490 31.595600 -9.768000 19.320000
8.234760 1.217170 36.552400 -10.922400 6.340000
18.730600 2.114800 32.404700 -9.856800 15.280000
18.945900 2.139110 32.777200 -9.856800 5.840000
19.161200 2.163410 33.149600 -9.856800 12.200000
19.376500 2.187720 33.522100 -9.856800 18.580000
18.799500 2.333100 34.332300 -9.945600 16.510000
19.006100 2.358740 34.709600 -9.945600 6.730000
19.212700 2.384380 35.086900 -9.945600 8.930000
19.419300 2.410010 35.464200 -9.945600 16.540000
19.632700 2.182850 35.854000 -9.945600 18.390000
-12.607800 2.333570 39.329100 -13.408800 15.780000
-12.432500 2.357880 39.835800 -13.408800 7.530000
-13.724600 2.023530 39.884400 -13.320000 6.500000
-13.866600 1.912380 40.297100 -13.320000 6.260000
19.260400 2.696860 38.451400 -10.123200 7.830000
19.453000 2.723830 38.835900 -10.123200 7.010000
19.649300 2.615120 39.227900 -10.123200 10.740000
19.842000 2.640760 39.612500 -10.123200 14.480000
9.257040 0.796885 43.839800 -11.011200 13.670000
19.505500 2.147420 40.288700 -10.212000 8.280000
9.686910 0.804548 44.188000 -11.011200 6.730000
19.379000 2.168060 40.826700 -10.212000 8.830000
9.779660 0.670967 44.611100 -11.011200 14.050000
19.563500 2.188710 41.215500 -10.212000 13.130000
9.871920 0.677297 45.032000 -11.011200 16.660000
19.748100 2.209360 41.604400 -10.212000 13.550000
8.099000 -3.199840 45.715200 -11.011200 15.340000
6.927990 -3.084540 46.351800 -11.011200 9.620000
19.543800 2.250660 42.649500 -10.300800 10.880000
6.721040 -3.112840 46.816700 -11.011200 8.380000
19.723100 2.271310 43.040800 -10.300800 10.930000
9.590250 -3.141140 46.753200 -11.011200 13.090000
19.902400 2.291950 43.432000 -10.300800 6.820000
9.867920 1.177290 48.106800 -11.011200 8.720000
9.954480 1.187610 48.528800 -11.011200 5.580000
20.100500 1.336500 46.685300 -10.389600 8.150000
20.270800 1.347820 47.081000 -10.389600 7.590000
19.743800 2.194240 48.671900 -10.478400 5.700000
19.905600 2.212230 49.070800 -10.478400 5.390000
20.067500 2.230220 49.469800 -10.478400 10.380000
20.229300 2.248200 49.868700 -10.478400 10.340000
10.191400 0.125936 53.328200 -11.011200 16.540000
7.463260 0.126935 54.212800 -11.011200 20.840000
19.872500 1.945930 50.951400 -10.478400 20.480000
9.961420 0.126935 53.809900 -11.011200 20.490000
7.100670 0.127935 54.696100 -11.100000 15.560000
20.029000 1.961250 51.352600 -10.478400 7.340000
20.194300 2.007220 52.673800 -10.567200 7.530000
20.348400 2.022540 53.075900 -10.567200 8.230000
19.231100 0.000000 53.529100 -9.324000 6.160000
20.087500 2.214990 53.628200 -10.567200 9.040000
19.376800 0.000000 53.934600 -9.324000 14.990000
20.651800 2.410070 53.867200 -10.567200 18.030000
20.540600 2.264950 54.837900 -10.567200 6.900000
20.691600 2.281600 55.241100 -10.567200 16.620000
20.410600 2.482010 55.796400 -10.567200 7.510000
