VERSION .7
FIELDS x y z velocity intensity
SIZE 4 4 4 4 4
TYPE F F F F F
COUNT 1 1 1 1 1
WIDTH 972
HEIGHT 1
VIEWPOINT 0 0 0 1 0 0 0
POINTS 972
DATA ascii
4.621550 -2.200140 12.338300 -11.188800 4.160000
6.137520 -1.278720 11.795300 -10.922400 6.670000
4.770640 -2.271110 12.736300 -11.188800 4.850000
6.147080 -1.319970 12.272000 -10.833600 7.160000
5.372210 -2.342080 12.955800 -11.100000 5.710000
-1.362340 1.273640 14.096900 2.486400 4.600000
-1.319640 1.312240 14.531900 2.486400 8.090000
-1.359100 1.269520 14.966400 2.486400 6.730000
7.963090 -0.599545 13.299000 -10.478400 17.670000
-1.308920 1.305790 15.401800 2.486400 10.430000
-8.010840 2.150660 13.615800 -10.212000 14.350000
-2.339000 1.955070 15.649100 2.397600 11.260000
-8.065590 1.125870 14.205400 -10.212000 9.840000
7.328750 3.825210 14.631100 -10.922400 6.840000
-8.052130 1.155500 14.705100 -10.300800 7.190000
-8.935210 1.349860 14.168700 -9.945600 7.180000
7.196940 3.923290 15.162200 -11.011200 7.690000
-8.258600 1.185130 15.082100 -10.300800 6.880000
7.615540 4.021370 15.425700 -11.011200 6.210000
7.125380 0.395770 17.565300 -11.188800 8.370000
7.425560 0.404764 17.907800 -11.188800 6.460000
-8.095360 1.485180 18.031800 -10.744800 7.260000
6.843120 -0.720148 19.047500 -11.366400 10.350000
-8.271350 1.517470 18.423800 -10.744800 8.230000
7.094230 -1.166790 19.393400 -11.366400 10.190000
-7.487460 1.788850 19.197200 -11.011200 5.380000
7.385370 -1.582040 19.717000 -11.366400 9.540000
-7.644960 1.777320 19.601000 -11.011200 5.090000
7.401610 0.000000 20.233700 -11.366400 10.650000
-7.814900 1.281920 20.036700 -11.011200 7.460000
-7.973980 1.171850 20.444600 -11.011200 8.770000
-7.267240 1.799810 21.119000 -11.188800 9.830000
-8.130340 1.194820 20.845500 -11.011200 9.270000
-7.333400 2.195730 22.429100 -11.277600 4.540000
-7.949060 2.235650 22.673600 -11.188800 4.470000
17.982300 1.748060 17.886200 -8.880000 8.460000
18.287100 1.777690 18.189300 -8.880000 8.640000
18.591900 1.807320 18.492500 -8.880000 3.730000
18.900600 1.754510 18.799500 -8.880000 9.950000
-7.689830 0.937358 27.811500 -11.455200 8.040000
-7.586020 1.041920 28.283000 -11.455200 11.000000
18.955100 8.125120 21.417000 -9.501600 14.470000
18.202800 1.887800 23.977100 -9.768000 11.280000
18.462800 1.914770 24.319600 -9.768000 8.060000
-17.463900 1.914770 25.046600 -13.497600 12.270000
-7.337500 2.103600 29.626400 -11.544000 7.010000
18.726400 1.845970 24.666800 -9.768000 4.820000
-7.034950 2.133230 30.141300 -11.544000 8.390000
18.986500 1.871610 25.009400 -9.768000 13.420000
18.409300 1.798790 25.973400 -10.034400 5.470000
18.658000 1.823100 26.324400 -10.034400 14.590000
-5.866200 2.421490 31.688200 -11.721600 5.690000
18.906800 1.847410 26.675400 -10.034400 11.230000
19.152200 1.974160 27.021500 -10.034400 5.350000
-6.033540 1.487410 32.592200 -11.632800 6.390000
18.551200 1.896030 27.962500 -10.212000 5.600000
-6.111900 1.506730 33.015400 -11.632800 12.300000
18.792300 1.815210 28.325800 -10.212000 4.940000
-7.025830 1.526040 33.273200 -11.632800 13.010000
19.026900 1.944640 28.679500 -10.212000 9.280000
8.479580 0.506391 33.409000 -11.632800 7.190000
19.264800 1.968950 29.038000 -10.212000 10.640000
9.041030 0.512720 33.707700 -11.632800 7.070000
9.152650 0.519050 34.123800 -11.632800 15.290000
9.264640 0.414779 34.541400 -11.632800 5.760000
9.376270 0.419777 34.957600 -11.632800 15.360000
18.995900 1.448900 32.286700 -10.478400 15.390000
6.353920 8.871480 35.865000 -11.721600 18.630000
19.214200 1.465550 32.657800 -10.478400 17.430000
19.169100 0.981073 36.156600 -10.744800 6.370000
19.370900 0.991400 36.537200 -10.744800 7.940000
19.572700 1.001730 36.917800 -10.744800 6.200000
19.086100 1.912380 38.103300 -10.833600 7.340000
9.690890 1.385050 41.520700 -11.721600 6.970000
19.574900 1.931700 38.338500 -10.833600 12.210000
9.785410 1.798560 41.925600 -11.721600 6.620000
19.770700 1.951020 38.721900 -10.833600 11.550000
9.881940 1.951020 42.339200 -11.721600 7.830000
19.966400 1.970340 39.105300 -10.833600 10.720000
9.649930 1.970340 42.834100 -11.721600 7.730000
19.523700 0.935456 40.326300 -10.922400 11.000000
19.711400 0.944450 40.714000 -10.922400 8.020000
19.900300 0.812210 41.104300 -10.922400 11.660000
19.608400 2.230010 42.145600 -11.011200 9.620000
19.790000 2.250660 42.535800 -11.011200 10.080000
19.974400 2.124870 42.932200 -11.011200 5.520000
20.156000 2.144190 43.322500 -11.011200 4.350000
19.751200 1.865250 43.994500 -11.100000 6.880000
19.925100 2.032370 44.381800 -11.100000 13.610000
19.755700 2.050360 44.928100 -11.100000 7.700000
20.277800 2.068350 45.167300 -11.100000 7.010000
-5.476400 1.468370 49.661800 -11.899200 16.990000
20.448900 2.122300 46.504600 -11.100000 7.440000
-8.832430 2.549850 56.131000 -11.721600 14.980000
20.502600 2.037870 53.478000 -11.366400 15.120000
-8.461970 2.746220 56.615000 -11.810400 10.680000
20.656700 2.053190 53.880100 -11.366400 5.900000
20.810900 2.068510 54.282200 -11.366400 7.780000
20.689000 2.464030 55.234200 -11.366400 9.050000
20.840100 2.482010 55.637400 -11.366400 5.580000
-19.471900 -2.500000 56.586400 -11.188800 7.940000
-19.941100 -2.517990 56.879200 -11.100000 6.990000
-18.540800 -1.597000 57.836700 -11.277600 5.860000
-18.672300 -1.608330 58.246900 -11.277600 9.570000
21.310100 0.759596 61.928400 -11.455200 7.530000
21.233600 2.168510 63.287200 -11.455200 8.430000
20.881000 1.974710 63.864400 -11.455200 5.840000
21.012900 2.196490 64.267700 -11.455200 5.570000
20.906000 2.012690 65.214500 -11.544000 8.280000
21.035400 2.238470 65.618400 -11.544000 7.120000
12.622800 2.038000 68.186400 -11.810400 7.290000
21.164700 2.466890 66.021600 -11.544000 12.400000
12.700000 2.266450 68.603400 -11.810400 11.870000
20.921700 1.248960 67.036700 -11.544000 7.130000
21.047300 1.693640 67.439200 -11.544000 5.430000
-18.414900 1.484140 68.656300 -11.455200 11.270000
-18.527600 1.271950 69.076500 -11.455200 9.300000
-18.237200 1.279610 69.599200 -11.544000 13.460000
21.560700 1.734950 69.084100 -11.544000 9.810000
21.689000 1.745280 69.495300 -11.544000 10.890000
21.817400 1.755600 69.906500 -11.544000 7.970000
21.490300 1.107730 72.271900 -11.632800 7.670000
21.610700 1.583080 72.676900 -11.632800 9.130000
21.733500 1.592070 73.089900 -11.632800 7.420000
21.856300 1.601070 73.502800 -11.632800 11.070000
-28.018900 1.848550 71.838200 -11.011200 9.770000
21.977500 1.848550 73.910600 -11.632800 8.780000
-28.175500 1.858880 72.239500 -11.011200 8.950000
21.671800 1.619060 74.455200 -11.632800 7.440000
-28.332000 1.869200 72.640900 -11.011200 8.580000
21.793500 1.386890 74.873300 -11.632800 11.600000
-28.488500 1.879530 73.042200 -11.011200 15.100000
21.915900 0.909516 75.293800 -11.632800 9.190000
22.035400 1.158370 75.704400 -11.632800 12.460000
22.155900 1.164700 76.118100 -11.632800 13.020000
22.277200 0.924508 76.534900 -11.632800 9.370000
18.189600 1.209360 102.672000 -11.899200 9.080000
18.264700 1.214350 103.096000 -11.899200 11.910000
18.340500 0.894200 103.524000 -11.899200 14.590000
18.415600 0.897865 103.948000 -11.810400 12.860000
20.633300 2.914300 138.048000 -11.899200 5.090000
-60.002700 -11.664500 136.457000 -10.744800 6.840000
-61.197800 -12.622600 136.314000 -10.656000 5.420000
-61.393300 -12.079500 136.749000 -10.656000 6.940000
-6.853330 0.358817 154.541000 -11.899200 7.020000
-8.066630 0.359816 154.914000 -11.899200 4.890000
-8.089040 0.360816 155.344000 -11.899200 6.620000
-6.909880 2.291420 155.816000 -11.899200 5.390000
-6.928970 2.297750 156.246000 -11.899200 5.770000
-7.063240 0.862890 159.274000 -11.899200 5.090000
-7.082180 1.359620 159.701000 -11.899200 4.790000
-7.101420 0.867554 160.135000 -11.899200 4.890000
-48.940700 -22.835700 164.588000 -11.277600 5.370000
6.102400 0.016991 4.052210 -6.216000 3.220000
6.451090 -0.437545 4.283760 -6.482400 7.060000
6.461360 0.017991 4.290580 -6.038400 8.420000
5.451150 -1.022490 5.422000 -8.258400 5.020000
6.820250 0.044311 4.528890 -6.216000 13.950000
7.179210 0.046643 4.767250 -6.393600 14.430000
7.538170 0.048975 5.005620 -6.571200 10.390000
7.187210 -0.303802 7.429690 -8.613600 7.070000
5.744300 -2.400420 10.834800 -10.389600 7.650000
5.948760 -1.008460 11.432500 -10.389600 10.350000
5.964220 -1.042080 11.907000 -10.389600 10.370000
6.064150 -1.574420 12.283300 -10.478400 9.470000
6.289340 -0.593525 12.739400 -10.478400 9.080000
7.018930 -0.340794 12.362000 -10.123200 7.900000
6.378570 -0.611511 13.175000 -10.567200 7.910000
7.329570 -0.351121 12.680500 -10.123200 7.150000
4.520300 -1.751570 13.825300 -11.011200 5.470000
7.164770 -0.361448 13.266000 -10.300800 10.950000
8.918800 -0.850781 12.131900 -9.501600 5.930000
5.899120 -1.854610 14.226600 -10.833600 5.050000
9.269530 -0.875089 12.407400 -9.412800 6.910000
5.950110 -1.906120 14.668000 -10.833600 7.050000
9.428450 -0.899397 12.825100 -9.501600 7.860000
5.991380 -0.382102 14.769800 -10.833600 9.840000
6.554460 -0.402756 15.468900 -10.744800 11.750000
6.600040 -0.413083 15.916900 -10.744800 10.830000
8.067500 -0.666161 15.216800 -10.389600 7.310000
8.269190 -0.682815 15.597200 -10.389600 7.530000
8.105270 1.479070 17.075800 -10.567200 4.960000
8.154640 1.512690 17.527300 -10.567200 4.430000
17.518600 1.891160 11.633000 -6.216000 5.300000
17.871100 1.996110 11.867000 -6.216000 8.320000
18.228500 2.036040 12.104400 -6.216000 8.690000
6.577990 -0.367793 19.605900 -11.011200 6.310000
17.978600 1.511040 12.546900 -6.926400 5.710000
6.548750 1.321460 20.029300 -11.100000 5.810000
18.331200 1.540660 12.792900 -6.926400 10.350000
6.942540 6.526660 19.802600 -11.100000 6.810000
7.546380 -0.645578 20.629500 -10.922400 7.120000
7.573280 -0.588965 21.079900 -10.922400 8.060000
18.004300 1.461390 16.642300 -8.080800 6.530000
18.189100 1.487030 17.075000 -8.169600 4.470000
18.499200 1.591150 17.366100 -8.169600 4.170000
18.097100 1.563950 18.998500 -8.613600 10.610000
9.028980 0.386123 24.682500 -11.011200 7.280000
18.497100 1.699020 19.796800 -8.702400 5.260000
18.786900 1.811110 20.107100 -8.702400 6.420000
18.357000 1.925830 21.066200 -8.880000 8.880000
18.639500 1.955460 21.390300 -8.880000 8.580000
18.797600 1.887800 23.513700 -9.324000 10.730000
19.066100 1.914770 23.849600 -9.324000 6.050000
19.334700 1.941740 24.185500 -9.324000 12.510000
18.106000 1.750180 25.132600 -9.590400 8.490000
18.602100 1.774490 25.303700 -9.590400 5.960000
18.856900 1.798790 25.650300 -9.590400 6.370000
18.706100 1.670420 26.828100 -9.679200 9.970000
18.952200 1.692400 27.181100 -9.679200 5.270000
19.198400 1.714380 27.534100 -9.679200 9.490000
19.444500 1.736360 27.887100 -9.679200 8.410000
18.816400 1.545360 28.842200 -9.945600 5.680000
19.048800 1.672510 29.198600 -9.945600 7.860000
19.284000 1.693160 29.559100 -9.945600 6.700000
9.415760 0.409782 34.053700 -11.277600 4.410000
9.530590 0.414779 34.469000 -11.277600 5.840000
9.645020 0.531710 34.882800 -11.277600 7.470000
9.282880 0.538040 35.426500 -11.277600 8.280000
9.391050 0.773550 35.839400 -11.277600 14.080000
18.951400 1.934170 32.786700 -10.212000 6.040000
19.169700 1.837690 33.164400 -10.212000 6.270000
19.385100 1.858340 33.537000 -10.212000 10.480000
19.600500 1.878990 33.909600 -10.212000 15.910000
9.936350 -0.939765 37.920400 -11.277600 18.860000
19.436800 1.690650 35.496100 -10.300800 17.560000
19.643600 1.708630 35.873800 -10.300800 7.620000
19.290100 0.743249 37.072300 -10.389600 15.400000
19.487800 0.881487 37.452200 -10.389600 10.090000
19.685300 1.022380 37.831800 -10.389600 7.370000
19.675700 1.291160 39.280500 -10.478400 12.230000
19.868600 1.303810 39.665600 -10.478400 7.650000
20.063200 1.177930 40.054200 -10.478400 9.200000
19.750900 2.066920 41.610300 -10.656000 11.030000
19.935500 2.086240 41.999200 -10.656000 7.040000
19.731000 1.831940 43.058100 -10.656000 9.350000
19.910400 1.848600 43.449500 -10.656000 5.990000
20.089700 1.865250 43.840900 -10.656000 10.300000
20.269100 1.881910 44.232400 -10.656000 10.210000
19.931500 1.915210 45.327900 -10.744800 6.310000
20.104800 1.931870 45.722000 -10.744800 8.470000
20.278200 1.948520 46.116200 -10.744800 8.750000
20.451500 1.965180 46.510300 -10.744800 8.660000
19.987800 2.140290 47.172500 -10.744800 15.840000
20.158300 1.998480 47.574900 -10.744800 7.510000
20.326300 2.015140 47.971300 -10.744800 8.720000
20.494200 2.031790 48.367800 -10.744800 17.060000
20.290200 1.720820 48.932800 -10.833600 6.440000
20.455200 1.734810 49.330600 -10.833600 13.830000
20.620200 1.748800 49.728500 -10.833600 5.850000
20.782900 1.930610 50.121000 -10.833600 5.120000
20.428300 1.620270 51.207000 -10.833600 13.740000
-12.114200 1.961250 53.772600 -11.188800 16.380000
20.587900 1.632930 51.607000 -10.833600 6.390000
-21.661400 -2.663620 51.122400 -10.478400 14.650000
-12.208900 1.976580 54.192700 -11.188800 8.080000
-20.026700 -2.857300 52.236700 -10.744800 6.670000
-12.303500 1.991900 54.612800 -11.188800 15.010000
-20.180700 -2.879280 52.638500 -10.567200 15.080000
20.506900 1.178310 52.578000 -10.922400 10.590000
-21.379300 0.659649 52.703800 -10.567200 10.190000
20.356900 1.187310 53.097900 -10.922400 15.110000
-21.233100 0.841874 53.224500 -10.567200 15.150000
20.244900 1.696230 54.048500 -11.011200 10.510000
20.396000 1.708880 54.451900 -11.011200 7.480000
20.547100 1.721540 54.855200 -11.011200 7.040000
20.698200 1.734200 55.258600 -11.011200 8.320000
-18.407800 -1.772180 57.421600 -10.922400 11.380000
-18.537500 -1.972650 57.826200 -10.922400 7.020000
-18.219500 -1.986640 58.378500 -10.922400 8.180000
21.098900 0.147925 60.181700 -11.100000 14.980000
-7.353270 1.873440 63.320100 -11.366400 15.440000
21.241200 0.347488 60.587600 -11.100000 11.240000
21.383300 0.549713 60.992900 -11.100000 6.950000
20.831400 0.962142 62.088300 -11.100000 6.840000
20.968400 0.968472 62.496800 -11.100000 8.460000
21.105400 0.974802 62.905300 -11.100000 6.590000
21.023600 0.366145 64.300600 -11.100000 7.450000
21.157500 0.368477 64.710200 -11.100000 7.270000
12.783100 1.248960 69.052300 -11.366400 8.740000
12.859900 1.693640 69.467000 -11.366400 7.550000
22.070900 2.177240 70.718700 -11.188800 8.540000
21.360600 2.202560 71.835700 -11.188800 5.180000
21.487900 1.574080 72.264000 -11.188800 7.890000
21.612000 1.348580 72.681300 -11.188800 5.860000
21.315200 0.176910 73.230000 -11.188800 10.060000
21.854800 1.838220 73.497700 -11.188800 9.050000
21.977500 1.848550 73.910600 -11.188800 9.780000
22.100300 1.858880 74.323500 -11.188800 11.290000
21.790700 1.869200 74.863600 -11.188800 5.940000
22.277900 0.677980 76.537300 -11.188800 8.660000
22.397600 0.929506 76.948600 -11.188800 13.600000
22.517100 1.183690 77.359200 -11.188800 14.020000
22.635000 1.691020 77.764300 -11.188800 10.150000
-0.955624 3.453240 82.655200 -11.455200 10.200000
16.651100 0.839229 97.257400 -11.366400 6.310000
16.723800 0.842894 97.682100 -11.366400 12.290000
30.459200 0.000000 130.502000 -11.277600 11.210000
30.557000 0.311841 130.922000 -11.277600 7.990000
30.654600 0.729958 131.340000 -11.277600 11.020000
20.828200 1.198380 139.351000 -11.455200 11.120000
21.969000 0.764940 139.615000 -11.455200 9.430000
-62.189600 -8.434890 135.714000 -10.389600 10.930000
-62.368800 -8.459200 136.105000 -10.389600 14.410000
-62.548100 -8.483500 136.496000 -10.300800 13.550000
-62.691700 -9.904480 136.809000 -10.300800 7.220000
-61.811500 -9.932780 137.681000 -10.300800 6.430000
-6.852890 1.794050 154.531000 -11.455200 5.610000
-5.976110 1.799040 154.998000 -11.455200 5.390000
-6.910600 0.361815 155.832000 -11.455200 6.270000
-6.929690 0.362815 156.263000 -11.455200 7.520000
-6.948700 0.848897 156.691000 -11.455200 7.120000
-6.967640 1.337640 157.118000 -11.455200 4.740000
-6.986730 1.341300 157.549000 -11.455200 6.850000
-7.005820 1.344970 157.979000 -11.455200 7.080000
-6.175710 0.371810 160.175000 -11.455200 6.190000
-6.192320 0.372810 160.606000 -11.455200 4.180000
-6.208920 0.373809 161.037000 -11.455200 8.540000
6.820330 0.018990 4.528950 -6.304800 10.010000
6.820350 0.000000 4.528960 -6.393600 12.030000
7.179310 0.000000 4.767320 -6.571200 9.350000
6.538180 -0.080625 6.863840 -8.613600 4.360000
6.765920 -0.084289 7.241360 -8.702400 6.360000
5.601420 -0.383043 8.166970 -9.679200 6.650000
6.241690 -0.444291 7.685440 -9.146400 6.090000
5.844960 -0.399697 8.522050 -9.679200 5.530000
6.451060 -0.463608 8.069540 -9.235200 7.170000
5.950950 -0.416351 8.969930 -9.679200 6.360000
4.735240 -1.479510 10.998100 -10.656000 16.720000
5.245480 -1.234690 11.274400 -10.478400 13.840000
5.517760 -1.237470 11.624600 -10.478400 8.680000
5.754790 -2.006350 11.886600 -10.478400 4.710000
5.344380 -1.574420 12.613100 -10.656000 6.650000
9.201000 1.273640 10.766600 -8.968800 7.990000
5.588440 -1.579920 12.979700 -10.656000 5.980000
9.586240 1.312240 11.001000 -8.968800 6.600000
6.342380 -1.672820 13.100200 -10.567200 7.020000
5.847460 -1.675680 13.800400 -10.744800 6.310000
7.119960 -1.722020 13.183000 -10.389600 8.290000
5.906970 -1.675870 14.245500 -10.744800 10.490000
5.897130 -0.948623 14.782200 -10.833600 6.550000
5.853250 -0.873141 15.267300 -10.833600 9.480000
6.218070 -0.896118 15.586700 -10.922400 7.700000
7.319810 -0.493677 15.119100 -10.567200 8.420000
7.509110 -0.359791 15.510100 -10.567200 7.850000
-8.368880 1.344610 15.007800 -10.123200 8.190000
7.818140 -0.464377 15.836000 -10.567200 7.200000
8.008820 -0.475703 16.222300 -10.567200 8.890000
6.534510 1.668510 18.638800 -11.011200 5.770000
6.576840 -1.267520 19.112700 -11.011200 7.090000
6.576840 -1.267520 19.112700 -11.100000 9.220000
6.840540 -0.543660 19.511700 -11.100000 6.780000
7.112640 1.414930 20.287800 -11.011200 6.900000
7.146820 -0.713511 20.769100 -11.011200 10.340000
8.393800 1.646620 20.242800 -10.744800 8.960000
7.409240 -0.727502 21.133800 -11.011200 7.330000
7.554070 -0.476723 21.546900 -11.011200 9.880000
7.673690 2.341650 22.300200 -11.011200 9.460000
8.411550 0.379793 24.444400 -11.011200 7.090000
18.393800 1.589580 19.310000 -8.613600 7.640000
9.160000 1.672050 25.040600 -11.011200 7.400000
18.690500 1.615220 19.621400 -8.613600 13.430000
18.987100 1.640860 19.932900 -8.613600 7.180000
18.357000 1.925830 21.066200 -8.968800 5.380000
18.436400 1.867700 21.573400 -8.968800 10.820000
18.715700 1.896000 21.900300 -8.968800 8.640000
7.940080 1.274920 27.278700 -11.188800 5.240000
18.991100 2.014720 22.222500 -8.968800 13.610000
8.060380 1.294240 27.692000 -11.188800 6.470000
8.343010 1.313560 28.057600 -11.100000 9.350000
18.356600 1.677250 23.328500 -9.324000 7.540000
8.304960 0.965339 28.532300 -11.188800 6.310000
18.622700 1.701560 23.666600 -9.324000 7.180000
8.425320 0.979329 28.945800 -11.188800 6.480000
18.347300 1.750180 24.957000 -9.590400 6.600000
18.602100 1.774490 25.303700 -9.590400 6.470000
18.853500 1.897250 25.645700 -9.590400 6.650000
19.108300 1.922880 25.992200 -9.590400 6.230000
18.706100 1.670420 26.828100 -9.768000 13.640000
18.952200 1.692400 27.181100 -9.768000 7.240000
19.198400 1.714380 27.534100 -9.768000 7.900000
19.444500 1.736360 27.887100 -9.768000 6.700000
19.040700 1.438850 28.700200 -9.856800 7.040000
19.278700 1.456830 29.059000 -9.856800 5.910000
19.291800 1.365630 29.570900 -9.945600 7.410000
19.527000 1.382280 29.931600 -9.945600 9.850000
9.529720 0.635976 34.465800 -11.277600 6.520000
18.808700 1.846260 30.869800 -10.123200 5.030000
9.643960 0.755560 34.879000 -11.277600 6.730000
19.032600 1.868240 31.237300 -10.123200 8.090000
9.758770 0.764555 35.294200 -11.277600 8.990000
19.254200 1.976060 31.601000 -10.123200 12.150000
9.569140 -2.976610 35.676600 -11.277600 7.600000
19.478100 1.999030 31.968400 -10.123200 11.740000
18.942500 2.256180 32.771300 -10.212000 6.950000
8.703410 -3.011220 36.339500 -11.366400 8.120000
19.157700 2.281820 33.143700 -10.212000 17.050000
8.584030 -3.396380 36.778300 -11.366400 7.060000
19.376500 2.187720 33.522100 -10.212000 19.300000
19.591800 2.212030 33.894600 -10.212000 12.550000
19.227400 1.796480 35.113800 -10.389600 7.750000
19.434200 1.815800 35.491400 -10.389600 9.230000
19.643600 1.708630 35.873800 -10.389600 10.130000
19.621900 2.263860 39.745200 -10.567200 12.110000
19.812400 2.285840 40.131100 -10.567200 9.140000
10.086700 -0.651978 43.216400 -11.366400 10.160000
10.184600 -0.658308 43.636000 -11.366400 11.130000
19.883500 2.047600 41.069400 -10.656000 10.420000
10.283000 -0.524721 44.057400 -11.366400 8.810000
19.750900 2.066920 41.610300 -10.656000 7.730000
19.935500 2.086240 41.999200 -10.656000 5.220000
20.122800 1.960430 42.393800 -10.567200 5.550000
19.567000 2.291950 43.584100 -10.656000 4.920000
20.081700 2.312600 43.823300 -10.656000 9.660000
20.261000 2.333250 44.214600 -10.656000 9.350000
19.935900 1.608900 45.337800 -10.744800 7.770000
20.107100 1.777390 45.727300 -10.744800 11.670000
20.280500 1.792710 46.121500 -10.744800 6.030000
20.094700 1.808030 46.671900 -10.744800 15.600000
19.992600 1.823350 47.183800 -10.744800 9.280000
20.160600 1.838680 47.580300 -10.744800 10.960000
20.328600 1.854000 47.976800 -10.744800 7.190000
20.494200 2.031790 48.367800 -10.744800 12.460000
19.910400 1.884640 49.082600 -10.833600 5.930000
20.455200 1.734810 49.330600 -10.833600 9.310000
20.236300 1.748800 49.885900 -10.833600 6.410000
20.785100 1.762790 50.126300 -10.833600 5.370000
20.424200 1.961250 51.196700 -10.833600 14.040000
20.198300 1.658250 52.684400 -11.011200 16.250000
20.352500 1.670910 53.086500 -11.011200 14.060000
20.506700 1.683570 53.488700 -11.011200 6.170000
20.389600 2.248290 54.434700 -11.011200 12.610000
20.542900 2.083830 54.844200 -11.011200 7.020000
20.694000 2.099150 55.247500 -11.011200 16.680000
20.845000 2.114480 55.650700 -11.011200 10.830000
-19.185800 -1.072730 57.183700 -10.833600 15.790000
-19.766200 -1.080390 57.441600 -10.833600 9.760000
-17.883500 -1.797490 58.488400 -10.922400 6.470000
-18.003700 -2.381530 58.881700 -11.011200 10.330000
-18.129600 -2.398180 59.293500 -11.011200 5.980000
-17.794800 -2.414830 59.844200 -10.922400 9.820000
21.376700 1.698940 60.974000 -11.100000 6.320000
21.519200 1.710270 61.380500 -11.100000 7.270000
11.706700 0.590026 68.377500 -11.455200 9.400000
12.176900 0.593690 68.733000 -11.455200 8.820000
12.783100 1.248960 69.052300 -11.455200 6.980000
12.861600 1.256630 69.476000 -11.455200 13.250000
-13.322300 -4.230340 69.711000 -11.188800 10.080000
-17.595100 1.050760 69.323600 -11.100000 7.840000
-18.345300 1.511120 70.011800 -11.100000 7.940000
-18.454500 1.520120 70.428500 -11.100000 6.730000
21.690500 1.520120 69.500100 -11.188800 7.310000
21.818900 1.529110 69.911400 -11.188800 6.430000
21.540400 1.538100 70.448300 -11.188800 6.090000
21.664800 1.776260 70.855400 -11.188800 5.100000
21.921600 0.869538 71.695000 -11.188800 6.100000
21.491100 0.874535 72.274900 -11.188800 10.020000
21.614000 0.879532 72.687900 -11.188800 11.490000
21.306100 2.240540 73.198600 -11.188800 8.890000
21.428300 2.016070 73.618500 -11.188800 9.390000
21.549900 1.848550 74.036400 -11.188800 9.910000
21.670300 1.858880 74.450000 -11.188800 12.470000
21.790700 1.869200 74.863600 -11.277600 15.010000
21.327200 2.303830 75.433000 -11.188800 11.520000
21.444400 2.316490 75.847500 -11.277600 15.800000
21.685800 1.171030 76.701200 -11.188800 8.930000
21.803000 1.177360 77.115800 -11.188800 10.660000
21.920200 1.183690 77.530400 -11.188800 7.970000
-1.593690 1.726990 82.699400 -11.455200 8.840000
20.764500 1.194710 138.925000 -11.455200 8.920000
20.828200 1.198380 139.351000 -11.455200 7.610000
-62.178500 -8.896540 135.689000 -10.389600 15.850000
-61.307000 -8.922180 136.557000 -10.389600 13.590000
-61.459300 -9.876190 136.896000 -10.389600 7.370000
-60.549600 -10.835100 137.701000 -10.389600 6.770000
-8.088940 0.841900 155.342000 -11.544000 7.430000
-6.910520 0.844232 155.830000 -11.544000 7.570000
-6.929610 0.846565 156.261000 -11.544000 4.700000
-6.948550 1.333970 156.688000 -11.544000 5.870000
-6.967420 1.824030 157.114000 -11.455200 5.270000
-7.005320 2.323070 157.968000 -11.544000 4.840000
-6.175640 0.867554 160.173000 -11.544000 7.320000
-6.192240 0.869886 160.604000 -11.544000 6.240000
-6.208840 0.872218 161.035000 -11.544000 6.510000
6.461360 -0.017991 4.290580 -6.393600 8.850000
6.820330 -0.018990 4.528950 -6.482400 12.240000
7.179290 -0.019990 4.767310 -6.660000 10.990000
6.597160 -0.076960 6.193070 -8.169600 7.000000
6.848490 -0.080625 6.554260 -8.258400 8.740000
7.159780 -0.084289 6.852180 -8.258400 6.570000
5.695440 -1.101160 8.035630 -9.679200 6.010000
6.013730 -0.640961 8.914650 -9.856800 5.980000
6.038260 -0.666600 9.413360 -9.945600 9.970000
6.194970 -0.692238 9.823450 -9.945600 9.570000
6.979850 -1.536210 12.293200 -10.567200 7.070000
5.845740 -1.931370 13.294300 -10.833600 6.850000
5.264250 -1.490140 14.054100 -10.922400 6.880000
5.525910 -1.532710 14.413500 -10.922400 9.010000
6.981080 -1.259180 15.234500 -10.656000 9.290000
7.262370 -0.825929 15.609500 -10.744800 10.850000
7.370640 1.595960 17.395200 -10.922400 6.430000
8.391270 -0.395770 16.997000 -10.567200 5.350000
7.538160 1.632230 17.790500 -10.922400 5.970000
5.876320 -1.958470 18.828700 -11.100000 5.710000
8.331660 1.668510 17.907700 -10.744800 5.940000
6.152160 -2.001040 19.191200 -11.188800 4.590000
7.640550 1.613540 19.152400 -11.011200 5.120000
7.231470 1.647150 19.768600 -11.011200 5.300000
6.576600 -0.249867 20.515200 -11.188800 9.150000
7.534300 1.680770 20.114600 -11.011200 6.690000
7.269010 -0.458733 20.733800 -11.100000 4.440000
7.574250 -0.467728 21.082600 -11.100000 6.820000
7.696640 1.834420 21.423300 -11.100000 7.620000
18.499200 1.591150 17.366100 -8.258400 4.370000
18.812800 1.618120 17.660400 -8.258400 8.190000
7.005700 2.315710 24.778800 -11.277600 11.310000
8.661240 2.354310 24.705000 -11.188800 7.140000
18.260500 1.833870 22.841900 -9.324000 8.590000
18.529100 1.860830 23.177800 -9.324000 7.710000
18.797600 1.887800 23.513700 -9.324000 10.510000
19.066100 1.914770 23.849600 -9.324000 7.200000
18.579400 2.356920 25.272800 -9.679200 6.860000
18.833900 2.389210 25.619000 -9.679200 6.260000
19.088400 2.421490 25.965200 -9.679200 8.230000
18.504300 1.468090 26.979500 -9.856800 14.080000
18.747700 1.487410 27.334500 -9.856800 7.600000
18.991200 1.506730 27.689500 -9.856800 9.470000
19.234700 1.526040 28.044500 -9.768000 6.490000
18.813700 1.651860 28.838100 -9.945600 5.730000
19.048800 1.672510 29.198600 -9.945600 7.680000
19.284000 1.693160 29.559100 -9.945600 5.680000
-6.629660 1.037990 34.690700 -11.366400 12.240000
19.519200 1.713800 29.919500 -9.945600 11.930000
9.261270 1.050650 34.528800 -11.366400 5.100000
18.554300 2.377080 30.987200 -10.212000 7.050000
9.374850 0.755560 34.952300 -11.366400 9.910000
18.778900 2.292330 31.362400 -10.212000 14.630000
9.487030 0.651301 35.370500 -11.366400 14.570000
18.999800 2.319300 31.731300 -10.212000 6.050000
9.391050 0.773550 35.839400 -11.366400 9.730000
19.220800 2.346270 32.100300 -10.212000 11.790000
9.210540 -1.912200 36.288900 -11.366400 8.440000
8.820490 -1.934170 36.828300 -11.366400 17.450000
19.172400 1.719210 33.169100 -10.300800 13.400000
8.426680 -0.800534 37.404300 -11.455200 17.990000
19.385100 1.858340 33.537000 -10.300800 13.690000
19.341300 1.757850 34.064600 -10.300800 9.280000
19.230000 1.672660 35.118500 -10.389600 5.370000
19.434200 1.815800 35.491400 -10.389600 7.880000
19.640900 1.835120 35.868900 -10.389600 5.780000
19.468800 2.085470 38.867500 -10.567200 8.350000
19.661600 2.106120 39.252300 -10.567200 9.800000
19.857200 1.989650 39.642900 -10.567200 10.390000
20.050000 2.008970 40.027700 -10.567200 6.190000
20.242800 2.028290 40.412600 -10.567200 7.760000
19.563500 2.188710 41.215500 -10.744800 7.660000
19.748100 2.209360 41.604400 -10.744800 7.880000
19.935500 2.086240 41.999200 -10.744800 5.230000
20.120100 2.105550 42.388100 -10.744800 7.440000
19.717600 2.527510 43.029000 -10.833600 17.760000
19.899300 2.439700 43.425400 -10.833600 17.430000
20.078600 2.461680 43.816600 -10.833600 11.170000
20.261000 2.333250 44.214600 -10.833600 7.360000
19.926400 2.221460 45.316200 -10.833600 9.930000
20.099600 2.240770 45.710200 -10.833600 13.750000
20.272900 2.260090 46.104300 -10.833600 10.330000
20.087200 2.279410 46.654500 -10.922400 14.030000
19.990300 1.981830 47.178400 -10.922400 7.620000
20.158300 1.998480 47.574900 -10.922400 6.200000
20.326300 2.015140 47.971300 -10.922400 9.700000
20.494200 2.031790 48.367800 -10.922400 9.260000
20.288100 1.884640 48.927700 -10.922400 14.280000
20.453100 1.899960 49.325400 -10.922400 13.720000
20.618000 1.915290 49.723200 -10.922400 7.020000
20.782900 1.930610 50.121000 -10.922400 13.670000
20.264600 1.945930 50.796700 -11.011200 17.100000
20.426300 1.790770 51.202100 -11.011200 16.120000
20.585900 1.804760 51.602100 -11.011200 6.780000
20.969200 1.721540 54.695200 -11.100000 8.560000
21.121400 1.916690 55.092100 -11.100000 6.690000
20.664100 1.642310 58.941600 -11.100000 6.870000
20.807900 1.507750 59.351500 -11.100000 8.600000
20.950400 1.518080 59.758000 -11.100000 6.930000
21.238200 1.141690 60.578900 -11.100000 4.440000
21.377900 1.549060 60.977600 -11.100000 8.110000
21.520500 1.559390 61.384100 -11.100000 6.140000
20.966100 1.376200 62.489900 -11.188800 8.890000
21.100400 1.744240 62.890300 -11.188800 6.240000
-16.916800 -2.581380 64.560000 -11.100000 16.600000
-17.031300 -1.974710 64.997100 -11.100000 15.100000
12.470600 0.794577 67.363900 -11.455200 8.960000
11.951400 0.582696 67.460100 -11.544000 10.320000
12.102100 -0.160918 68.311000 -11.455200 9.860000
12.177300 -0.161917 68.735300 -11.455200 5.400000
12.704000 1.457150 68.624600 -11.544000 5.670000
-13.246200 -3.768290 69.312700 -11.277600 7.400000
12.860800 1.475140 69.471800 -11.544000 5.490000
12.859900 1.693640 69.467000 -11.544000 7.600000
21.431100 1.891490 68.668900 -11.188800 7.170000
-17.803900 1.734950 70.146200 -11.188800 7.690000
-17.909900 1.745280 70.563800 -11.188800 7.570000
21.411700 1.925460 70.027400 -11.277600 8.900000
21.538900 1.765930 70.443400 -11.277600 8.420000
21.664800 1.776260 70.855400 -11.277600 10.460000
21.793600 1.325590 71.276500 -11.277600 5.490000
21.485200 1.982100 72.254800 -11.277600 10.680000
21.609200 1.817570 72.671900 -11.277600 7.760000
21.733500 1.592070 73.089900 -11.277600 7.320000
21.851600 2.253190 73.487100 -11.277600 12.230000
21.979100 1.610060 73.915700 -11.277600 13.210000
22.101800 1.619060 74.328700 -11.277600 14.120000
22.226000 1.386890 74.746100 -11.277600 12.530000
21.911100 1.879530 75.277200 -11.277600 11.040000
22.030200 2.072710 75.686400 -11.277600 15.160000
-28.220100 1.889860 73.607900 -10.744800 14.400000
22.150600 2.084030 76.100000 -11.277600 8.500000
-28.374300 1.900180 74.010100 -10.744800 6.240000
22.271000 2.095360 76.513600 -11.277600 11.650000
21.797800 2.106680 77.097500 -11.277600 12.680000
21.915000 2.118010 77.512000 -11.277600 9.420000
22.032200 2.129340 77.926500 -11.277600 10.320000
-62.166700 -9.358110 135.664000 -10.389600 4.970000
-63.143200 -8.922180 135.718000 -10.389600 7.820000
-62.512600 -9.876190 136.419000 -10.389600 8.040000
-60.735900 -10.399500 138.124000 -10.389600 4.490000
-6.891280 1.322980 155.397000 -11.632800 5.920000
-6.910370 1.326640 155.827000 -11.544000 8.800000
-6.928970 2.297750 156.246000 -11.632800 10.080000
-6.058870 2.310410 157.145000 -11.544000 9.490000
-6.075470 2.316740 157.575000 -11.544000 5.360000
-6.192240 0.869886 160.604000 -11.544000 6.430000
-6.208920 0.373809 161.037000 -11.544000 6.070000
-6.225520 0.374809 161.467000 -11.544000 5.500000
6.820330 0.018990 4.528950 -6.660000 8.030000
7.179290 0.019990 4.767310 -6.660000 9.410000
7.538260 -0.020989 5.005680 -6.837600 6.060000
6.563470 -0.383043 7.415940 -8.968800 5.430000
6.788990 -0.399697 7.790930 -9.057600 7.750000
4.745470 1.064380 9.612200 -10.478400 5.700000
5.157150 -0.865292 9.418170 -10.300800 4.100000
5.657520 -0.865292 9.126360 -10.034400 4.490000
5.810500 -0.899904 9.536480 -10.034400 4.600000
4.325110 -1.862540 12.038800 -11.011200 2.720000
5.597280 3.928210 12.467500 -10.744800 5.100000
4.727380 -1.886450 13.738000 -11.188800 5.210000
5.393270 4.047250 13.006600 -10.922400 12.540000
4.948080 -1.941930 14.113700 -11.188800 6.160000
5.239580 -0.695413 14.584200 -11.100000 10.940000
5.788240 -0.665468 14.840600 -10.922400 6.560000
5.946730 -0.531636 15.246900 -11.011200 8.840000
6.104330 -0.441724 15.651000 -11.011200 11.330000
6.260850 -0.453050 16.052300 -11.011200 6.230000
-7.813960 1.344610 15.304000 -10.300800 6.530000
7.234620 -0.314157 16.114600 -10.833600 7.490000
-8.250150 1.378230 15.561300 -10.212000 7.940000
7.255500 1.621000 16.500300 -10.833600 5.650000
-7.553880 1.773710 16.825700 -10.567200 6.910000
7.261640 -0.219883 17.512500 -10.922400 8.520000
-7.230890 1.756580 17.438300 -10.656000 5.140000
8.077260 -0.224880 17.626700 -11.011200 6.350000
6.429900 1.546310 18.685600 -11.188800 6.290000
-8.095360 1.485180 18.031800 -10.656000 5.980000
7.589660 1.579920 18.709800 -11.100000 6.430000
-7.226430 1.626750 18.849100 -10.833600 6.500000
6.825230 1.485960 19.468000 -11.188800 6.090000
6.707350 -1.076980 19.991400 -11.277600 8.930000
7.916300 1.516920 19.515000 -11.100000 7.200000
6.844240 -1.098960 20.399400 -11.277600 8.210000
7.412650 0.259862 21.143600 -11.188800 9.250000
-7.842660 1.471520 20.937800 -10.922400 9.380000
7.721070 0.264859 21.491300 -11.188800 7.180000
-7.993480 1.499820 21.340500 -10.922400 9.290000
7.841860 1.869030 21.827500 -11.188800 8.190000
8.115460 1.903640 22.185200 -11.188800 5.970000
17.879700 0.842726 15.532900 -7.903200 4.410000
7.962760 1.733620 22.712700 -11.277600 4.460000
17.864900 1.688810 16.770600 -8.436000 3.570000
18.182100 1.641310 17.068400 -8.436000 4.240000
18.495500 1.669610 17.362600 -8.436000 3.850000
18.436400 1.867700 21.573400 -9.146400 11.410000
18.087400 1.743410 22.986300 -9.501600 12.500000
18.353400 1.769050 23.324300 -9.501600 8.200000
-7.632000 1.794690 29.126200 -11.277600 8.900000
18.619300 1.794690 23.662300 -9.501600 13.750000
18.885300 1.820330 24.000400 -9.501600 8.710000
18.333000 2.133230 24.937700 -9.679200 11.420000
18.587600 2.162860 25.284000 -9.679200 12.530000
-6.732870 0.924063 30.712800 -11.366400 9.210000
18.842300 2.192480 25.630400 -9.679200 6.590000
19.100900 2.122390 25.982200 -9.679200 17.680000
18.493400 1.847410 26.963700 -9.945600 9.070000
18.736700 1.871720 27.318500 -9.945600 5.710000
18.983300 1.792240 27.677900 -9.945600 9.540000
19.223400 1.920330 28.028000 -9.945600 5.260000
18.579300 2.051080 28.964200 -10.034400 14.290000
-6.919880 1.545360 33.734900 -11.366400 5.270000
18.814900 1.968950 29.331500 -10.034400 14.380000
-7.007320 1.456830 34.161200 -11.455200 10.080000
19.047200 1.993260 29.693600 -10.034400 11.050000
9.150480 0.928753 34.115700 -11.455200 7.110000
19.279400 2.017570 30.055700 -10.034400 16.140000
9.262070 0.940080 34.531800 -11.455200 5.860000
9.374850 0.755560 34.952300 -11.455200 16.290000
19.038300 1.641950 31.246600 -10.212000 6.290000
9.486460 0.764555 35.368400 -11.455200 11.680000
19.259500 1.775750 31.609600 -10.212000 13.790000
9.113390 0.974058 35.906100 -11.455200 17.820000
19.478100 1.999030 31.968400 -10.212000 9.940000
8.234760 -1.217170 36.552400 -11.455200 17.690000
8.329420 -1.231160 36.972600 -11.455200 10.870000
19.154100 2.400210 33.137400 -10.389600 12.580000
9.434530 0.088955 37.171400 -11.544000 7.390000
19.369300 2.427180 33.509800 -10.389600 12.690000
7.499560 0.209892 38.048400 -11.544000 9.750000
19.584500 2.454140 33.882100 -10.389600 8.090000
7.879260 0.090954 38.412000 -11.544000 8.950000
7.965850 0.091953 38.834100 -11.544000 9.250000
9.941000 -2.785050 39.166900 -11.455200 6.220000
8.206160 -2.814680 40.005600 -11.455200 9.910000
19.286400 1.098650 37.065300 -10.656000 9.890000
19.485300 1.109970 37.447500 -10.656000 9.020000
19.684100 1.121300 37.829600 -10.656000 7.590000
19.881200 1.265840 38.208400 -10.656000 6.290000
19.243800 2.085470 38.979400 -10.744800 16.010000
19.434400 2.106120 39.365300 -10.744800 7.460000
19.624900 2.126770 39.751300 -10.744800 10.740000
19.815400 2.147420 40.137200 -10.744800 18.000000
20.242800 2.028290 40.412600 -10.744800 19.710000
19.558200 2.435600 41.204200 -10.833600 17.000000
19.742700 2.458580 41.592900 -10.833600 7.960000
19.929600 2.373760 41.986800 -10.833600 7.690000
19.723100 2.271310 43.040800 -10.833600 10.550000
19.899300 2.439700 43.425400 -10.833600 11.570000
20.078600 2.461680 43.816600 -10.833600 11.740000
20.257800 2.483660 44.207800 -10.833600 10.510000
19.753100 2.202140 44.922100 -10.922400 16.480000
19.923500 2.374550 45.309700 -10.922400 16.440000
20.096800 2.395200 45.703600 -10.922400 11.730000
20.270000 2.415840 46.097600 -10.922400 9.650000
19.987800 2.140290 47.172500 -11.011200 6.050000
20.155800 2.158270 47.568900 -11.011200 16.180000
20.323700 2.176260 47.965300 -11.011200 17.340000
20.486000 2.519080 48.348300 -11.011200 14.150000
19.908100 2.048450 49.076900 -11.011200 13.750000
20.070000 2.065100 49.475900 -11.011200 16.490000
20.231800 2.081750 49.874900 -11.011200 14.830000
20.396000 1.930610 50.279700 -11.011200 9.390000
20.394000 1.888710 54.446700 -11.188800 8.650000
20.542900 2.083830 54.844200 -11.100000 7.450000
20.694000 2.099150 55.247500 -11.100000 8.340000
10.741200 -1.734200 58.022000 -11.544000 6.300000
10.368800 -1.746860 58.527200 -11.632800 8.920000
11.238100 -1.759520 58.805000 -11.544000 5.140000
11.318900 -1.772180 59.228100 -11.544000 8.220000
11.401400 -1.456120 59.659800 -11.544000 6.730000
20.970400 1.822810 58.370100 -11.188800 5.790000
21.116000 1.835470 58.775500 -11.188800 7.130000
21.263500 1.653630 59.185900 -11.188800 8.200000
20.741800 1.873440 60.276800 -11.188800 7.250000
21.232400 1.886100 60.562300 -11.188800 8.120000
21.376700 1.698940 60.974000 -11.188800 8.500000
-3.380560 2.715830 64.921200 -11.632800 11.990000
-3.402950 2.733810 65.351200 -11.632800 13.790000
-3.806000 2.548070 65.768400 -11.632800 11.130000
-17.680600 -1.385190 63.944800 -11.188800 8.850000
-3.830880 2.564720 66.198300 -11.632800 7.080000
-17.298800 -1.394190 64.495300 -11.188800 12.020000
21.170700 1.823530 66.040500 -11.366400 7.270000
21.686000 1.834850 66.326500 -11.277600 7.040000
12.173100 1.834850 68.711700 -11.632800 8.840000
21.435000 1.683310 66.864800 -11.277600 8.930000
12.780700 1.846180 69.039400 -11.632800 6.180000
-29.808900 -0.601020 64.070100 -10.478400 8.910000
12.859100 1.857510 69.463000 -11.632800 7.700000
-13.722400 -4.449820 69.619600 -11.366400 5.180000
-18.638100 1.502130 69.488500 -11.277600 6.800000
-18.749700 1.511120 69.904600 -11.277600 11.510000
-18.860000 1.745280 70.315800 -11.277600 9.770000
21.411700 1.925460 70.027400 -11.366400 5.850000
21.537600 1.936790 70.439300 -11.366400 10.440000
22.070900 2.177240 70.718700 -11.366400 6.950000
22.197100 2.420340 71.123100 -11.366400 7.630000
21.358500 2.434330 71.828800 -11.366400 10.450000
21.485200 1.982100 72.254800 -11.366400 5.600000
21.607900 1.993420 72.667600 -11.366400 13.260000
22.291400 2.240540 72.904600 -11.366400 14.760000
21.429500 1.838220 73.622800 -11.366400 12.810000
21.549900 1.848550 74.036400 -11.366400 11.760000
21.670300 1.858880 74.450000 -11.366400 15.000000
-27.913600 1.628050 72.808500 -10.833600 13.440000
21.789400 2.050050 74.859300 -11.366400 7.170000
-28.067800 1.637050 73.210700 -10.833600 7.450000
-28.220100 1.889860 73.607900 -10.833600 12.080000
22.028300 2.316490 75.679900 -11.366400 11.950000
-28.374300 1.900180 74.010100 -10.833600 5.890000
-28.528500 1.910510 74.412300 -10.833600 4.880000
21.230900 2.834620 76.785000 -11.366400 15.370000
21.349900 2.354460 77.215600 -11.366400 14.400000
21.464700 2.367120 77.630700 -11.366400 8.510000
21.577400 2.630200 78.038400 -11.366400 8.970000
18.415600 0.897865 103.948000 -11.632800 11.860000
18.490800 0.901530 104.372000 -11.632800 6.100000
18.566000 0.905195 104.797000 -11.632800 6.640000
18.641100 0.908859 105.221000 -11.632800 7.460000
20.763000 2.063540 138.915000 -11.632800 5.990000
20.826700 2.069870 139.341000 -11.632800 8.770000
20.889300 2.513250 139.760000 -11.632800 11.910000
20.950300 3.397610 140.168000 -11.632800 10.640000
21.014000 3.407940 140.594000 -11.632800 4.770000
-60.535900 -11.300300 137.669000 -10.478400 7.960000
-61.771100 -11.332600 137.591000 -10.478400 7.590000
-6.910160 1.809040 155.822000 -11.721600 4.390000
-6.929460 1.330310 156.257000 -11.721600 5.710000
-8.178140 1.824030 157.055000 -11.632800 9.270000
-8.200540 1.829030 157.485000 -11.721600 9.170000
-7.101050 1.859010 160.127000 -11.721600 6.380000
-6.191920 1.864010 160.596000 -11.721600 6.060000
-6.208520 1.869010 161.026000 -11.721600 7.360000
-6.224860 2.373710 161.450000 -11.721600 9.810000
-0.435788 0.274333 0.691035 0.000000 0.620000
6.767530 0.000000 4.607500 -7.015200 6.420000
7.123700 -0.019990 4.849990 -7.015200 5.150000
5.497870 -1.230020 9.181900 -10.389600 6.620000
5.787520 -1.339440 9.498770 -10.389600 7.380000
4.074920 -2.207690 11.139600 -11.100000 3.270000
4.160680 -2.172460 11.581100 -11.100000 6.500000
3.800580 -2.089720 12.177700 -11.100000 6.650000
5.054220 -2.077800 12.189000 -11.011200 5.180000
5.745780 -2.144820 12.349800 -10.922400 6.300000
-1.469660 1.404990 14.073600 2.486400 15.610000
-1.514190 1.447560 14.500100 2.486400 18.430000
4.576980 -1.629320 14.277500 -11.366400 6.840000
-1.559660 1.397280 14.935400 2.486400 16.880000
6.211610 -1.580450 14.126300 -11.100000 7.070000
-7.485960 2.092530 13.424500 -10.212000 7.590000
-1.604220 1.437200 15.362100 2.486400 10.970000
5.961910 -1.624350 14.697100 -11.188800 8.440000
-7.693900 2.150660 13.797400 -10.212000 8.490000
6.048770 -1.277380 15.162300 -11.188800 11.800000
-7.489050 2.208780 14.392700 -10.300800 5.470000
6.982670 -1.207340 15.238000 -11.100000 11.770000
7.057750 -0.359791 15.720600 -11.100000 9.750000
-8.256800 1.238300 15.078800 -10.212000 5.530000
-8.582090 1.269260 15.390100 -10.212000 6.760000
-8.795150 1.188540 15.772200 -10.212000 5.920000
7.729550 1.814960 17.217000 -11.011200 4.990000
-7.603080 1.639780 17.290800 -10.656000 8.780000
6.144730 1.677050 18.314500 -11.277600 5.940000
8.040700 1.856210 17.546900 -11.011200 5.720000
-7.783180 1.452900 17.700400 -10.744800 5.500000
6.281280 1.714310 18.721500 -11.277600 6.740000
-7.961350 1.301730 18.105500 -10.744800 5.940000
6.293780 0.046976 19.249500 -11.366400 7.720000
6.310630 -0.671540 19.685500 -11.366400 8.630000
-8.044750 1.613540 18.986100 -10.833600 7.880000
7.799730 1.647150 19.551400 -11.188800 7.970000
-7.231470 1.647150 19.768600 -11.011200 5.670000
6.557470 -0.750793 20.056000 -11.455200 7.020000
6.687830 -1.032410 20.454700 -11.455200 5.970000
7.183830 5.612240 19.995900 -11.366400 8.530000
-7.698450 1.120940 20.552800 -11.011200 8.610000
7.401350 -1.264020 21.111300 -11.366400 9.140000
-7.281310 1.142920 21.159900 -11.100000 3.940000
-8.411770 1.142920 20.736500 -10.922400 9.400000
7.543680 -1.288330 21.517300 -11.366400 4.930000
-8.451220 1.164900 21.184400 -10.922400 6.310000
7.389620 -1.312630 22.024900 -11.366400 6.440000
-8.610680 1.186880 21.584100 -10.922400 7.500000
-7.441830 -5.461160 22.760800 -11.188800 7.370000
-7.750660 -5.556970 23.101000 -11.188800 6.360000
18.506000 1.434170 17.372500 -8.524800 9.340000
7.419100 -1.591150 24.264400 -11.455200 9.120000
7.541780 -1.777690 24.665600 -11.455200 9.480000
8.532430 -1.807320 24.795700 -11.366400 7.200000
7.328550 -1.807320 25.177800 -11.544000 9.720000
18.400200 1.424600 19.316700 -8.968800 8.000000
8.477800 -1.836950 25.268300 -11.455200 9.500000
18.697000 1.447580 19.628300 -8.968800 8.310000
18.379500 1.342140 21.091900 -9.324000 6.220000
18.659400 1.450630 21.413200 -9.324000 8.300000
18.942100 1.472610 21.737600 -9.324000 5.940000
-7.027460 2.014720 28.374600 -11.455200 6.160000
-7.297120 2.044340 28.750100 -11.366400 5.100000
-7.405890 1.887800 29.178700 -11.366400 10.780000
18.340500 1.941740 24.947800 -9.856800 9.460000
18.595200 1.968710 25.294300 -9.856800 8.820000
-7.314860 1.774490 30.541900 -11.455200 10.130000
-7.415070 1.798790 30.960200 -11.455200 5.720000
-7.745590 2.521150 31.274100 -11.455200 17.690000
18.496500 1.746280 26.968200 -10.034400 5.900000
-14.490900 0.962038 29.352100 -14.296800 10.370000
18.739900 1.769260 27.323100 -10.034400 7.990000
-6.217070 1.974160 32.531800 -11.632800 7.110000
18.980100 1.896030 27.673200 -10.034400 9.240000
19.223400 1.920330 28.028000 -10.034400 6.250000
18.585700 1.838190 28.974300 -10.212000 6.810000
18.818100 1.861170 29.336500 -10.212000 4.900000
-7.001000 2.076710 34.130400 -11.544000 14.540000
19.047200 1.993260 29.693600 -10.212000 4.570000
8.680140 1.884150 34.199200 -11.632800 14.990000
19.279400 2.017570 30.055700 -10.212000 10.790000
9.065110 0.304175 34.595400 -11.632800 11.420000
18.806400 1.930100 30.866100 -10.389600 16.190000
9.174040 0.419777 35.011200 -11.632800 6.970000
19.030300 1.953080 31.233500 -10.389600 16.340000
9.282880 0.538040 35.426500 -11.632800 7.820000
19.254200 1.976060 31.601000 -10.389600 11.840000
9.115090 0.658963 35.912800 -11.632800 14.240000
19.480500 1.912200 31.972300 -10.389600 7.730000
19.431400 1.940930 35.486300 -10.656000 10.350000
7.353980 -2.910010 39.725000 -11.632800 10.480000
8.879020 -2.910010 39.412100 -11.632800 10.210000
19.638100 1.961580 35.863800 -10.656000 10.350000
8.837040 -2.844300 40.311200 -11.721600 6.430000
19.282900 1.357070 37.058600 -10.744800 10.380000
19.481700 1.371060 37.440700 -10.744800 7.100000
19.680500 1.385050 37.822700 -10.744800 11.460000
19.243800 2.085470 38.979400 -10.833600 6.320000
6.759900 1.682060 42.959800 -11.810400 10.230000
19.434400 2.106120 39.365300 -10.833600 12.970000
9.387310 3.157670 42.821400 -11.721600 6.550000
19.627700 1.989650 39.757000 -10.833600 6.960000
19.818300 2.008970 40.143000 -10.833600 9.750000
9.247870 2.147420 43.796400 -11.721600 4.990000
9.335360 2.307820 44.210700 -11.721600 10.400000
7.352090 2.188710 45.026600 -11.721600 12.450000
19.723100 2.271310 43.040800 -11.011200 6.240000
16.621400 1.135980 44.374600 -10.300800 17.880000
19.902400 2.291950 43.432000 -11.011200 6.600000
16.426800 1.146310 44.905900 -10.300800 19.160000
20.081700 2.312600 43.823300 -11.011200 16.010000
16.574800 1.156630 45.310500 -10.300800 6.700000
20.257800 2.483660 44.207800 -11.011200 6.900000
19.747200 2.505640 44.908800 -11.100000 5.250000
-6.698600 0.721606 48.658400 -11.810400 13.690000
19.926400 2.221460 45.316200 -11.100000 8.670000
20.099600 2.240770 45.710200 -11.100000 10.300000
20.272900 2.260090 46.104300 -11.100000 11.410000
19.987800 2.140290 47.172500 -11.100000 5.320000
20.155800 2.158270 47.568900 -11.100000 6.250000
20.323700 2.176260 47.965300 -11.100000 16.780000
20.496600 1.869320 48.373300 -11.100000 5.850000
19.905600 2.212230 49.070800 -11.188800 7.320000
20.067500 2.230220 49.469800 -11.188800 13.140000
20.231800 2.081750 49.874900 -11.188800 8.200000
-21.347800 -0.803895 50.382300 -10.833600 9.370000
-21.809100 -0.810225 50.653800 -10.744800 6.680000
-20.892600 -0.816555 51.503900 -10.833600 15.900000
-8.464320 2.392090 56.630700 -11.721600 11.990000
-8.527960 2.410070 57.056500 -11.721600 5.150000
20.389600 2.248290 54.434700 -11.277600 7.040000
-8.591600 2.428060 57.482300 -11.721600 7.790000
20.540600 2.264950 54.837900 -11.277600 9.360000
20.691600 2.281600 55.241100 -11.277600 7.300000
20.567600 1.759520 56.225500 -11.366400 7.690000
9.305270 -1.944670 59.135900 -11.810400 6.350000
20.715600 1.772180 56.630000 -11.366400 6.680000
8.912880 -1.958660 59.631800 -11.810400 9.900000
8.974570 -2.348220 60.044500 -11.810400 7.160000
-18.221300 -1.797490 58.384100 -11.188800 9.700000
10.666000 -2.364870 60.204600 -11.721600 13.790000
20.519900 1.822810 58.530000 -11.366400 5.920000
20.662400 1.835470 58.936500 -11.366400 11.630000
-3.781560 2.328990 65.346100 -11.810400 5.910000
-3.426160 2.344310 65.796900 -11.810400 5.770000
-15.180100 -0.568037 65.039100 -11.455200 6.850000
-15.656100 -0.571702 65.369300 -11.455200 5.140000
21.146700 2.210490 64.677000 -11.455200 8.750000
21.280500 2.224480 65.086400 -11.455200 9.780000
21.168900 2.038000 66.034800 -11.455200 7.390000
12.174700 1.457150 68.720500 -11.810400 6.630000
21.300400 2.050660 66.445000 -11.455200 6.410000
