VERSION .7
FIELDS x y z velocity SNR
SIZE 4 4 4 4 4
TYPE F F F F F
COUNT 1 1 1 1 1
WIDTH 191
HEIGHT 1
VIEWPOINT 0 0 0 1 0 0 0
POINTS 191
DATA ascii
0.072897052029964 3.13182964611194 -0.194767484096927 0 5.32650625418031
1.75784810220417 9.69520349890229 -1.94767484096926 -4.02258238958491 12.7580750445893
1.89726517635646 10.0134805509025 -1.84785650536959 -4.02258238958491 20.6571241223324
8.49860773832828 5.54023673860689 -2.08888126693954 -4.02258238958491 20.6571241223324
8.43870069593693 5.50118337747093 -2.41024761569947 -3.86786768229318 9.50168346089104
8.84593396968742 4.85849479359597 -2.32990602850948 -3.86786768229318 9.50168346089104
8.7835559191281 5.72599426836634 -1.98662833778865 -4.02258238958491 6.73415562153633
-8.77189925670302 6.07261669000189 -0.248328542223582 4.33201180416836 8.97454230786916
-8.7676738414592 6.0696915165154 -0.413880903705969 4.48672651146009 5.73006236747905
-9.02799356121104 6.2499058382535 -0.340843097169622 4.33201180416836 8.13591609327263
-9.02255497174707 6.24614080765037 -0.511264645754432 4.48672651146009 5.13362261908113
6.81635603007655 9.34009064769872 -1.08095953673794 2.78486473125109 5.23776837583027
-8.07652427524852 10.0008273294359 0.598910013598049 0.618858829166909 5.53306267784384
-7.58413931295411 10.392143302845 0.299455006799025 0.618858829166909 5.53306267784384
-8.07920222738235 10.0041433272555 0.499091677998374 0.773573536458636 6.4530199699854
-7.58596528941994 10.3946453414175 0.0998183355996745 0.773573536458636 6.4530199699854
-8.26652570019789 10.2360982675904 0.818023433207092 0.618858829166909 5.39474807912362
-7.86968495335755 10.5680218292571 0.409011716603546 0.618858829166909 5.39474807912362
-7.73161303951045 10.5942187179366 1.32928807896152 0.773573536458636 5.77764652169259
-8.30187124404358 10.4913214897636 1.77968788593566 0.154714707291727 5.87204284999464
-7.95529428754924 10.9007172522934 -0.209375045404195 0.154714707291727 5.87204284999464
-8.35886196610251 10.563342359454 0.837500181616785 0.309429414583454 5.02050794108453
-8.05996921238542 10.8235502544849 -0.209375045404195 0.464144121875182 8.55336283719448
-8.06093924806154 10.824852893442 -0 0.618858829166909 6.69627407873115
6.59452026467898 11.7738968185856 0.209375045404195 0.773573536458636 5.15513720104132
-8.2474103568595 11.0752607255194 -0.214244232506618 0.464144121875182 6.46216740921667
6.68295929807579 12.4431934023396 -0 0.464144121875182 6.91766470055762
7.01141849599789 12.2606286555413 -0.109556709804521 0.773573536458636 5.64011098933426
7.01162942748935 12.2609975042543 -0 0.928288243750363 10.7083882930264
7.27921573022003 12.4683777669069 -0.111991303355732 0.154714707291727 7.45984176184533
6.83126399297572 12.7193261631131 -0.111991303355732 0.464144121875182 10.3522616420653
6.62091981031406 12.5917844454858 -2.46380867382612 0.618858829166909 5.80411789839373
7.16550261146884 12.5300702988529 0.335973910067199 0.928288243750363 7.18847340532337
6.86472762879096 13.0554625422365 -0.228851793813888 0.464144121875182 5.42912584254839
6.73465739478373 13.0845632090308 -1.0298330721625 0.618858829166909 5.16374866383264
7.70692660904164 12.163885352278 3.20392511339444 0.618858829166909 5.16374866383264
-8.0378452753 15.6164877296553 0.681686194339243 -1.23771765833382 7.66519353491817
-12.9504790727546 11.8809545981385 0.272674477735696 1.39243236562554 9.29694523125332
-8.18137822664464 15.8953535819706 0.6938591620953 -1.23771765833382 6.7431634536224
-7.62418054890217 16.1634542194674 0.83263099451436 -1.23771765833382 6.7431634536224
5.43681976526052 16.6583761046648 3.60806764289556 -1.23771765833382 6.7431634536224
-13.1829274846627 12.0942060935291 0.13877183241906 1.39243236562554 8.25916590903015
4.98693863777488 17.1486562334117 3.53016064925679 -1.23771765833382 5.22636320514928
5.50350410557115 16.8626964369818 4.09498635313788 -1.23771765833382 5.22636320514928
6.50033801758779 16.6034535941853 3.67136707522706 -1.23771765833382 5.22636320514928
-8.44391546264747 16.4054292781543 1.58005121473632 -1.54714707291727 5.77363323799331
4.7754909764226 17.4667626262439 3.87830752708005 -1.54714707291727 5.77363323799331
5.89913591205145 17.1199680548355 3.87830752708005 -1.54714707291727 5.77363323799331
-15.893029921823 9.06051228631258 2.87282039042967 -1.39243236562554 10.7146186518266
-8.44928719314161 16.415865851698 1.43641019521483 -1.39243236562554 10.7146186518266
-7.89431232395535 16.7361403660362 0.718205097607416 -1.39243236562554 10.7146186518266
6.03959152900505 17.0709239606477 3.87830752708005 -1.39243236562554 10.7146186518266
6.56580163575564 16.7706636905551 4.3092305856445 -1.39243236562554 10.7146186518266
16.3039867205885 8.61064934127986 1.7236922342578 -1.39243236562554 10.7146186518266
17.0061576285723 7.08788044577018 1.86733325377928 -1.39243236562554 10.7146186518266
5.04764480962209 17.3574074027902 4.02194854660153 -1.23771765833382 7.23500756287969
6.05932151534238 17.1266908274782 3.59102548803708 -1.23771765833382 7.23500756287969
-8.60185213953573 16.7122796954256 1.16860490458156 -1.54714707291727 8.66810228951115
-8.03319190603198 17.0305685675349 0.292151226145389 -1.54714707291727 8.66810228951115
-8.60574775740988 16.7198483741756 1.02252929150886 -1.39243236562554 19.7304684962305
-8.03198322617092 17.0280061358775 0.438226839218086 -1.39243236562554 19.7304684962305
-9.04687452692698 16.4937467094405 0.876453678436169 -1.23771765833382 10.2176670324416
-8.0302907687322 17.024418083607 0.58430245229078 -1.23771765833382 10.2176670324416
5.48367255171858 17.7778483434662 2.9215122614539 -0.928288243750363 5.27743467666236
5.91797710092274 17.1746473428534 -4.96657084447162 -0.928288243750363 5.27743467666236
-8.75972958514822 17.0190150340335 0.44553061987172 -1.54714707291727 6.5482473211343
-8.16806136431485 17.3164952058899 -0 -1.54714707291727 6.5482473211343
-8.75788378080823 17.0154288763209 0.594040826495626 -1.39243236562554 13.9274633340008
-8.16412894821107 17.3081583850004 0.594040826495626 -1.39243236562554 13.9274633340008
6.51062025330245 17.9310169127705 1.63361227286297 -1.23771765833382 8.7621779830427
5.42992453222445 18.6719580768761 0.75472400087559 -1.23771765833382 10.8513141344593
6.02306178833886 18.454617387335 1.35850320157606 -1.23771765833382 10.8513141344593
6.45224289970581 18.2372843242019 2.11322720245165 -1.23771765833382 10.8513141344593
7.00851834022278 17.9014704636956 3.01889600350236 -1.23771765833382 10.8513141344593
7.55205937387173 17.5334508424281 3.77362000437795 -1.23771765833382 10.8513141344593
7.64590137712397 17.7513217660427 2.26417200262677 -1.08300295104209 6.282254647054
6.83207106435431 17.887582288871 3.47173040402771 -0.928288243750363 5.06929067409885
7.63866983314726 17.7345324487779 2.41511680280189 -0.928288243750363 5.06929067409885
-8.09566028166067 17.5507696957778 -2.26417200262677 1.39243236562554 20.9604500082373
-8.08800335274416 17.5341700619844 -2.41511680280189 1.54714707291727 28.7568808235656
8.69872583641485 17.2682507449143 4.1412436306109 -0.154714707291727 7.77808316217927
0 19.6570411569017 -2.14731151216861 1.39243236562554 111.742682403249
-0.152597625779811 19.6725992803714 -1.99393211844228 1.54714707291727 157.730270982757
-0.152597625779811 19.6725992803714 -1.99393211844228 1.701861780209 32.9236056928588
0 19.9325508863557 -2.49302379644066 1.39243236562554 281.455622593195
0 19.9325508863557 -2.49302379644066 1.54714707291727 423.764496850035
0 19.9514210720623 -2.33720980916312 1.701861780209 90.3889899168335
0 20.2235755506099 -2.6902258740888 1.39243236562554 136.366006062325
0 20.243996993955 -2.53197729326004 1.54714707291727 203.77263270509
0 20.243996993955 -2.53197729326004 1.701861780209 51.2206679971527
0 20.5554431015543 -2.57093079007943 1.39243236562554 12.6940727778404
0.635714409986176 20.4795289160822 -3.05298031321932 1.39243236562554 12.6940727778404
0 20.5554431015543 -2.57093079007943 1.54714707291727 19.9227825439375
0.635714409986176 20.4795289160822 -3.05298031321932 1.54714707291727 19.9227825439375
0.476213668965036 20.4592647413972 -3.21366348759929 1.701861780209 7.96479345877456
-8.9582430751569 18.9917002756459 1.14182437551823 -1.85657648750073 5.54576041353894
-13.780596800797 18.135497900766 -2.48815460933824 -0.773573536458636 5.37947771047753
-11.6945319438541 19.6232346722878 1.77725329238445 -0.773573536458636 5.37947771047753
-12.2333833534713 25.3677608545334 2.19113419609042 -2.16600590208418 16.9858855763151
-5.23191859816496 27.6132803044644 2.84847445491755 -2.16600590208418 16.9858855763151
6.75789485596308 27.2799757790672 2.84847445491755 -2.16600590208418 16.9858855763151
-11.9989197542244 25.438011191694 2.62936103530851 -2.01129119479245 14.8334035913814
-5.23191859816496 27.6132803044644 2.84847445491755 -2.01129119479245 14.8334035913814
-24.2483134327735 14.3247427450464 2.19113419609042 -1.701861780209 8.2950859341065
-23.374500336097 15.7102416621637 2.19113419609042 -1.701861780209 8.2950859341065
-12.483452013211 25.325388109454 0.87645367843617 -1.701861780209 8.2950859341065
25.5868652625173 11.8414386772499 1.75290735687234 -1.701861780209 8.2950859341065
6.81489171388628 27.5100582140219 3.54476821056406 -2.16600590208418 85.0001589034925
8.19110927419343 27.3402647112704 1.10774006580127 -2.16600590208418 85.0001589034925
6.81489171388628 27.5100582140219 3.54476821056406 -2.01129119479245 51.6323132627381
8.19110927419343 27.3402647112704 1.10774006580127 -2.01129119479245 51.6323132627381
-12.61455327182 25.5913554278206 1.32928807896152 -1.701861780209 33.7253644412604
8.0546366755866 27.6975927452549 1.34389564026879 -2.16600590208418 66.5081014607836
8.0546366755866 27.6975927452549 1.34389564026879 -2.01129119479245 43.1587903780987
-12.760862057949 25.8881745118864 0.895930426845863 -1.85657648750073 25.4518645822525
-12.760862057949 25.8881745118864 0.895930426845863 -1.701861780209 54.0495755975959
8.13531100654396 27.975008705012 1.81133760210142 -2.16600590208418 6.79514653305354
-12.9057804149726 26.1821728091461 -0 -1.85657648750073 7.37647218913683
-12.9022857824036 26.1750831895429 0.679251600788033 -1.701861780209 13.6604455949547
-12.4980525418814 31.1548261941811 1.04200603991856 1.85657648750073 8.3660543845015
25.6776882740401 21.4194917010808 3.12601811975567 2.01129119479245 19.5264832887681
-24.379385397275 23.4056247230674 -2.62936103530851 1.85657648750073 25.0825646100209
-24.4059330196319 23.431111981095 -2.10348882824681 2.01129119479245 63.3921171672002
-24.6192650598351 23.6359231194004 -2.38833627373856 1.85657648750073 17.1377633109627
-24.6192650598351 23.6359231194004 -2.38833627373856 2.01129119479245 39.7722438390581
14.7404853873965 36.7447055229833 4.63790071505806 -0.928288243750363 9.89899360026089
16.3630757500356 36.2840287409236 2.16435366702709 -0.928288243750363 9.89899360026089
15.0181816138614 36.5484757471644 5.2562874770658 -0.773573536458636 10.4443417334383
16.6461394916878 36.087551895455 3.09193381003871 -0.773573536458636 10.4443417334383
15.1517195425362 36.8734556863465 4.98604759288132 -0.928288243750363 6.14207265429422
16.7868560810476 36.3926146533161 2.80465177099574 -0.928288243750363 6.14207265429422
15.1517195425362 36.8734556863465 4.98604759288132 -0.773573536458636 10.7562299318358
16.7868560810476 36.3926146533161 2.80465177099574 -0.773573536458636 10.7562299318358
7.90705170879045 67.4979702130959 7.96112091246187 -2.93957943854282 23.1594409944303
11.1334923613634 67.4372414341402 3.18444836498475 -2.93957943854282 23.1594409944303
7.91404136610578 67.5576369129792 7.43037951829775 -2.78486473125109 10.9412997710538
11.1371839195894 67.4596017587605 2.65370697082062 -2.78486473125109 10.9412997710538
7.93580974126779 67.7434610598783 8.53081580344538 -3.09429414583454 5.25535759492073
11.1801790780588 67.720029914463 3.73223191400735 -3.09429414583454 5.25535759492073
7.93580974126779 67.7434610598783 8.53081580344538 -2.93957943854282 36.7910147719682
11.1751180761934 67.6893746632972 4.26540790172269 -2.93957943854282 36.7910147719682
7.93580974126779 67.7434610598783 8.53081580344538 -2.78486473125109 18.3273843110727
11.1751180761934 67.6893746632972 4.26540790172269 -2.78486473125109 18.3273843110727
7.96400439108832 67.9841426317009 9.10537988153131 -2.93957943854282 8.28623555679191
11.220381234728 67.9635404372605 4.82049523139893 -2.93957943854282 8.28623555679191
-21.7192567672425 66.5476443148514 6.54418746565673 -2.93957943854282 6.21061391083045
-16.8645730073488 68.0781741904181 4.90814059924255 -2.93957943854282 6.21061391083045
8.15322918623403 69.5994462943955 8.76453678436169 -3.09429414583454 10.0666151001871
-33.6299252751332 61.3121656207904 9.86010388240689 -2.93957943854282 25.6411988152103
7.62361782973493 69.7885558729412 7.66896968631648 -2.93957943854282 25.6411988152103
-33.6299252751332 61.3121656207904 9.86010388240689 -2.78486473125109 10.3073640718143
7.61688467360548 69.7269188322033 8.21675323533909 -2.78486473125109 10.3073640718143
9.82414755062403 69.6746239013283 6.02561903924866 -2.78486473125109 10.3073640718143
11.4687968938794 69.4682315295495 5.47783549022606 -2.78486473125109 10.3073640718143
7.65750057564486 70.0987272323765 7.70305399603344 -3.09429414583454 11.0717056119774
11.5197693245188 69.7769792252364 5.50218142573817 -3.09429414583454 11.0717056119774
7.65073749437706 70.0368162492354 8.25327213860726 -2.93957943854282 15.1589633475003
10.9775158400369 69.9054942129363 4.95196328316436 -2.93957943854282 15.1589633475003
7.64350137636874 69.9705749662637 8.80349028118107 -2.78486473125109 17.1059370872215
11.5044188188988 69.6839988988448 6.6026177108858 -2.78486473125109 17.1059370872215
8.20859466393036 70.0720696566819 9.94774925025051 -3.09429414583454 5.04184279046952
11.0197540525317 70.1744697409286 5.52652736125029 -3.09429414583454 5.04184279046952
0.072897052029964 3.13182964611194 -0.194767484096927 0 6.08692887080507
-7.20522945174132 3.65112142146732 -2.56362700942579 1.97261251796952 5.46396831562206
-8.13245925216231 8.70701813989143 -0.55508732967624 -1.0382171147208 6.10327804902745
-7.15930204305816 9.42176228284404 -3.1333219004093 -1.0382171147208 5.37655938961298
-13.2118507087374 9.94561537464287 1.80646841499899 -0.62293026883248 6.22062673356271
-13.0149455831961 10.8566439445066 0.131468051765425 -0.5191085573604 10.4265545574428
15.9524875884165 7.38270990173026 -3.33052397805744 -2.0764342294416 5.51104267490691
-7.83755106494052 17.7806655716236 -1.05661360122582 0.62293026883248 5.32143440299777
17.7967472871223 6.98911421647457 -3.62267520420283 0.62293026883248 5.32143440299777
-12.7059561688227 15.1017640145615 -1.22703514981064 0.5191085573604 33.5803174409856
-7.96972794245847 18.0805287349989 -0.766896968631648 0.5191085573604 33.5803174409856
0 19.6731911107849 -1.99393211844228 0.5191085573604 33.5803174409856
-12.7117104586148 15.108603320896 -1.07365575608431 0.62293026883248 49.7368384079228
-7.96708627693892 18.0745357187153 -0.920276362357977 0.62293026883248 49.7368384079228
0 19.6881329597796 -1.84055272471595 0.62293026883248 49.7368384079228
-7.96972794245847 18.0805287349989 -0.766896968631648 0.726751980304561 6.56793911677245
0 19.6731911107849 -1.99393211844228 0.726751980304561 6.56793911677245
0 19.9854639855592 -2.02558183460803 0.5191085573604 146.689527528163
0 19.9854639855592 -2.02558183460803 0.62293026883248 235.11020624986
0 19.9690576832018 -2.18139582188558 0.726751980304561 24.9284689373806
0 20.2631620263132 -2.37372871243129 0.5191085573604 145.56619546665
0 20.2631620263132 -2.37372871243129 0.62293026883248 236.686999063439
0 20.243996993955 -2.53197729326004 0.726751980304561 26.3370446055512
0 20.5347074821578 -2.73161396445939 0.5191085573604 21.7243336598026
0.158737889655011 20.4641905654603 -3.21366348759929 0.62293026883248 42.2456638390274
0.158537149299983 20.4383114959553 -3.37434666197925 0.726751980304561 5.83752160713076
0.161336611625279 20.7992129204997 -3.09923759069234 0.62293026883248 5.41421587144784
9.22005754300244 37.2191269345914 -4.49182510198537 -2.69936449827408 5.09566922283252
8.68711471220669 37.6295855672545 -4.83023360560377 -2.69936449827408 6.07913109639153
