VERSION .7
FIELDS x y z velocity intensity
SIZE 4 4 4 4 4
TYPE F F F F F
COUNT 1 1 1 1 1
WIDTH 798
HEIGHT 1
VIEWPOINT 0 0 0 1 0 0 0
POINTS 798
DATA ascii
-7.910960 1.042070 8.466860 -9.412800 4.930000
-8.203960 1.080670 8.780450 -9.412800 5.480000
-6.824330 1.402030 11.397200 -11.188800 2.260000
-7.271330 1.155300 11.145700 -10.833600 4.920000
-7.044470 1.447260 11.764900 -11.188800 5.850000
-7.594340 1.192570 11.447000 -10.833600 6.280000
-7.294560 0.758254 12.182500 -11.100000 6.200000
-7.831670 1.229830 11.804800 -10.833600 6.850000
-7.612130 0.781231 12.493400 -11.100000 4.510000
6.832410 1.304370 13.381600 -11.899200 6.080000
8.044650 0.081625 12.756500 -11.544000 13.380000
7.133500 1.341640 13.709400 -11.899200 5.150000
8.274500 0.083957 13.121000 -11.544000 16.910000
8.400160 0.086289 13.550600 -11.544000 15.830000
7.132130 0.481019 14.731500 -12.076800 9.690000
8.627000 0.139261 13.916500 -11.544000 9.520000
7.319810 0.493677 15.119100 -12.076800 10.040000
7.627450 0.453050 15.449800 -11.988000 7.870000
-0.677731 1.636810 17.577900 1.598400 13.880000
9.098220 4.604180 14.427200 -11.632800 6.020000
-0.555458 1.676740 18.011400 1.598400 17.740000
7.244540 -1.899530 16.475400 -12.254400 7.820000
-0.551747 -4.787270 17.891100 1.598400 17.300000
7.066550 -1.716660 17.042000 -12.343200 6.350000
-0.564579 -4.898600 18.307100 1.598400 13.340000
7.232940 -1.698190 17.443300 -12.343200 5.580000
-0.577410 -5.009930 18.723200 1.598400 8.000000
-0.890800 2.421290 20.087300 1.509600 6.190000
-0.636645 1.102910 20.644000 1.598400 5.260000
-0.649798 1.191090 21.070500 1.598400 5.760000
7.788030 2.195060 19.967900 -12.520800 4.880000
8.005710 0.812082 21.373100 -12.520800 8.320000
8.328300 0.413767 21.723200 -12.520800 10.010000
8.483570 0.201562 22.128100 -12.520800 10.880000
8.464090 0.130599 22.596900 -12.609600 8.990000
7.000340 0.132932 23.542200 -12.698400 6.080000
8.615230 0.132932 23.000400 -12.520800 5.930000
7.577430 -2.911220 23.637200 -12.698400 4.880000
-15.228800 1.718430 19.741900 -12.432000 7.500000
18.331100 1.591150 17.543500 -9.590400 8.280000
-15.491300 1.748060 20.082200 -12.432000 6.990000
18.641800 1.618120 17.840900 -9.590400 9.640000
-6.875170 1.697910 24.865200 -12.698400 6.750000
18.952400 1.645090 18.138200 -9.590400 6.560000
18.514800 1.216970 19.815800 -10.034400 7.090000
18.806000 1.321490 20.127400 -10.034400 6.140000
-6.086670 0.923367 27.765100 -12.876000 8.490000
15.950400 1.026590 24.042200 -10.478400 6.690000
-6.341710 0.937358 28.149600 -12.876000 10.370000
15.999900 1.041920 24.525100 -10.478400 6.330000
-6.269730 1.132470 28.600100 -12.876000 10.340000
-6.361930 1.149130 29.020700 -12.876000 6.190000
17.530400 1.390830 25.559500 -10.922400 4.990000
-10.856800 2.133230 28.984800 -12.787200 9.700000
18.607500 1.604490 25.311000 -11.011200 9.640000
-10.780800 2.162860 29.471300 -12.787200 7.120000
18.862400 1.626470 25.657800 -11.011200 13.990000
19.117300 1.648440 26.004500 -11.011200 13.710000
-10.392100 2.251740 30.974000 -13.142400 6.200000
-10.533200 2.076580 31.394400 -13.142400 12.680000
-14.159500 1.714380 30.433800 -13.053600 14.790000
19.229000 1.736360 28.036200 -11.188800 5.590000
-14.571300 2.025440 30.698100 -13.053600 12.470000
19.253000 1.758340 28.540300 -11.277600 9.010000
-14.752900 2.157490 31.080800 -13.053600 5.140000
19.043600 1.861170 29.190600 -11.366400 8.370000
19.050400 1.884150 29.698700 -11.366400 8.130000
19.282700 1.907120 30.060800 -11.366400 8.750000
-10.442700 1.907120 34.153000 -12.609600 4.950000
-10.568500 1.930100 34.564500 -12.609600 7.200000
-21.638400 -2.631390 29.433900 -10.478400 8.500000
-9.950620 1.953080 35.194800 -12.698400 10.810000
-21.614300 -2.433670 30.002500 -10.567200 9.500000
-10.071900 1.661260 35.623700 -12.698400 10.850000
-21.631100 -2.461970 30.519000 -10.567200 8.690000
19.206500 1.817040 32.644700 -11.721600 8.100000
-21.443500 -0.681950 31.787400 -10.833600 11.280000
19.424700 1.837690 33.015600 -11.721600 13.440000
-21.684400 -0.689612 32.144600 -10.833600 10.390000
9.018320 -2.187720 37.654300 -13.053600 10.550000
9.927790 -1.878990 37.887700 -12.964800 15.430000
10.038300 -1.777170 38.309600 -12.964800 9.000000
9.318940 -2.260650 38.909500 -12.964800 9.260000
9.618550 -2.260650 38.836500 -12.787200 10.710000
-20.536400 -0.720262 34.905000 -11.366400 7.900000
-4.975810 2.066050 40.144700 -13.142400 6.280000
-20.482300 -0.727924 35.435300 -11.366400 5.300000
-5.028740 2.088030 40.571800 -13.142400 6.880000
10.170200 1.470940 40.069700 -12.964800 5.890000
-19.811800 -3.099510 36.181000 -11.455200 6.490000
10.041900 1.486260 40.545800 -12.964800 6.430000
-22.214000 -2.382190 35.834100 -11.100000 9.400000
-22.440600 -2.406500 36.199800 -11.188800 8.150000
20.085500 1.105000 41.486700 -12.165600 12.120000
-16.897500 1.798640 43.323800 -12.165600 6.330000
-17.054000 1.815290 43.724900 -12.165600 10.920000
11.037600 -0.989424 46.085300 -12.964800 7.240000
-17.206000 2.124870 44.114700 -12.165600 12.040000
11.137900 -0.998419 46.504300 -12.964800 9.220000
11.335100 -1.580920 47.327600 -12.964800 9.570000
11.434200 -1.746740 47.741400 -12.964800 6.490000
-14.794000 -5.707280 47.402600 -12.520800 6.430000
-16.587500 -5.291540 47.313400 -12.343200 8.640000
-16.453100 -5.336760 47.813700 -12.343200 7.500000
-19.628300 1.823350 47.336500 -12.165600 10.060000
-20.435300 1.838680 47.463000 -12.076800 8.760000
-17.249800 0.000000 49.202700 -12.343200 8.690000
-16.954400 1.854000 49.270400 -11.988000 8.250000
-17.392400 0.000000 49.609400 -12.432000 9.970000
-18.065600 0.000000 50.284900 -12.343200 7.300000
-18.211300 0.000000 50.690400 -12.343200 5.340000
-18.357000 0.000000 51.095900 -12.343200 6.800000
-28.717500 1.034420 50.578200 -11.366400 6.820000
-29.320300 1.223290 50.725400 -11.366400 8.160000
-16.377800 0.135931 56.267100 -12.609600 9.460000
-29.532100 1.551700 51.091800 -11.366400 9.060000
-16.060900 0.136930 56.806300 -12.609600 13.540000
-29.747700 1.563020 51.464800 -11.366400 8.420000
-16.178100 0.137930 57.221000 -12.609600 8.910000
-29.960700 1.759520 51.833200 -11.366400 16.580000
-17.071200 0.138929 57.410600 -12.520800 4.600000
12.208500 -0.140928 59.517500 -13.142400 12.330000
11.294700 0.335827 61.012000 -13.142400 7.770000
12.080200 1.304240 61.287700 -13.142400 7.310000
12.163500 1.313240 61.710400 -13.142400 6.170000
21.225700 -2.481450 60.543200 -12.698400 6.680000
21.015400 -2.498100 61.072000 -12.698400 7.020000
21.309300 -0.962142 61.925900 -12.698400 7.670000
21.448400 -1.172340 62.330200 -12.787200 9.150000
20.620800 -0.769591 63.068600 -12.787200 9.360000
22.455900 -5.311220 64.052400 -12.609600 5.650000
21.754400 -4.076510 64.839600 -12.609600 7.760000
22.769300 -4.102150 64.946200 -12.698400 7.340000
21.434300 -0.889527 73.639000 -12.876000 7.370000
21.554700 -0.894524 74.052700 -12.876000 5.480000
21.675100 -0.899522 74.466400 -12.876000 6.190000
-13.679500 0.000000 83.777800 -13.053600 6.640000
34.689300 0.199898 78.889800 -12.343200 7.240000
34.861600 0.736616 79.281600 -12.343200 5.810000
35.648100 0.740281 79.403600 -12.343200 5.560000
-17.450000 6.780180 88.531300 -12.964800 6.050000
-17.533100 6.812470 88.952800 -12.964800 8.330000
-17.616200 6.844760 89.374400 -12.964800 9.090000
-18.390900 6.877040 89.656900 -12.876000 5.120000
18.419200 -0.641337 117.055000 -13.231200 5.630000
18.486100 -0.643669 117.481000 -13.231200 6.210000
18.552700 -1.015140 117.904000 -13.142400 7.520000
18.619700 -1.018800 118.330000 -13.142400 5.470000
-10.151800 1.529190 131.455000 -13.231200 12.800000
-10.185300 1.125080 131.889000 -13.231200 13.590000
-8.569840 1.147070 134.594000 -13.231200 10.790000
-8.597220 1.150730 135.024000 -13.231200 5.070000
-8.624600 1.154400 135.454000 -13.231200 6.500000
-8.651980 1.158060 135.884000 -13.231200 6.450000
-8.788610 1.604150 138.030000 -13.231200 7.920000
-8.816260 1.180050 138.464000 -13.231200 10.280000
-8.843640 1.183720 138.894000 -13.231200 9.400000
-8.870740 1.619140 139.320000 -13.231200 5.770000
17.654800 3.264170 182.683000 -13.231200 7.780000
17.696200 3.271830 183.112000 -13.231200 11.860000
7.684540 1.175900 8.067300 -9.590400 2.210000
-6.669610 0.676095 13.509700 -11.455200 6.290000
-7.436760 0.769274 13.097900 -11.100000 7.520000
-7.545180 0.791253 13.530700 -11.188800 5.800000
8.189520 0.234206 13.677200 -11.277600 11.660000
8.410860 0.240535 14.046800 -11.277600 16.750000
8.520830 0.246865 14.482600 -11.277600 17.360000
9.266410 -1.207340 13.967400 -10.833600 7.470000
8.738350 0.359791 14.852300 -11.277600 13.700000
7.107580 -0.573607 16.163900 -11.899200 9.080000
7.280940 -0.587597 16.558200 -11.899200 6.890000
7.584730 -0.601588 16.894500 -11.899200 5.300000
9.395750 -0.042978 15.969700 -11.277600 7.460000
7.764380 -0.278515 17.294600 -11.899200 5.460000
9.739920 -0.043978 16.266500 -11.277600 8.130000
8.076930 -0.284845 17.625900 -11.899200 7.220000
8.854250 1.424050 17.676600 -11.721600 5.090000
9.183580 1.517470 17.986500 -11.810400 8.270000
8.512180 -2.627360 20.089300 -11.988000 10.440000
8.083520 -2.678880 20.725500 -12.165600 7.910000
6.052390 -2.678880 21.406900 -12.343200 4.950000
8.273210 1.781610 21.211800 -12.165600 5.780000
8.595620 1.815230 21.546400 -12.165600 6.860000
9.214540 1.882460 22.222200 -12.076800 8.490000
8.279050 1.916070 23.044400 -12.254400 8.500000
18.304400 1.378640 18.206500 -9.412800 6.780000
8.426290 1.872620 23.454200 -12.254400 9.630000
18.609500 1.401620 18.510000 -9.412800 6.960000
18.914500 1.424600 18.813400 -9.412800 9.940000
19.034600 1.447580 19.301100 -9.501600 12.640000
19.025600 1.516510 21.083800 -9.856800 13.470000
19.313800 1.539480 21.403300 -9.856800 12.580000
9.097350 1.666500 26.437400 -12.343200 9.320000
18.660800 1.652950 22.530100 -10.212000 6.410000
18.935200 1.677250 22.861400 -10.212000 6.790000
19.212900 1.608420 23.196700 -10.212000 5.580000
-5.526000 8.213530 28.035700 -12.609600 8.420000
-7.906450 1.952600 28.595000 -12.432000 6.090000
18.740800 1.390830 24.685800 -10.478400 10.710000
-6.447520 1.794690 29.411100 -12.520800 11.600000
19.001100 1.410140 25.028600 -10.478400 8.970000
-6.309510 1.820330 29.880800 -12.520800 14.500000
19.261400 1.429460 25.371500 -10.478400 6.740000
-10.392100 1.677350 29.642100 -12.254400 7.690000
-11.570100 1.700330 29.664700 -11.988000 5.160000
18.871500 1.448780 26.195200 -10.744800 6.890000
-10.541600 1.232400 30.068400 -12.254400 7.050000
19.123100 1.468090 26.544500 -10.744800 10.880000
-10.682700 1.348920 30.471000 -12.254400 10.610000
19.166900 1.487410 27.042300 -10.744800 13.730000
-5.701620 2.049610 32.183000 -12.609600 9.920000
19.413000 1.610560 27.389600 -10.744800 12.170000
-5.584570 2.383730 32.619000 -12.609600 6.280000
-5.657090 2.414690 33.042600 -12.609600 5.940000
19.018000 1.526040 28.191900 -11.011200 8.630000
-5.472710 2.340630 33.516700 -12.698400 8.670000
19.258700 1.545360 28.548800 -11.011200 7.210000
-5.083700 2.370250 34.012600 -12.698400 6.800000
-10.219800 2.066180 35.111100 -12.254400 6.160000
-9.864390 1.775750 35.676200 -12.254400 8.850000
-9.979090 1.796400 36.091000 -12.254400 10.020000
-10.092200 1.934170 36.500300 -12.254400 12.140000
-9.207530 1.956150 37.176900 -12.432000 7.980000
19.390500 1.618700 33.546300 -11.366400 12.460000
19.343900 1.636690 34.069200 -11.366400 9.690000
9.415880 -1.878990 38.018200 -12.609600 6.070000
19.553900 1.777170 34.438900 -11.366400 7.270000
10.036900 -1.899640 38.304100 -12.520800 9.960000
19.766400 1.796480 34.813300 -11.366400 8.700000
7.511550 -2.136900 39.305400 -12.609600 6.900000
19.434200 1.815800 35.491400 -11.455200 5.710000
11.023300 -0.479745 39.867700 -12.520800 9.510000
22.849000 -1.834530 37.500900 -11.188800 8.100000
22.800000 0.240210 38.077900 -11.277600 6.210000
19.766500 0.962440 41.643100 -11.810400 4.890000
19.951200 0.971435 42.032300 -11.810400 8.390000
20.134600 1.125650 42.418600 -11.810400 5.890000
20.318100 1.245890 42.805200 -11.810400 6.190000
-18.939100 1.370480 48.558200 -11.899200 13.210000
11.442700 2.780260 50.791700 -12.698400 7.780000
-19.096700 1.259900 48.962400 -11.899200 5.630000
11.537300 2.803240 51.211500 -12.698400 7.370000
-19.634500 1.106360 49.217200 -11.899200 8.650000
-16.994000 0.784905 50.651000 -12.076800 9.070000
-17.130200 0.957795 51.056900 -12.076800 10.070000
12.081100 1.832740 55.109500 -12.698400 6.310000
-16.702600 -0.317170 56.170900 -12.343200 14.370000
-28.948400 1.746860 51.912700 -11.100000 10.250000
-16.497700 0.502072 56.679000 -12.343200 9.950000
-29.162400 1.435460 52.296400 -11.100000 6.340000
20.857500 0.505736 55.683900 -12.165600 9.740000
-29.372200 1.445790 52.672700 -11.100000 6.000000
21.009300 0.138929 56.089300 -12.165600 7.220000
-29.584000 1.268260 53.052600 -11.100000 7.070000
21.160500 0.139929 56.492800 -12.165600 4.960000
21.308300 1.080390 56.887500 -12.165600 7.440000
-14.186900 -3.296890 62.972600 -12.520800 12.340000
-14.774000 -2.916870 63.299200 -12.432000 12.860000
19.894500 -2.420920 65.065600 -12.432000 5.570000
-17.695100 7.160070 89.774700 -12.520800 5.880000
-17.782400 6.909330 90.217600 -12.520800 6.210000
-17.869600 6.655870 90.659800 -12.520800 10.660000
17.632800 0.217889 92.266200 -12.698400 5.550000
17.407900 2.292610 94.034600 -12.698400 6.830000
-16.615700 6.480360 97.051000 -12.609600 6.680000
-16.684800 6.814480 97.454500 -12.609600 5.420000
-16.749900 7.458200 97.834600 -12.609600 8.860000
27.984600 0.967496 110.257000 -12.609600 7.460000
28.089800 1.324300 110.672000 -12.609600 8.760000
-62.167000 -12.581000 115.106000 -11.100000 5.380000
-63.037300 -12.622200 115.121000 -11.011200 9.500000
-63.261800 -12.256100 115.531000 -11.011200 10.490000
-9.730040 0.316838 136.248000 -12.787200 7.340000
-9.760740 0.317838 136.678000 -12.787200 6.350000
-8.871020 1.187380 139.324000 -12.787200 4.370000
-8.898120 1.624140 139.750000 -12.787200 7.280000
-8.925500 1.629130 140.180000 -12.787200 7.580000
-8.952880 1.634130 140.610000 -12.787200 7.800000
19.195300 3.858750 183.816000 -12.876000 8.030000
19.240100 3.867750 184.245000 -12.876000 7.810000
7.021350 1.085440 7.514730 -9.679200 3.560000
7.253350 1.130670 7.883980 -9.768000 4.480000
7.317160 1.210350 8.397050 -9.945600 3.530000
7.323630 1.340540 9.494020 -10.478400 3.860000
7.516650 1.273140 9.901090 -10.478400 4.260000
8.190110 0.135596 13.678200 -11.277600 14.430000
8.302940 0.139261 14.112300 -11.366400 18.120000
8.521440 0.142925 14.483600 -11.366400 17.150000
9.065290 -1.025540 14.623600 -11.100000 9.860000
8.007830 -1.419080 15.683800 -11.721600 9.000000
8.084320 -1.300220 16.139500 -11.721600 7.550000
8.072770 -0.329481 16.674400 -11.810400 8.030000
6.229960 -2.208510 17.770100 -12.165600 6.650000
8.260510 -0.337144 17.062100 -11.810400 7.490000
6.266390 -2.258710 18.210500 -12.254400 7.750000
9.061230 1.333270 17.091200 -11.632800 7.010000
10.053600 -1.294490 18.029000 -11.721600 10.160000
8.482250 -1.321460 19.290200 -11.988000 7.550000
8.206730 -2.509230 20.231000 -12.076800 5.670000
8.367650 -2.558440 20.627700 -12.076800 8.280000
8.267400 1.975190 21.196900 -12.165600 6.640000
9.041520 2.084140 21.338600 -12.076800 7.140000
9.224590 1.510240 22.246400 -12.076800 10.620000
18.128200 1.378640 18.382000 -9.412800 8.480000
5.433310 1.591150 24.784700 -12.609600 6.740000
8.585860 1.218250 23.898400 -12.343200 6.300000
18.430300 1.401620 18.688400 -9.412800 8.370000
18.729200 1.507100 18.991500 -9.501600 8.590000
19.036900 1.384690 19.303500 -9.412800 9.610000
18.647400 1.406670 20.268700 -9.856800 8.210000
18.538600 1.428650 20.946500 -9.945600 5.890000
18.823800 1.450630 21.268700 -9.945600 7.230000
-6.755490 0.781512 28.943900 -12.520800 7.970000
-6.455560 0.979329 29.447800 -12.609600 8.690000
18.729800 1.750180 24.671300 -10.567200 4.900000
-6.317380 0.993319 29.918100 -12.609600 7.170000
18.989900 1.774490 25.013900 -10.567200 10.720000
19.250000 1.798790 25.356600 -10.567200 11.920000
-10.770300 1.429460 29.978600 -12.254400 7.690000
19.120300 1.569270 26.540700 -10.744800 13.930000
-10.682700 1.348920 30.471000 -12.254400 7.590000
19.164100 1.589910 27.038400 -10.744800 11.670000
-10.823700 1.468090 30.873100 -12.254400 5.280000
19.201300 1.610560 27.538400 -10.833600 6.950000
19.450300 1.526040 27.895400 -10.833600 8.580000
19.022900 1.315670 28.199200 -11.011200 5.510000
19.261300 1.438850 28.552600 -11.011200 5.430000
-4.866030 2.459140 35.346700 -12.698400 10.670000
-10.348800 1.432250 35.554200 -12.254400 8.030000
-9.710990 1.719210 37.060400 -12.432000 6.950000
-9.820100 1.738530 37.476800 -12.432000 8.770000
19.128800 1.738530 33.690300 -11.455200 10.500000
10.143900 -2.090940 37.819400 -12.609600 12.750000
19.343900 1.636690 34.069200 -11.455200 7.670000
8.700220 -2.113920 38.618500 -12.698400 8.200000
19.556500 1.654680 34.443500 -11.455200 13.450000
19.502500 1.548830 34.973600 -11.544000 15.950000
19.441400 1.440300 35.504600 -11.544000 8.250000
19.648300 1.455620 35.882300 -11.544000 11.390000
19.857200 1.343080 36.263900 -11.544000 12.660000
-19.348900 -2.205830 36.495700 -11.277600 11.870000
-21.585400 -2.801550 36.688100 -11.011200 12.520000
23.030100 -0.626658 35.902900 -11.100000 8.760000
23.262800 -0.632988 36.265600 -11.100000 6.680000
22.286200 0.509729 37.879100 -11.277600 5.390000
19.640700 1.166600 39.783200 -11.810400 8.830000
19.831400 1.177930 40.169500 -11.810400 6.710000
-19.209800 -1.177930 40.470400 -11.544000 5.360000
-21.521800 0.519724 39.303900 -11.188800 8.170000
22.935200 -1.189260 38.982400 -11.366400 9.040000
-4.740390 1.765330 45.394400 -12.787200 8.530000
-17.195900 -2.673880 44.088700 -11.899200 5.920000
10.899700 13.451100 45.509800 -12.698400 7.620000
-15.883900 -4.118790 48.580700 -12.165600 6.460000
-19.099200 0.934808 48.968700 -11.899200 7.350000
-19.254600 1.106360 49.367100 -11.899200 9.290000
-17.673700 1.115350 50.411600 -11.988000 9.410000
11.984800 2.338130 54.669900 -12.698400 11.720000
12.077000 2.356110 55.090500 -12.698400 5.850000
11.740900 2.374100 55.603200 -12.698400 7.660000
-28.742800 1.414810 51.544000 -11.100000 6.680000
-16.825600 0.000000 56.584700 -12.343200 6.230000
-28.950900 1.563020 51.917200 -11.100000 7.090000
-16.618600 0.137930 57.094600 -12.343200 5.450000
-29.160700 1.574350 52.293400 -11.100000 6.530000
-17.071200 0.138929 57.410600 -12.343200 7.860000
-29.372200 1.445790 52.672700 -11.100000 5.460000
21.160500 0.139929 56.492800 -12.343200 5.600000
-29.582000 1.456120 53.048900 -11.100000 10.560000
21.311400 0.328831 56.895700 -12.343200 12.330000
35.035800 0.471091 79.677800 -12.076800 6.990000
35.209300 0.473423 80.072200 -12.076800 5.010000
35.382700 0.475755 80.466600 -12.076800 7.470000
-17.183900 6.593950 89.917300 -12.520800 8.000000
17.832500 -0.213891 90.471700 -12.787200 7.370000
-17.786500 6.624910 90.238100 -12.520800 6.660000
17.915800 -0.214890 90.894400 -12.787200 6.010000
-17.869600 6.655870 90.659800 -12.520800 6.040000
17.999200 0.215890 91.317200 -12.787200 7.060000
18.082500 0.216889 91.739900 -12.787200 7.070000
18.165800 0.217889 92.162700 -12.787200 9.740000
17.956300 0.221887 93.959100 -12.787200 8.260000
18.037000 0.520066 94.381200 -12.787200 8.790000
18.117800 0.522398 94.804500 -12.787200 9.450000
-17.247900 6.814480 97.356400 -12.609600 8.480000
-17.315100 7.458200 97.736100 -12.609600 8.990000
16.179300 -0.232881 99.087200 -12.787200 4.540000
-62.555700 -13.070600 115.826000 -11.100000 6.210000
-62.759500 -13.113200 116.203000 -11.011200 6.670000
-9.637640 1.150730 134.954000 -12.876000 6.560000
-9.699230 0.736954 135.817000 -12.876000 5.630000
-8.040610 1.183720 138.943000 -12.876000 5.660000
-8.065260 1.619140 139.369000 -12.876000 11.120000
-8.090150 1.624140 139.799000 -12.876000 11.840000
-8.115040 1.629130 140.229000 -12.876000 8.620000
-51.007100 -16.463500 130.778000 -11.810400 5.650000
-51.162600 -16.513700 131.177000 -11.810400 4.910000
19.151700 3.279490 183.399000 -12.876000 14.830000
17.779100 3.287150 183.970000 -12.876000 10.730000
-7.184520 1.436300 10.650200 -10.656000 2.900000
-7.279350 5.164010 12.157100 -11.277600 7.830000
-7.749200 0.922984 13.406400 -11.100000 8.460000
6.921330 1.341640 13.817700 -11.632800 7.010000
8.237380 -3.964260 13.062100 -11.366400 6.470000
-7.964450 0.948623 13.778800 -11.011200 5.800000
7.031380 1.378910 14.242400 -11.721600 9.260000
8.084450 0.135596 13.740900 -11.366400 14.790000
8.302940 0.139261 14.112300 -11.366400 17.280000
9.102910 -4.178550 13.494000 -11.100000 7.720000
8.521630 0.090953 14.484000 -11.366400 15.170000
5.293140 -2.641530 16.189000 -12.343200 7.160000
7.626790 -0.506336 15.448500 -11.899200 8.820000
8.625380 0.093285 14.922300 -11.455200 8.340000
7.108260 -0.518994 16.165500 -11.988000 10.230000
8.438800 4.337140 15.411200 -11.632800 9.520000
7.757150 -0.531653 16.342400 -11.899200 11.030000
7.941080 -0.601588 16.729900 -11.988000 9.950000
7.453800 -2.048280 17.312200 -12.076800 8.380000
7.759440 -2.094830 17.646400 -12.076800 7.280000
8.812000 0.689503 17.258800 -11.810400 7.890000
9.010410 0.521008 17.647400 -11.810400 10.480000
8.158150 1.485960 18.948100 -12.076800 8.970000
8.326220 1.582040 19.338500 -12.076800 6.670000
8.498080 1.547880 19.737600 -12.076800 5.850000
5.959670 1.402370 21.554100 -12.432000 5.270000
5.904780 1.429340 22.014800 -12.520800 8.080000
8.731190 1.384480 21.523900 -12.165600 11.050000
8.894470 1.336940 21.926400 -12.165600 11.420000
6.861350 1.659180 23.074800 -12.520800 5.900000
9.056190 1.361250 22.325100 -12.165600 8.950000
8.123870 1.120390 23.608400 -12.432000 6.980000
18.128200 1.378640 18.382000 -9.590400 6.840000
18.430300 1.401620 18.688400 -9.590400 11.740000
18.732400 1.424600 18.994800 -9.590400 11.930000
19.034600 1.447580 19.301100 -9.590400 7.430000
18.449000 1.470550 20.444900 -9.945600 9.320000
18.734100 1.580020 20.760800 -9.945600 12.620000
19.022300 1.604330 21.080200 -9.945600 11.400000
19.307100 1.717780 21.395800 -9.945600 5.970000
-6.605370 2.130910 27.579500 -12.520800 11.410000
-6.527890 1.332870 28.976000 -12.609600 7.030000
-6.622500 1.352190 29.395900 -12.609600 7.890000
18.927800 1.486670 24.537100 -10.656000 8.640000
18.927800 1.486670 24.537100 -10.567200 5.330000
-6.717110 1.371510 29.815900 -12.609600 7.020000
18.998300 1.507320 25.025000 -10.656000 7.020000
-10.369900 1.035290 30.135500 -12.432000 8.350000
18.915200 1.569270 26.687300 -10.833600 5.330000
-10.510000 1.049280 30.542700 -12.432000 6.720000
18.955100 1.589910 27.185300 -10.922400 5.110000
19.201300 1.610560 27.538400 -10.922400 9.700000
18.797400 1.631210 28.333600 -11.100000 11.420000
19.035400 1.651860 28.692200 -11.100000 8.370000
-10.375200 1.920330 32.364600 -12.609600 10.770000
19.273300 1.672510 29.050900 -11.100000 5.630000
9.371630 1.332320 33.146900 -12.609600 10.320000
19.511300 1.693160 29.409500 -11.100000 10.530000
9.493140 0.836494 33.576700 -12.609600 8.150000
-5.019620 0.846821 34.965200 -12.787200 10.750000
-10.183000 2.114800 36.016800 -12.432000 6.550000
-5.385050 1.348360 37.510700 -12.787200 10.980000
-5.226860 1.363680 37.967800 -12.787200 11.280000
18.918800 1.600720 33.320400 -11.544000 6.900000
19.131300 1.618700 33.694800 -11.544000 9.960000
19.343900 1.636690 34.069200 -11.544000 9.710000
8.996080 -2.236340 38.543800 -12.698400 7.900000
-10.040900 1.532170 38.319500 -12.520800 6.880000
19.556500 1.654680 34.443500 -11.544000 14.190000
8.046440 -1.548830 39.227000 -12.787200 5.210000
8.132960 -1.565480 39.648800 -12.787200 9.440000
10.790700 -1.064670 39.026300 -12.609600 15.350000
-20.039000 -2.486930 36.596000 -11.188800 8.090000
-18.994700 -1.486260 37.202200 -11.366400 7.070000
-21.095000 -2.512570 36.495300 -11.100000 7.440000
-19.190600 -1.501590 37.585700 -11.366400 6.410000
-19.386400 -1.516910 37.969300 -11.366400 4.660000
23.262800 -0.632988 36.265600 -11.188800 7.110000
19.676200 1.648750 37.814400 -11.721600 6.110000
25.140900 -1.951020 35.471100 -10.833600 8.650000
-22.622000 -1.951020 37.128300 -10.922400 7.640000
24.012400 -0.645648 36.806900 -11.100000 7.490000
24.529200 1.063690 36.973100 -11.188800 8.680000
-17.962300 -2.458580 42.392200 -11.810400 8.020000
-18.135200 -2.230010 42.800200 -11.810400 7.350000
-17.969600 -2.250660 43.336200 -11.810400 7.430000
-17.545500 -2.124870 43.980800 -11.899200 6.200000
10.567800 14.461000 45.277800 -12.787200 9.720000
10.147700 -0.721606 48.057600 -12.787200 6.250000
-13.555100 -4.014960 47.943500 -12.343200 8.830000
-14.318300 -4.243810 48.152700 -12.254400 5.920000
-14.807600 -4.554230 48.428600 -12.254400 8.380000
-28.756800 1.574350 52.516600 -11.188800 12.930000
-16.176400 0.873524 57.215000 -12.343200 6.470000
-28.963600 1.585680 52.894400 -11.188800 10.760000
20.574200 0.879853 56.243700 -12.343200 7.280000
-29.170500 1.597000 53.272200 -11.188800 7.750000
21.158200 0.886183 56.486900 -12.343200 7.540000
21.309400 0.892513 56.890400 -12.343200 5.930000
-17.699300 6.877040 89.796000 -12.609600 10.900000
-17.782400 6.909330 90.217600 -12.609600 9.870000
-17.865500 6.941620 90.639200 -12.609600 5.390000
-17.952700 6.686830 91.081500 -12.609600 9.260000
-16.532400 7.361340 96.564000 -12.698400 8.260000
-16.604900 7.393630 96.987500 -12.698400 10.940000
-16.681200 7.120230 97.433300 -12.698400 13.090000
-17.319100 7.151190 97.758400 -12.698400 7.560000
-8.624330 1.574160 135.450000 -12.876000 5.090000
-8.651710 1.579160 135.880000 -12.876000 10.130000
-8.679090 1.584160 136.310000 -12.876000 7.590000
-8.706930 0.741619 136.747000 -12.876000 6.090000
-8.065510 1.187380 139.373000 -12.876000 13.100000
-8.090400 1.191050 139.804000 -12.876000 14.530000
-8.115290 1.194710 140.234000 -12.876000 11.530000
-8.953160 1.198380 140.614000 -12.964800 6.160000
-51.974800 -17.331400 130.284000 -11.810400 5.750000
19.197400 2.715520 183.837000 -12.964800 5.280000
19.243000 2.148860 184.273000 -12.964800 8.790000
7.340580 1.545510 10.527800 -11.011200 3.320000
-7.985850 0.579510 10.148800 -10.034400 4.860000
7.668890 1.597020 10.819900 -10.922400 4.150000
-7.982090 0.753549 10.684200 -10.212000 4.710000
-8.252040 0.598827 10.487100 -10.034400 5.220000
-7.030140 1.690870 11.740900 -11.100000 4.650000
-8.233190 0.948101 11.020300 -10.212000 3.390000
-7.102090 0.889964 12.286900 -11.100000 4.980000
-7.414650 0.916933 12.602500 -11.100000 4.620000
-6.697870 2.021170 12.872200 -11.455200 4.170000
-7.729350 1.036990 12.908700 -11.100000 5.440000
-6.996790 2.080610 13.197300 -11.455200 5.970000
-8.052280 1.066610 13.215800 -11.011200 4.150000
-7.118420 1.675870 13.680400 -11.455200 5.160000
-7.535490 1.114470 13.513300 -11.188800 3.950000
-8.484340 1.096240 13.453700 -10.922400 2.770000
8.105880 -5.366340 12.636700 -11.455200 8.430000
8.395880 -5.366340 12.445900 -11.277600 6.690000
8.302940 0.139261 14.112300 -11.544000 15.860000
8.605020 1.176390 13.881100 -11.188800 8.260000
8.409740 0.090953 14.549200 -11.544000 17.140000
8.625500 0.000000 14.922500 -11.544000 13.860000
8.117370 1.691210 15.600200 -11.810400 8.440000
8.315360 1.732460 15.980700 -11.810400 9.840000
8.202220 -0.100282 16.614000 -11.899200 8.690000
9.513040 4.161720 15.345800 -11.455200 5.440000
7.170240 4.657440 16.922200 -12.165600 4.670000
8.261690 -0.102614 17.064600 -11.899200 6.300000
9.727290 4.315620 15.691500 -11.455200 5.560000
6.129650 -2.154440 18.269600 -12.432000 6.380000
8.553380 1.632230 17.325300 -11.988000 6.830000
-8.174390 0.689503 17.569700 -11.810400 4.700000
6.265870 -2.202320 18.675600 -12.432000 7.170000
-7.498640 0.782740 18.796600 -11.988000 9.250000
8.055040 -1.230650 19.010400 -12.165600 9.640000
9.145590 0.991115 18.524900 -11.899200 7.570000
8.191950 2.216110 19.333500 -12.165600 8.820000
9.324730 1.451780 18.887700 -11.810400 3.980000
9.353250 1.863390 19.319200 -12.165600 5.120000
6.964030 1.900650 20.756400 -12.254400 3.650000
6.355120 2.213920 21.372300 -12.432000 4.720000
8.985460 1.937920 20.434500 -12.076800 6.480000
6.645030 2.256490 21.732700 -12.432000 3.870000
8.613230 1.043120 21.590600 -12.343200 6.560000
8.770130 1.208860 21.983900 -12.343200 8.400000
8.583400 -0.598971 23.464400 -12.432000 9.290000
6.004880 1.937200 25.072300 -12.609600 6.350000
18.432500 1.340730 18.690700 -9.679200 6.500000
8.671750 1.969480 24.735000 -12.520800 8.270000
18.732400 1.424600 18.994800 -9.679200 8.700000
19.031300 1.531410 19.297800 -9.679200 8.360000
18.449000 1.470550 20.444900 -10.034400 4.490000
-6.609570 2.151380 26.687200 -12.609600 7.550000
18.734100 1.580020 20.760800 -10.123200 5.180000
-6.869410 2.185000 27.065000 -12.609600 10.840000
19.025600 1.516510 21.083800 -10.123200 8.580000
19.313800 1.539480 21.403300 -10.123200 9.620000
-7.317620 0.245539 27.926400 -12.609600 4.630000
-6.041770 1.833870 28.612800 -12.698400 9.170000
-6.130620 1.860830 29.033600 -12.698400 5.170000
-6.621550 1.445380 29.391700 -12.698400 6.130000
-6.709350 2.009200 29.781400 -12.698400 6.030000
-5.636360 1.941740 30.446700 -12.787200 11.450000
18.993100 1.677350 25.018200 -10.744800 8.160000
8.770240 2.162860 30.130800 -12.698400 5.940000
-11.244400 1.677350 29.329400 -12.432000 6.800000
19.253300 1.700330 25.360900 -10.744800 7.380000
9.295180 2.487530 30.400100 -12.609600 5.680000
-11.398400 1.700330 29.731100 -12.432000 5.780000
-12.422500 1.700330 29.318000 -12.254400 5.250000
-12.590400 1.723300 29.714200 -12.254400 6.530000
18.714200 1.366910 26.839700 -10.922400 4.750000
8.903050 1.265710 31.489500 -12.698400 5.170000
18.957900 1.487410 27.189200 -10.922400 5.630000
19.201300 1.610560 27.538400 -11.011200 5.760000
-5.411530 1.402880 33.142000 -12.787200 5.960000
18.794600 1.736360 28.329200 -11.188800 7.450000
-5.738690 1.526040 33.519200 -12.787200 9.650000
19.035400 1.651860 28.692200 -11.188800 8.850000
19.273300 1.672510 29.050900 -11.188800 9.690000
9.483510 1.780320 33.542600 -12.698400 8.820000
19.511300 1.693160 29.409500 -11.188800 9.520000
-10.341800 1.976060 35.530200 -12.432000 5.040000
-5.473170 1.546760 36.618300 -12.876000 8.310000
-10.460300 2.114800 35.937200 -12.432000 6.900000
-5.540050 0.898456 37.065800 -12.876000 8.780000
-9.599030 1.934170 36.633100 -12.609600 7.970000
-9.708110 1.956150 37.049400 -12.609600 9.720000
-10.033600 1.978130 37.408300 -12.520800 7.720000
-20.418700 -0.991400 35.962100 -11.100000 7.000000
-20.912300 -0.872492 36.179100 -11.100000 8.070000
-19.373400 -2.175950 37.943800 -11.455200 7.010000
-19.050400 -2.197930 38.587600 -11.544000 7.220000
-18.939900 -2.219910 39.120600 -11.632800 7.120000
25.138200 0.101948 36.053000 -11.011200 4.280000
-19.107100 -3.022070 39.465800 -11.632800 5.960000
-17.969600 -2.250660 43.336200 -11.899200 5.030000
-18.134500 -2.271310 43.733800 -11.899200 5.800000
-18.892900 -2.291950 43.880600 -11.810400 5.910000
11.232300 -1.865250 46.898400 -12.787200 7.820000
11.356100 -1.468370 48.655200 -12.787200 7.550000
11.357700 -1.197940 48.662200 -12.876000 7.130000
19.917000 2.260090 46.259100 -12.165600 8.850000
-13.794600 -3.809820 48.790700 -12.343200 8.430000
-15.233600 -3.842100 48.811000 -12.254400 10.580000
-15.076800 -3.874390 49.309200 -12.254400 6.180000
-16.843400 -6.233540 48.948000 -12.165600 8.600000
12.136300 1.854000 50.672900 -12.787200 9.760000
-17.982600 -5.114880 50.054000 -12.165600 6.250000
-17.738200 -5.156130 50.595800 -12.165600 12.130000
-17.125600 -2.302160 52.378500 -12.343200 5.620000
-28.742800 1.414810 51.544000 -11.277600 5.120000
20.699900 1.551700 55.263300 -12.432000 6.840000
-28.952600 1.425140 51.920200 -11.277600 5.670000
20.856000 -0.873524 55.679900 -12.432000 8.100000
-29.160700 1.574350 52.293400 -11.277600 5.200000
20.574200 -0.879853 56.243700 -12.432000 5.610000
-29.367900 1.772180 52.665100 -11.277600 5.340000
20.723700 -0.513066 56.652400 -12.432000 7.750000
-29.580200 1.597000 53.045800 -11.277600 5.660000
21.310900 -0.516731 56.894500 -12.432000 7.980000
-15.993000 -2.715830 63.011300 -12.520800 10.150000
22.095400 -0.774588 63.024000 -12.520800 11.400000
20.756400 -3.472720 64.748000 -12.609600 7.050000
21.264100 -3.494700 65.035900 -12.609600 5.760000
21.028200 -2.877700 65.595800 -12.520800 7.350000
21.540800 -2.895680 65.882400 -12.520800 7.350000
-17.180000 6.877040 89.896800 -12.698400 6.280000
-17.260600 6.909330 90.318900 -12.698400 5.330000
-17.341300 6.941620 90.740900 -12.698400 5.660000
-17.417800 7.260910 91.141300 -12.698400 9.630000
-10.218200 1.539180 132.314000 -12.964800 5.540000
-10.251400 1.544180 132.744000 -12.964800 10.020000
-8.515390 0.000000 133.739000 -12.964800 10.000000
-9.637640 1.150730 134.954000 -12.964800 5.870000
-8.624600 1.154400 135.454000 -12.964800 5.430000
-8.651710 1.579160 135.880000 -12.964800 7.320000
-8.679090 1.584160 136.310000 -12.964800 7.370000
-8.870740 1.619140 139.320000 -12.964800 6.160000
-8.898120 1.624140 139.750000 -12.964800 11.500000
-8.925500 1.629130 140.180000 -12.964800 11.970000
25.275800 0.363814 154.797000 -12.964800 8.020000
25.345200 0.364814 155.222000 -12.964800 6.560000
17.734300 4.847640 183.507000 -13.053600 7.350000
17.776800 4.430320 183.946000 -13.053600 5.120000
7.606800 1.476020 10.347200 -10.922400 3.910000
7.260700 1.360940 11.129400 -11.277600 3.230000
-6.992040 1.525220 11.279100 -11.011200 3.430000
7.494920 1.404840 11.488400 -11.277600 3.900000
-6.997590 1.537710 12.779200 -11.366400 3.540000
7.762840 0.083957 13.430000 -11.721600 6.460000
7.978470 0.086289 13.803100 -11.721600 5.730000
8.194110 0.088621 14.176100 -11.632800 12.510000
8.409740 0.090953 14.549200 -11.632800 16.900000
7.352490 1.756050 15.489900 -12.076800 6.900000
8.625480 0.039980 14.922400 -11.632800 5.830000
6.856700 1.799950 16.182300 -12.254400 11.550000
-0.694785 1.523420 18.020200 1.598400 7.190000
7.720120 1.843850 16.264400 -12.165600 14.550000
-0.711328 1.559690 18.449200 1.598400 9.490000
7.941840 0.544311 16.731500 -12.165600 7.460000
-1.567750 -4.086900 18.447400 1.598400 9.770000
8.258250 0.556969 17.057500 -12.076800 7.550000
-1.713280 -4.135860 18.866700 1.598400 7.160000
8.619150 6.115610 16.257300 -12.076800 6.480000
-1.029700 0.888583 19.774700 1.598400 7.990000
8.938510 6.251520 16.550200 -12.076800 8.170000
-1.052090 0.907900 20.204600 1.598400 4.920000
7.797310 -3.273900 18.402200 -12.343200 9.970000
-0.910652 2.298070 20.535000 1.598400 8.070000
7.818120 -3.343550 18.854500 -12.343200 8.830000
0.000000 2.345950 20.983400 1.598400 9.180000
7.904910 1.891160 19.486900 -12.343200 5.050000
-0.948596 2.393830 21.390600 1.598400 7.650000
7.958910 1.680770 19.950400 -12.343200 5.500000
-1.936420 2.393830 21.323900 1.598400 7.020000
8.121860 1.578830 20.358900 -12.432000 5.250000
7.984890 1.834420 21.317500 -12.520800 4.850000
8.302710 1.869030 21.656400 -12.520800 5.410000
9.058060 1.556420 21.844800 -12.343200 7.820000
8.352890 -3.900810 22.300000 -12.609600 8.300000
8.920070 1.659180 22.359700 -12.432000 8.020000
8.615230 -0.132932 23.000400 -12.520800 6.910000
8.585550 -0.212556 23.470300 -12.520800 6.470000
18.423800 1.563950 18.681900 -9.768000 5.220000
-15.327900 1.807320 21.276400 -12.609600 9.530000
18.722300 1.672050 18.984500 -9.768000 8.000000
19.024300 1.699020 19.290700 -9.768000 8.980000
18.248100 1.555710 20.618200 -10.212000 5.610000
18.533200 1.580020 20.940400 -10.212000 6.340000
-6.884400 1.169060 27.124100 -12.698400 10.640000
18.818400 1.604330 21.262500 -10.212000 10.020000
-6.993390 0.835454 27.553500 -12.698400 3.730000
18.936600 1.628640 21.731300 -10.212000 10.430000
-6.937550 0.848113 28.011500 -12.698400 9.020000
18.471000 0.339819 22.743500 -10.567200 11.380000
-7.034960 1.494590 28.404900 -12.698400 3.640000
18.742600 0.344817 23.078000 -10.567200 12.120000
-6.749020 1.516570 28.916200 -12.787200 8.240000
15.494300 0.349814 25.876800 -10.656000 10.320000
16.479800 0.349814 25.260700 -10.478400 9.690000
-7.016290 1.538550 29.295200 -12.787200 7.360000
15.715700 0.354811 26.246500 -10.656000 7.530000
-7.115670 1.631390 29.710100 -12.787200 7.520000
18.745600 1.199090 24.692100 -10.833600 6.530000
19.006000 1.215740 25.035100 -10.833600 9.410000
-10.614600 1.968710 29.545200 -12.876000 7.600000
-10.930700 2.094090 29.881300 -12.876000 6.120000
-5.433170 2.795080 31.734700 -12.964800 8.640000
-10.911200 1.723300 30.371000 -12.698400 6.690000
18.915200 1.569270 26.687300 -11.100000 5.210000
-5.707070 1.468090 32.213800 -12.964800 6.130000
19.158800 1.769260 27.031000 -11.100000 5.290000
-6.225410 0.974697 32.575500 -12.964800 4.570000
18.559500 1.610560 27.974900 -11.277600 5.420000
-5.413920 0.987355 33.156600 -12.964800 4.240000
18.797400 1.631210 28.333600 -11.277600 8.040000
-5.741990 1.000010 33.538400 -12.876000 5.720000
19.032500 1.758340 28.687800 -11.277600 6.850000
-13.842900 2.370250 31.481300 -13.053600 6.230000
19.270400 1.780320 29.046400 -11.277600 4.660000
-14.016000 2.399880 31.874800 -13.053600 7.550000
19.505900 1.884150 29.401500 -11.277600 13.150000
-14.200000 1.993260 32.293400 -13.053600 7.250000
19.058400 1.603310 30.221200 -11.455200 15.810000
19.051700 1.622630 30.733000 -11.455200 6.230000
-10.214000 2.405370 35.091100 -12.609600 14.130000
-10.334200 2.433670 35.504000 -12.609600 7.780000
-10.168200 2.924530 35.964300 -12.609600 8.120000
-20.129100 -1.726620 36.097300 -11.366400 9.530000
-20.338800 -1.744600 36.473300 -11.366400 6.790000
-20.831900 -1.762590 36.689900 -11.366400 7.640000
-22.114000 -1.931700 36.932200 -11.100000 6.340000
10.703600 1.043040 42.171300 -12.876000 6.550000
10.699000 -1.016410 47.490800 -13.053600 7.490000
11.260600 -1.034400 48.246000 -12.964800 8.830000
10.983100 -1.043390 48.751700 -12.964800 7.100000
-16.128800 -4.991130 49.329700 -12.254400 6.880000
-19.748500 1.869320 48.683500 -12.076800 5.670000
-19.910400 1.884640 49.082600 -12.076800 7.670000
-17.627800 -4.003540 50.280900 -12.343200 6.150000
-17.770000 -4.035820 50.686400 -12.343200 6.560000
-18.354100 -0.965457 51.087900 -12.254400 9.090000
-19.192600 -0.973120 51.239100 -12.165600 6.720000
-16.111100 -2.472580 52.691700 -12.520800 8.660000
-16.543600 -2.491890 53.008600 -12.520800 7.530000
-17.089500 -1.991900 53.309300 -12.432000 8.260000
20.509700 1.373500 53.496400 -12.520800 6.190000
20.663900 1.383830 53.898700 -12.520800 6.530000
-30.092300 1.721540 50.256700 -11.188800 9.730000
-28.741100 1.551700 51.541000 -11.366400 9.920000
-29.158200 1.759520 52.288900 -11.366400 6.260000
-29.367900 1.772180 52.665100 -11.366400 8.270000
20.720000 1.259270 56.642100 -12.609600 5.600000
-29.577700 1.784830 53.041300 -11.366400 7.340000
13.102400 0.141928 59.768300 -13.053600 9.780000
-16.483800 -2.112550 62.907800 -12.698400 5.170000
-16.593000 -2.126540 63.324400 -12.698400 6.040000
-16.702200 -2.140530 63.741000 -12.698400 6.440000
23.728400 -0.784583 63.348600 -12.520800 5.810000
19.763900 -2.823740 64.638300 -12.787200 5.800000
20.499600 -4.314980 65.684300 -12.698400 6.690000
20.627700 -4.341950 66.094800 -12.698400 7.750000
23.049500 -4.368920 65.745600 -12.609600 8.150000
-15.108700 0.468759 85.281600 -12.964800 5.440000
-17.699300 6.877040 89.796000 -12.876000 4.740000
-17.782400 6.909330 90.217600 -12.876000 5.710000
-17.865500 6.941620 90.639200 -12.876000 5.860000
-62.370800 -12.622200 115.483000 -11.366400 8.160000
-10.251900 0.720629 132.751000 -13.142400 8.190000
-9.545560 1.139740 133.665000 -13.142400 6.370000
-9.576460 0.727626 134.097000 -13.142400 8.530000
-9.606950 1.147070 134.524000 -13.142400 10.470000
-9.637640 1.150730 134.954000 -13.142400 7.880000
-9.668330 1.154400 135.384000 -13.142400 5.460000
-10.483200 2.000240 135.746000 -13.142400 4.330000
-11.566100 1.584160 136.096000 -13.142400 9.770000
-8.706470 1.589150 136.740000 -13.142400 10.930000
-8.871020 1.187380 139.324000 -13.142400 7.240000
19.196500 3.287150 183.827000 -13.231200 5.600000
19.241200 3.294810 184.256000 -13.231200 6.100000
