VERSION .7
FIELDS x y z velocity intensity
SIZE 4 4 4 4 4
TYPE F F F F F
COUNT 1 1 1 1 1
WIDTH 973
HEIGHT 1
VIEWPOINT 0 0 0 1 0 0 0
POINTS 973
DATA ascii
5.140270 -2.150660 14.937900 -10.922400 4.340000
3.778950 -2.208780 15.778300 -11.100000 4.760000
3.884630 -2.060750 16.219600 -11.100000 8.240000
4.661140 -2.060750 16.013700 -11.100000 8.240000
5.667120 -1.915060 16.164700 -11.011200 7.870000
5.808790 -1.962940 16.568800 -11.011200 5.330000
-7.428410 1.419080 15.966300 -10.300800 6.880000
5.963480 -1.621000 17.010000 -11.011200 4.740000
-7.261240 1.453690 16.513400 -10.389600 9.360000
6.707510 -1.602510 17.197500 -10.922400 11.190000
-7.693850 1.488300 16.789900 -10.389600 12.040000
6.765170 -1.522910 17.646000 -10.922400 6.760000
7.487020 -1.011010 17.389300 -10.744800 9.100000
-7.868700 1.639780 17.171500 -10.389600 6.070000
-8.726920 1.420610 16.771700 -10.123200 7.000000
-7.100220 1.639780 17.503300 -10.389600 4.590000
6.931470 -1.033980 18.079700 -10.922400 7.420000
-7.383710 2.094830 17.806900 -10.478400 8.660000
7.085510 -1.056960 18.481500 -10.833600 8.560000
-7.160310 2.141390 18.358400 -10.567200 7.940000
6.428060 -1.330030 19.159000 -11.100000 3.510000
7.239540 -1.079940 18.883300 -10.833600 9.360000
-7.318400 2.125660 18.763800 -10.567200 5.650000
6.301580 -1.294490 19.657300 -11.100000 9.070000
-7.621580 2.170890 19.104800 -10.567200 8.680000
6.443270 -0.554987 20.099300 -11.100000 8.300000
-7.231470 1.647150 19.768600 -10.656000 7.490000
7.399050 -0.566313 20.226700 -11.011200 10.800000
-8.494130 1.680770 19.728500 -10.478400 9.640000
8.136820 -0.849356 20.396300 -10.833600 8.830000
-8.690500 0.000000 20.184500 -10.478400 9.490000
-8.860770 -0.121271 20.580000 -10.478400 5.740000
6.229080 2.031220 23.223900 -11.188800 5.760000
-7.180700 1.156300 23.008200 -10.922400 5.560000
6.340310 2.067500 23.638600 -11.277600 7.830000
-7.489210 1.176950 23.362000 -10.922400 5.960000
-7.760040 1.043170 23.734000 -10.833600 5.360000
6.430190 1.669610 24.539700 -11.277600 6.910000
7.423100 1.355670 24.277400 -11.100000 7.210000
6.539180 1.697910 24.955700 -11.277600 6.740000
-7.023970 1.378640 24.843400 -11.011200 4.760000
18.457500 1.857450 18.008400 -8.436000 9.190000
7.537930 5.128920 24.653000 -11.188800 7.200000
8.716290 5.128920 24.261400 -11.011200 4.160000
18.041500 1.919370 19.610100 -8.791200 7.890000
-7.576910 1.384690 26.031100 -10.922400 5.130000
18.332500 1.950320 19.926400 -8.791200 7.180000
-7.849920 1.406670 26.399300 -11.011200 8.720000
18.623500 1.981280 20.242700 -8.791200 6.500000
-7.810740 1.839400 26.834400 -11.011200 10.500000
18.273200 1.779930 21.719200 -9.146400 8.060000
18.550000 1.806900 22.048200 -9.146400 5.990000
18.826900 1.833870 22.377300 -9.146400 8.940000
-6.920700 1.057240 28.896100 -11.100000 6.960000
-7.248180 0.886088 29.265800 -11.100000 9.100000
7.335900 -2.197980 29.619900 -11.188800 4.700000
8.440770 0.000000 29.854500 -11.188800 7.400000
-7.406020 2.389210 30.922400 -11.188800 5.010000
18.386800 2.389210 25.941700 -9.679200 10.770000
18.639500 2.321810 26.298300 -9.679200 12.780000
18.888000 2.352770 26.648900 -9.679200 10.330000
-15.931300 1.420860 30.049500 -11.988000 5.470000
-15.898000 1.438850 30.553300 -12.076800 12.590000
18.590300 1.884150 29.988800 -10.034400 15.920000
18.817100 1.907120 30.354500 -10.034400 7.220000
19.043800 1.930100 30.720200 -10.034400 8.540000
-13.746000 2.066180 33.886300 -14.030400 11.180000
-18.488500 1.796400 32.562600 -13.675200 13.200000
-16.576400 1.796400 33.576300 -13.408800 6.320000
-16.962900 1.817040 33.864800 -13.320000 14.530000
19.126000 1.858340 33.685400 -10.300800 17.700000
19.338500 1.878990 34.059700 -10.300800 5.990000
19.551100 1.899640 34.434000 -10.300800 16.410000
8.278350 0.588679 39.204900 -11.366400 10.060000
19.760500 2.044070 34.802900 -10.300800 7.180000
9.205310 0.595009 39.440200 -11.366400 5.580000
9.533500 0.601339 39.805400 -11.366400 7.830000
19.430500 1.961580 35.976700 -10.389600 5.780000
9.633850 0.607669 40.224400 -11.366400 8.390000
19.632000 2.110010 36.349800 -10.389600 7.990000
9.714240 -2.744960 40.560000 -11.277600 4.700000
6.791700 -2.642920 41.594600 -11.366400 7.040000
19.175400 2.251780 37.556000 -10.478400 6.310000
8.792530 -2.933190 41.640000 -11.366400 6.420000
19.371100 2.274760 37.939200 -10.478400 10.390000
8.881340 -2.962820 42.060600 -11.366400 14.910000
19.563400 2.430800 38.316000 -10.478400 14.660000
6.999600 -2.723830 42.867900 -11.366400 6.600000
19.460200 2.455110 38.850300 -10.478400 7.850000
7.068910 -2.750800 43.292300 -11.277600 9.420000
19.327900 1.578200 39.922000 -10.567200 9.890000
9.844800 1.316470 43.699000 -11.366400 12.450000
19.510900 1.870500 40.299900 -10.567200 8.920000
9.087560 1.329130 44.302500 -11.366400 8.230000
19.695900 2.028290 40.682000 -10.567200 14.650000
8.829130 1.341790 44.793800 -11.366400 16.090000
19.443600 1.105000 41.791300 -10.656000 10.840000
19.625300 1.115330 42.181900 -10.656000 13.360000
19.807000 1.125650 42.572500 -10.656000 6.740000
19.990100 0.989424 42.966000 -10.656000 6.410000
19.925100 2.032370 44.381800 -10.744800 10.320000
20.101400 2.050360 44.774500 -10.744800 10.350000
19.922100 1.948520 46.271100 -10.744800 7.410000
20.451500 1.965180 46.510300 -10.744800 10.080000
17.190800 0.432441 47.850000 -9.856800 11.070000
-23.313900 -0.911821 45.661500 -10.123200 5.610000
17.336500 0.436106 48.255500 -9.856800 9.790000
16.822300 -0.919483 48.886400 -10.123200 10.590000
17.763200 0.439771 48.559200 -9.856800 14.200000
19.958200 1.854000 48.132100 -10.833600 13.480000
20.123200 1.869320 48.529900 -10.833600 8.150000
19.096700 1.259900 48.962400 -9.945600 8.750000
20.288100 1.884640 48.927700 -10.833600 6.980000
18.971000 0.778575 49.483000 -9.945600 6.750000
-24.663000 -0.289185 47.398200 -10.123200 5.420000
19.938000 2.414630 49.978100 -10.833600 8.230000
-5.178970 1.582300 53.589600 -11.455200 6.480000
20.100200 2.266190 50.384700 -10.833600 5.920000
-5.220400 1.594960 54.018300 -11.455200 9.790000
20.259800 2.284170 50.784600 -10.833600 6.890000
20.712000 2.472580 51.058700 -10.833600 8.740000
20.183100 2.148370 51.747900 -10.922400 11.110000
20.339600 2.165020 52.149000 -10.922400 12.500000
20.496100 2.181680 52.550100 -10.922400 8.300000
20.652500 2.198330 52.951300 -10.922400 9.350000
20.502600 2.037870 53.478000 -10.922400 7.660000
20.240800 2.053190 54.037700 -10.922400 6.850000
20.391900 2.068510 54.440900 -10.922400 8.250000
20.542900 2.083830 54.844200 -10.922400 6.570000
20.419600 1.746860 55.821000 -11.011200 10.870000
-21.279500 -1.563020 55.504300 -10.656000 7.130000
20.567600 1.759520 56.225500 -11.011200 6.130000
-21.002100 -1.574350 56.070100 -10.656000 13.780000
-22.627600 -3.961790 55.781000 -10.567200 8.460000
-20.498000 -3.990090 57.055300 -10.656000 10.460000
20.653300 2.607910 58.910600 -11.011200 9.070000
20.795700 2.625900 59.316800 -11.011200 9.480000
20.940800 2.448140 59.730500 -11.011200 8.050000
21.083200 2.464800 60.136900 -11.011200 6.240000
-7.847630 2.631340 67.577200 -11.455200 5.200000
21.288400 1.218320 65.110400 -11.100000 5.780000
-20.407100 1.430170 65.387700 -10.922400 6.690000
-7.898210 2.436250 68.012700 -11.455200 12.230000
21.422300 1.225980 65.519900 -11.100000 13.020000
21.556200 1.233640 65.929400 -11.100000 9.400000
21.433700 1.846180 66.860900 -11.188800 7.990000
21.161000 1.734950 69.207600 -11.188800 6.670000
21.289700 1.294940 69.628500 -11.188800 9.100000
21.666300 1.547100 70.860300 -11.188800 5.650000
21.792300 1.556090 71.272300 -11.188800 6.790000
13.077900 1.101400 73.819000 -11.455200 7.020000
13.153100 1.107730 74.243200 -11.455200 7.330000
-14.559200 0.000000 76.183300 -11.277600 8.780000
-16.291400 0.182907 77.153200 -11.188800 7.700000
-16.380400 0.183906 77.574800 -11.188800 4.930000
-16.469400 0.184906 77.996400 -11.188800 6.240000
22.394200 1.673030 76.937000 -11.188800 6.690000
22.516000 1.432860 77.355300 -11.188800 8.230000
21.696100 2.140660 78.467700 -11.188800 10.760000
21.810900 2.151990 78.882900 -11.188800 9.680000
21.925700 2.163320 79.298100 -11.188800 11.080000
22.146400 3.214230 80.096200 -11.277600 11.420000
22.261200 3.230880 80.511200 -11.277600 7.790000
21.514400 1.246990 82.106200 -11.277600 5.590000
23.842600 0.989474 81.913000 -11.277600 6.540000
24.439800 0.464095 82.191200 -11.277600 6.460000
20.987800 0.989474 82.690600 -11.277600 6.260000
22.505100 1.240660 81.393300 -11.277600 10.280000
22.375900 3.247540 80.926200 -11.277600 9.520000
-1.015940 2.106720 87.872500 -11.544000 9.750000
-1.701230 2.594970 88.280000 -11.544000 8.180000
30.492100 1.609140 135.348000 -11.366400 10.820000
30.586800 1.614140 135.769000 -11.366400 10.570000
30.681500 1.619140 136.189000 -11.366400 7.800000
-62.221000 -5.978800 141.502000 -10.389600 6.270000
-62.250700 -12.101500 141.569000 -10.389600 7.220000
-60.503200 -12.135100 142.792000 -10.478400 6.460000
-7.119850 2.361050 160.551000 -11.544000 7.400000
-7.139220 1.869010 160.988000 -11.544000 5.630000
-7.158690 0.874550 161.426000 -11.544000 4.950000
-6.241910 1.377950 161.892000 -11.544000 5.010000
-6.258320 1.884000 162.318000 -11.544000 7.270000
-6.274920 1.889000 162.748000 -11.544000 8.250000
-6.358250 0.893207 164.910000 -11.544000 4.880000
-6.374850 0.895539 165.340000 -11.544000 6.040000
-6.391460 0.897872 165.771000 -11.544000 8.590000
-6.408130 0.385803 166.203000 -11.544000 7.290000
5.506340 -0.351668 4.133920 -6.748800 0.450000
5.728610 -0.495320 3.804000 -6.216000 3.420000
5.007700 -1.014450 4.628880 -7.725600 5.660000
5.466260 -0.351668 4.186770 -6.926400 5.830000
6.036710 -0.571461 4.109940 -6.393600 5.790000
5.282620 -1.077850 4.959050 -7.814400 7.760000
5.491160 -1.141260 5.357550 -7.903200 8.570000
5.480080 -0.341727 6.072930 -8.258400 7.270000
5.593990 -0.359712 6.545830 -8.436000 4.220000
7.112570 0.405657 5.579370 -7.015200 6.880000
7.358560 -0.188890 5.262930 -6.660000 5.500000
7.102170 1.340540 9.660800 -9.235200 7.200000
6.976030 0.177237 9.842390 -9.235200 6.760000
7.225170 0.183567 10.193900 -9.235200 8.650000
4.990710 -1.862540 11.778400 -10.300800 17.850000
4.745730 -1.638030 12.378500 -10.300800 6.430000
4.898820 -1.690870 12.777900 -10.300800 6.440000
5.231150 -1.700060 13.112800 -10.300800 7.760000
7.001210 -1.065460 12.330800 -9.768000 7.180000
5.467670 -1.751570 13.478700 -10.300800 7.610000
7.213360 -1.097740 12.704400 -9.768000 7.460000
6.457880 -0.804209 13.605200 -10.123200 3.200000
6.750050 -0.827186 13.942300 -10.123200 7.060000
7.255840 -0.827186 13.685900 -9.856800 11.920000
4.741440 -0.948623 15.192400 -10.656000 7.380000
6.944440 -0.468361 14.343800 -10.123200 7.560000
7.356050 -0.468361 14.137100 -9.945600 11.460000
6.258300 -1.075340 15.092800 -10.300800 7.310000
6.542180 -1.103640 15.440000 -10.300800 6.170000
5.427740 -2.430630 16.177500 -10.567200 4.420000
5.590190 -1.384470 16.245400 -10.389600 6.080000
4.758520 -2.491390 16.830600 -10.656000 7.010000
4.413400 -2.385820 17.388500 -10.744800 7.590000
6.454320 -1.565240 16.835100 -10.478400 6.680000
8.065600 1.788170 16.102100 -10.034400 7.010000
5.635060 -1.602510 17.578100 -10.656000 6.290000
8.162210 1.830740 16.533000 -10.123200 9.110000
5.766110 -1.639780 17.986900 -10.656000 6.390000
7.019490 -1.677050 17.997400 -10.478400 5.530000
7.592200 0.045976 18.309700 -10.389600 6.870000
-7.555070 1.958470 18.220100 -10.212000 7.390000
-8.604990 1.714310 17.773700 -9.945600 5.170000
6.136150 -0.832702 20.635900 -10.744800 13.480000
6.420920 -0.849356 20.999800 -10.744800 12.590000
6.831220 -1.142920 21.309500 -10.656000 7.360000
7.545880 -1.164900 21.523600 -10.567200 5.370000
-7.164690 1.688810 23.432300 -10.567200 6.670000
17.801200 1.904910 18.050500 -8.080800 6.430000
17.925300 1.937200 18.530000 -8.169600 8.560000
18.147400 1.782810 20.110600 -8.524800 10.380000
18.234000 1.896200 20.602200 -8.524800 10.410000
7.349280 0.149257 26.579900 -10.744800 12.610000
18.518900 1.925830 20.924100 -8.524800 7.580000
18.639500 1.955460 21.390300 -8.524800 10.580000
18.278000 1.313560 22.863700 -8.880000 7.220000
18.546800 1.332870 23.199900 -8.880000 7.620000
18.818100 1.258990 23.539300 -8.880000 9.640000
-7.023420 0.722896 29.325000 -10.744800 7.320000
-7.352790 0.733223 29.688100 -10.744800 4.980000
7.146490 -0.924063 30.619200 -10.922400 14.620000
18.703800 1.746280 26.824900 -9.324000 8.030000
18.946700 1.871720 27.173200 -9.324000 13.430000
18.980100 1.896030 27.673200 -9.412800 18.770000
8.516380 0.883448 32.501300 -10.833600 5.770000
19.223400 1.920330 28.028000 -9.412800 19.320000
8.179310 1.105240 33.025400 -10.833600 6.340000
18.570200 1.920330 28.465000 -9.501600 15.280000
18.805300 1.944640 28.825300 -9.501600 5.840000
19.040400 1.968950 29.185600 -9.501600 12.200000
19.275400 1.993260 29.545900 -9.501600 18.580000
18.810500 2.127990 30.343900 -9.590400 16.510000
18.799900 2.153630 30.855300 -9.679200 6.730000
19.023700 2.179270 31.222600 -9.679200 8.930000
19.247500 2.204910 31.589900 -9.679200 16.540000
19.478100 1.999030 31.968400 -9.679200 18.390000
19.269400 2.481110 34.555500 -9.856800 7.830000
19.478900 2.508080 34.931100 -9.856800 7.010000
19.419300 2.410010 35.464200 -9.856800 10.740000
19.625900 2.435650 35.841400 -9.856800 14.480000
9.302780 0.727924 39.857800 -10.922400 13.670000
19.354200 1.982230 36.505700 -9.945600 8.280000
9.633370 0.735587 40.222300 -10.922400 6.730000
19.271000 2.002880 37.035600 -9.945600 8.830000
9.734200 0.613998 40.643400 -10.922400 14.050000
19.469600 2.023530 37.417400 -9.945600 13.130000
9.834550 0.620328 41.062400 -10.922400 16.660000
19.668300 2.044180 37.799200 -9.945600 13.550000
8.069300 -2.962820 42.223900 -10.922400 15.340000
6.928920 -2.829850 42.435000 -10.922400 9.620000
19.468800 2.085470 38.867500 -10.034400 10.880000
6.750350 -2.858150 42.899100 -10.922400 8.380000
19.661600 2.106120 39.252300 -10.034400 10.930000
9.391310 -2.886450 42.839600 -10.922400 13.090000
19.854400 2.126770 39.637200 -10.034400 6.820000
9.685660 1.084340 44.182300 -10.922400 8.720000
9.777900 1.094670 44.603100 -10.922400 5.580000
19.987600 1.245890 42.960600 -10.212000 8.150000
20.169300 1.257210 43.351100 -10.212000 7.590000
19.755700 2.050360 44.928100 -10.300800 5.700000
19.929000 2.068350 45.322200 -10.300800 5.390000
20.102300 2.086330 45.716300 -10.300800 10.380000
20.275600 2.104320 46.110400 -10.300800 10.340000
10.130500 0.116940 49.386900 -10.922400 16.540000
7.225420 0.117940 50.330100 -10.922400 20.840000
19.992600 1.823350 47.183800 -10.300800 20.480000
9.832870 0.117940 49.886200 -10.922400 20.490000
6.993130 0.118939 50.797900 -11.011200 15.560000
20.160600 1.838680 47.580300 -10.300800 7.340000
19.910400 1.884640 49.082600 -10.389600 7.530000
20.072300 1.899960 49.481600 -10.389600 8.230000
19.281500 0.000000 50.293100 -9.235200 6.160000
19.943200 2.081750 49.991000 -10.389600 9.040000
19.435800 0.000000 50.695400 -9.235200 14.990000
20.391100 2.266190 50.267700 -10.389600 18.030000
20.421800 2.131720 51.190800 -10.389600 6.900000
20.581400 2.148370 51.590800 -10.389600 16.620000
20.337100 2.338130 52.142500 -10.389600 7.510000
20.971100 1.540370 54.699900 -10.567200 10.290000
21.121400 1.916690 55.092100 -10.567200 9.580000
21.275600 1.930680 55.494300 -10.567200 10.540000
-19.589700 -2.000630 58.387500 -10.389600 5.750000
-4.571860 1.687610 64.018900 -11.011200 10.430000
21.019400 1.412180 64.287600 -10.656000 7.190000
21.153200 1.421170 64.697000 -10.656000 8.280000
21.558100 0.804572 65.935400 -10.744800 6.430000
21.308200 0.809569 66.469200 -10.656000 6.620000
21.438800 1.031770 66.876800 -10.656000 6.460000
21.571200 0.819564 67.289800 -10.656000 5.480000
21.964900 1.057090 68.517900 -10.744800 12.040000
22.494500 1.063420 68.799400 -10.744800 8.090000
21.529000 2.847840 70.411000 -10.744800 5.940000
22.063900 2.864490 70.696400 -10.744800 7.900000
-29.752500 1.120390 70.217800 -10.034400 6.270000
-18.264900 0.909516 76.261800 -10.744800 8.090000
-18.955700 0.914514 76.537000 -10.744800 9.300000
-14.800900 0.914514 77.447800 -10.744800 8.220000
-27.477700 1.240660 79.851900 -10.389600 6.650000
23.718600 1.771970 81.487100 -10.744800 5.220000
19.392800 0.945507 109.464000 -11.011200 4.720000
19.468000 0.949172 109.888000 -11.011200 6.080000
19.540800 1.992210 110.299000 -11.011200 6.900000
-56.252600 -18.358600 104.155000 -9.590400 7.990000
-56.454900 -18.424700 104.530000 -9.501600 4.890000
20.816800 2.152160 145.004000 -11.011200 6.730000
-59.357700 -6.954130 143.149000 -10.123200 5.940000
-5.020380 1.889000 162.792000 -11.011200 7.970000
-6.391320 1.410930 165.767000 -11.011200 5.010000
-5.126790 1.414600 166.242000 -11.011200 6.080000
-5.140070 1.418260 166.673000 -11.011200 4.850000
-5.153470 0.904868 167.107000 -11.100000 4.820000
5.157770 -0.424478 3.872220 -6.748800 3.630000
5.466260 -0.351668 4.186770 -6.926400 6.260000
5.657450 -0.413237 4.634920 -7.192800 4.930000
5.756090 -0.373647 4.515290 -7.015200 5.800000
5.942680 -0.437545 4.965050 -7.370400 5.480000
6.727160 -0.134928 9.491260 -9.324000 7.390000
6.900240 0.139926 9.896270 -9.324000 14.580000
5.503030 -1.273140 11.146700 -9.945600 10.240000
7.146680 0.144923 10.249700 -9.324000 17.290000
5.759350 -1.317040 11.497900 -10.034400 8.210000
7.392820 0.189896 10.602700 -9.324000 15.440000
5.253280 -1.402030 12.201300 -10.212000 5.470000
6.222430 -1.402030 11.736700 -9.945600 6.160000
7.639240 0.196226 10.956100 -9.412800 8.640000
7.134940 -1.447260 11.710200 -9.856800 5.240000
5.693970 -1.448740 12.949100 -10.212000 5.270000
-8.447990 1.097740 11.919200 -8.968800 6.210000
5.958870 -0.629496 13.840100 -10.389600 6.010000
-7.592870 1.803090 12.905400 -9.590400 6.950000
5.436540 -0.647482 14.514100 -10.478400 7.780000
-9.441990 -0.283507 12.843600 -8.880000 5.850000
5.790240 -0.517645 14.845700 -10.567200 7.550000
-9.568420 -0.392429 13.281800 -8.968800 5.700000
5.928750 -1.378330 15.200800 -10.567200 10.160000
5.326490 -1.414600 15.875700 -10.656000 9.030000
4.797650 -1.543810 16.482700 -10.744800 6.980000
4.665170 -2.383160 16.872300 -10.744800 9.030000
-7.865970 1.908630 15.703600 -9.856800 5.730000
4.909940 -1.356040 17.366200 -10.744800 7.040000
6.481040 -1.388320 17.302600 -10.478400 7.080000
-7.195590 1.773710 16.982100 -10.123200 5.480000
5.370390 2.106570 18.060700 -10.744800 7.420000
-7.961070 1.814960 17.111200 -10.034400 5.650000
7.419710 0.869266 17.893700 -10.478400 7.540000
-8.040700 1.856210 17.546900 -10.034400 6.250000
7.584590 0.888583 18.291300 -10.478400 9.220000
-8.219390 1.897460 17.936800 -10.034400 4.880000
6.582190 0.970467 19.128200 -10.656000 7.420000
7.749470 0.907900 18.689000 -10.389600 7.620000
6.296210 -1.549760 19.640500 -10.744800 7.870000
-7.076980 1.852570 19.346300 -10.389600 9.520000
6.544660 -1.516920 20.016800 -10.744800 8.670000
-7.224420 1.891160 19.749300 -10.389600 13.020000
6.019530 -0.516354 20.680600 -10.744800 9.950000
-7.367610 2.062450 20.140800 -10.389600 11.950000
6.988210 -0.526681 20.828500 -10.744800 11.350000
7.125730 -0.467728 21.238400 -10.744800 11.170000
-8.137630 0.727502 20.864200 -10.300800 8.520000
7.554520 -0.406105 21.548200 -10.656000 7.680000
-8.294120 0.741492 21.265400 -10.389600 8.660000
7.865020 -0.557663 21.892000 -10.567200 6.100000
7.536310 -0.567990 22.462100 -10.656000 7.400000
-7.154770 2.124260 23.399900 -10.567200 11.160000
-7.280300 2.161530 23.810400 -10.567200 6.190000
18.408900 1.888410 18.666700 -8.258400 8.790000
6.913090 -1.280190 25.774100 -10.833600 5.550000
18.085400 1.640860 20.754500 -8.702400 8.360000
6.781470 -0.810137 26.718500 -10.922400 8.380000
18.368000 1.666500 21.078800 -8.702400 9.490000
-6.724600 1.428650 27.151700 -10.744800 7.140000
18.653900 1.604330 21.406900 -8.702400 10.090000
-6.989380 1.274920 27.537700 -10.744800 9.310000
-7.095280 1.294240 27.954900 -10.744800 7.330000
18.428500 2.014720 22.691200 -8.880000 6.200000
18.703400 1.952600 23.029700 -8.880000 9.750000
18.974500 1.980900 23.363400 -8.880000 7.820000
-6.853390 0.792838 29.363400 -10.833600 7.630000
-7.352360 0.804164 29.686400 -10.833600 6.240000
18.344000 1.845970 24.952600 -9.235200 8.130000
-7.629150 0.911405 30.058300 -10.744800 11.020000
18.598700 1.871610 25.299100 -9.235200 4.460000
10.001300 0.924063 29.809100 -10.744800 9.440000
18.849900 1.995680 25.640800 -9.235200 5.110000
7.662370 0.936721 30.938100 -10.922400 6.370000
19.100900 2.122390 25.982200 -9.235200 10.160000
18.451300 1.922880 26.462700 -9.412800 15.650000
18.697300 1.948520 26.815500 -9.412800 6.030000
18.943300 1.974160 27.168400 -9.412800 16.380000
18.976700 1.999800 27.668300 -9.412800 9.010000
18.563400 2.130520 28.454500 -9.590400 12.640000
18.801900 2.051080 28.820100 -9.590400 7.820000
19.037000 2.076710 29.180400 -9.590400 11.040000
19.043700 2.102350 29.688300 -9.590400 4.900000
19.276000 2.127990 30.050300 -9.590400 17.280000
18.803200 2.041870 30.860800 -9.679200 18.420000
19.030300 1.953080 31.233500 -9.679200 15.070000
19.254200 1.976060 31.601000 -9.679200 10.670000
18.938900 2.373240 32.765100 -9.856800 17.600000
19.154100 2.400210 33.137400 -9.856800 19.130000
19.110500 2.427180 33.658000 -9.945600 8.170000
19.006100 2.358740 34.709600 -10.034400 12.240000
19.212700 2.384380 35.086900 -10.034400 6.850000
19.419300 2.410010 35.464200 -10.034400 7.730000
19.622200 2.562020 35.834700 -10.034400 11.470000
9.401170 0.607669 40.279400 -10.922400 11.140000
19.069400 2.110010 36.648100 -10.123200 12.300000
9.499100 0.613998 40.698900 -10.922400 10.150000
19.268000 2.131990 37.029900 -10.123200 8.440000
9.834060 0.750911 41.060300 -10.922400 6.340000
19.466600 2.153970 37.411600 -10.123200 11.140000
9.933820 0.890482 41.476800 -10.922400 15.200000
19.662900 2.274760 37.788800 -10.123200 14.640000
6.350290 -3.361530 42.486700 -11.011200 9.480000
9.661210 -3.390090 44.070800 -10.922400 17.920000
9.753220 -3.422380 44.490500 -10.922400 15.850000
19.557800 1.379770 42.680100 -10.300800 6.830000
19.733200 1.685450 43.063000 -10.300800 8.180000
19.910400 1.848600 43.449500 -10.300800 7.600000
20.087200 2.014390 43.835500 -10.300800 6.400000
19.753100 2.202140 44.922100 -10.389600 7.210000
19.926400 2.221460 45.316200 -10.389600 5.620000
20.099600 2.240770 45.710200 -10.389600 7.620000
20.099600 2.240770 45.710200 -10.300800 6.770000
20.272900 2.260090 46.104300 -10.300800 9.270000
9.832900 0.000000 49.886400 -11.011200 13.560000
9.916200 0.118939 50.309000 -11.011200 13.290000
19.987800 2.140290 47.172500 -10.389600 8.660000
9.999530 0.119939 50.731800 -11.011200 14.910000
20.155800 2.158270 47.568900 -10.389600 7.260000
20.321000 2.337360 47.958900 -10.389600 18.590000
20.283300 2.212230 48.915900 -10.389600 9.550000
20.448200 2.230220 49.313600 -10.389600 9.060000
20.613100 2.248200 49.711300 -10.389600 6.290000
20.778000 2.266190 50.109000 -10.478400 9.140000
20.547300 2.622330 50.652600 -10.567200 11.090000
20.018600 2.642970 51.326100 -10.567200 8.820000
20.175000 2.663620 51.727100 -10.567200 15.320000
20.331400 2.684270 52.128000 -10.567200 18.270000
20.340800 2.549850 53.056100 -10.567200 16.690000
20.500200 2.214990 53.471800 -10.567200 7.010000
20.654400 2.231640 53.873900 -10.567200 8.700000
-20.513100 -3.239810 57.097400 -10.389600 9.180000
21.080600 2.661870 60.129400 -10.656000 7.360000
21.228100 2.283020 60.550200 -10.656000 7.890000
21.370600 2.298340 60.956500 -10.656000 8.030000
-19.275300 -1.778220 64.822800 -10.656000 7.410000
-19.248700 -3.090720 66.130300 -10.656000 9.200000
21.173500 1.448160 66.049000 -10.744800 6.330000
21.305000 1.457150 66.459200 -10.744800 5.980000
21.436500 1.466150 66.869400 -10.744800 5.940000
21.569300 1.256630 67.283700 -10.744800 5.970000
21.431100 1.891490 68.668900 -10.744800 5.580000
-28.883000 -0.408123 69.655500 -10.212000 14.220000
-17.138400 1.386890 76.073900 -10.744800 6.040000
-17.823100 1.152040 76.363000 -10.833600 6.260000
-17.921000 1.158370 76.782600 -10.833600 5.210000
21.671900 3.081000 76.652200 -10.833600 8.970000
-13.373500 1.888900 89.475400 -10.922400 10.680000
19.468700 0.000000 109.892000 -11.011200 10.480000
20.390300 1.992210 110.145000 -11.011200 4.930000
-55.980800 -12.301700 102.234000 -9.590400 5.540000
-56.186600 -12.346900 102.610000 -9.590400 7.140000
-56.410500 -12.029000 103.019000 -9.590400 7.590000
-56.017800 -12.072900 103.720000 -9.590400 7.470000
-60.334600 -3.707420 142.394000 -10.123200 6.680000
-59.400300 -3.717750 143.252000 -10.123200 6.020000
-60.670700 -3.728080 143.187000 -10.212000 4.470000
-6.257370 3.391030 162.293000 -11.100000 6.340000
-6.274660 2.392700 162.742000 -11.100000 6.620000
-6.291520 1.893990 163.179000 -11.100000 4.590000
-5.113620 0.897872 165.815000 -11.100000 4.960000
-5.126900 0.900204 166.246000 -11.100000 5.020000
-5.140250 0.386803 166.679000 -11.100000 5.550000
-6.441340 0.387802 167.065000 -11.100000 8.590000
-48.494500 -14.363900 171.522000 -10.567200 8.900000
-48.586200 -15.503400 171.846000 -10.567200 7.380000
-48.702900 -15.540600 172.259000 -10.567200 4.610000
5.368170 -0.516585 4.295180 -7.281600 2.240000
5.605680 -0.548872 4.683490 -7.370400 5.090000
5.535980 -0.581159 5.401280 -7.992000 3.800000
5.843530 -0.613445 5.701350 -8.080800 4.170000
6.724700 -0.341777 9.487810 -9.324000 14.540000
6.900460 0.102613 9.896580 -9.412800 13.260000
4.879110 -1.981910 11.332200 -10.300800 8.960000
5.863070 -1.981910 10.855800 -10.034400 6.980000
7.146680 0.144923 10.249700 -9.412800 6.780000
7.393120 0.149920 10.603100 -9.412800 7.240000
-8.593190 0.862996 10.749100 -8.613600 4.020000
6.806230 0.330467 11.987400 -9.945600 4.840000
-8.945120 0.933851 11.014200 -8.613600 10.690000
7.018930 0.340794 12.362000 -9.945600 4.840000
-9.216190 0.962150 11.348000 -8.613600 8.350000
4.518600 -1.796550 13.820100 -10.656000 4.830000
6.760590 0.351121 12.992700 -10.212000 4.310000
-7.584060 1.941930 12.890400 -9.501600 6.400000
6.115770 -1.210150 14.204500 -10.478400 3.240000
-7.902710 1.997420 13.198200 -9.501600 6.470000
-8.564610 0.791253 12.909500 -9.146400 7.440000
6.641300 -0.184902 14.493000 -10.389600 7.110000
-8.711010 -0.135596 13.352500 -9.235200 6.460000
6.268530 -0.531636 15.117500 -10.478400 8.480000
-8.187090 0.683453 14.164000 -9.590400 8.500000
6.308060 -0.896118 15.550500 -10.567200 6.610000
-8.177470 0.701439 14.664500 -9.590400 8.310000
4.002300 -1.344610 16.710900 -10.833600 7.940000
-7.364720 1.450870 15.515700 -9.945600 5.570000
-8.384820 0.825929 15.036400 -9.679200 7.330000
-8.957900 0.825929 14.702200 -9.501600 6.910000
4.098360 -1.582400 17.111900 -10.922400 6.810000
-7.671190 1.487150 15.844900 -9.945600 8.300000
-9.181850 0.846578 15.069700 -9.501600 7.450000
4.200300 -1.523420 17.537600 -10.922400 4.670000
6.919750 -1.076810 16.688000 -10.567200 10.550000
-7.253450 1.676740 16.495600 -10.212000 6.410000
4.196450 -1.559690 17.979700 -10.922400 6.100000
7.084510 -1.102450 17.085300 -10.567200 9.250000
-7.419420 1.887760 16.873100 -10.212000 6.930000
-7.589520 1.989980 17.259900 -10.212000 4.320000
-7.766930 1.915890 17.663400 -10.212000 4.270000
-7.800130 1.958470 18.116600 -10.300800 6.900000
-6.961020 1.979950 19.375700 -10.478400 6.750000
-7.106050 2.021200 19.779400 -10.478400 7.940000
6.290760 -1.148870 20.574100 -10.922400 12.170000
-7.251070 2.062450 20.183000 -10.478400 9.120000
6.415490 -1.239710 20.982000 -10.922400 11.210000
6.664830 -1.264020 21.355300 -10.922400 10.600000
7.858780 -0.329154 20.980800 -10.656000 5.510000
-7.662320 2.144950 20.946400 -10.478400 8.130000
17.777900 1.781610 14.224400 -7.370400 8.340000
18.113300 1.815230 14.492800 -7.370400 7.580000
18.448700 1.848840 14.761200 -7.370400 9.720000
-6.994340 1.025180 23.522000 -10.744800 7.180000
6.575670 -1.434170 24.516100 -10.922400 8.330000
18.111000 1.777690 18.364600 -8.347200 5.360000
6.687120 -1.458480 24.931600 -10.922400 8.380000
18.232100 1.807320 18.847200 -8.347200 7.920000
6.453700 -1.645090 25.427100 -10.922400 6.860000
18.527000 1.919370 19.152000 -8.347200 9.360000
7.670600 -1.645090 25.086900 -10.922400 6.860000
6.572370 -0.061968 25.894700 -11.011200 8.340000
7.032420 -0.230880 26.219000 -10.922400 8.280000
-7.698360 1.321490 26.448300 -10.744800 7.800000
18.374400 1.493530 21.086200 -8.702400 7.460000
18.657100 1.516510 21.410600 -8.702400 7.280000
18.168400 1.717780 22.370800 -8.968800 4.890000
7.957720 1.743410 28.146000 -10.922400 7.430000
18.439500 1.743410 22.704700 -8.968800 6.970000
18.707200 1.860830 23.034300 -8.968800 5.810000
18.089200 1.820330 24.606000 -9.324000 6.350000
-7.455920 0.815491 30.104500 -10.922400 8.970000
18.336800 2.037490 24.942900 -9.324000 8.060000
18.591500 2.065790 25.289300 -9.324000 8.620000
18.846200 2.094090 25.635700 -9.324000 15.780000
18.246800 1.922880 26.604100 -9.501600 7.100000
18.486600 2.049610 26.953700 -9.501600 14.600000
18.729800 2.076580 27.308400 -9.501600 9.470000
18.976700 1.999800 27.668300 -9.501600 7.860000
19.216300 2.130520 28.017700 -9.501600 8.830000
18.801900 2.051080 28.820100 -9.590400 14.930000
19.037000 2.076710 29.180400 -9.590400 5.220000
19.272000 2.102350 29.540600 -9.590400 5.910000
18.337100 2.238400 30.624400 -9.856800 13.850000
18.561500 2.153630 30.999300 -9.856800 15.950000
18.782500 2.179270 31.368300 -9.856800 13.560000
19.003400 2.204910 31.737300 -9.856800 6.520000
19.224400 2.230550 32.106400 -9.856800 15.240000
18.689300 2.256180 32.916300 -9.945600 15.620000
18.890500 2.636910 33.270500 -9.945600 11.570000
19.102700 2.666540 33.644300 -9.945600 6.940000
19.310800 2.817130 34.010800 -9.945600 7.000000
19.015000 2.022090 34.725900 -10.034400 13.450000
19.221700 2.044070 35.103400 -10.034400 6.330000
19.426100 2.159870 35.476600 -10.034400 7.150000
19.632700 2.182850 35.854000 -10.034400 10.300000
9.632790 0.863497 40.219900 -11.100000 14.320000
9.733710 0.743249 40.641300 -11.011200 13.720000
19.834100 2.228810 36.724000 -10.123200 4.800000
9.596550 0.750911 41.116500 -11.011200 8.170000
20.038600 2.251780 37.102600 -10.123200 9.860000
9.694960 0.626658 41.538100 -11.011200 16.340000
19.770700 1.951020 38.721900 -10.212000 8.130000
8.814410 -2.750800 42.970900 -11.100000 15.470000
19.963500 2.106120 39.099600 -10.212000 9.620000
9.162630 1.715370 43.392700 -11.100000 7.470000
8.997050 1.870500 43.861300 -11.100000 6.390000
9.339390 1.888490 44.229800 -11.100000 8.510000
9.423130 -2.435600 44.626400 -11.100000 8.070000
8.032570 -2.351780 45.340200 -11.100000 10.360000
8.461420 -2.230010 45.707100 -11.100000 8.480000
19.559500 1.234560 42.683800 -10.478400 6.250000
19.740100 1.135980 43.077900 -10.478400 7.800000
19.583900 1.146310 43.621700 -10.478400 6.820000
20.100400 1.007410 43.864200 -10.478400 7.520000
19.750300 2.353900 44.915700 -10.478400 11.230000
19.923500 2.374550 45.309700 -10.478400 15.160000
20.096800 2.395200 45.703600 -10.478400 14.860000
10.130100 0.428776 49.385200 -11.100000 6.240000
20.270000 2.415840 46.097600 -10.478400 18.860000
10.216700 0.432441 49.807300 -11.100000 7.790000
19.828600 1.493690 46.796700 -10.567200 18.290000
19.996600 1.506350 47.193300 -10.567200 12.800000
20.164600 1.519010 47.589900 -10.567200 8.030000
20.334400 1.370480 47.990600 -10.567200 7.130000
20.115700 2.356680 48.511800 -10.567200 14.760000
20.280500 2.375990 48.909400 -10.567200 6.150000
20.445400 2.395310 49.307000 -10.567200 11.430000
20.610300 2.414630 49.704700 -10.567200 7.160000
20.388400 2.433940 50.260900 -10.567200 7.740000
-5.101800 2.007220 56.181000 -11.188800 16.670000
-5.903800 2.022540 56.535400 -11.188800 9.790000
-10.746800 2.569160 56.234400 -11.011200 8.590000
-10.829100 2.410070 56.664800 -11.011200 7.500000
-10.909900 2.428060 57.087700 -11.011200 5.860000
20.957200 2.627110 54.663800 -10.656000 5.360000
21.111300 2.646430 55.065800 -10.656000 5.960000
-21.742100 -1.597000 56.711000 -10.478400 7.660000
-12.286000 2.364870 59.895000 -10.922400 8.710000
-21.451500 -1.986640 57.269800 -10.478400 10.670000
-12.372500 2.381530 60.316800 -11.011200 7.970000
-19.589700 -2.000630 58.387500 -10.567200 6.060000
-12.459000 2.398180 60.738600 -11.011200 8.920000
21.080600 2.661870 60.129400 -10.744800 8.450000
20.875300 2.481450 60.664900 -10.744800 8.290000
21.015400 2.498100 61.072000 -10.744800 7.990000
-17.813200 -1.721590 63.004400 -10.744800 8.780000
-17.930400 -1.732920 63.418900 -10.744800 8.560000
-18.046100 -1.949390 63.827900 -10.744800 6.540000
21.148700 2.000030 64.683200 -10.833600 7.540000
21.298400 2.266450 66.438600 -10.833600 6.930000
21.429800 2.280440 66.848700 -10.833600 8.210000
21.561300 2.294430 67.258900 -10.833600 6.370000
21.425000 2.558820 68.649200 -10.922400 10.140000
21.153700 2.574150 69.183700 -10.833600 6.820000
-27.621900 -0.172912 69.239200 -10.389600 6.840000
-27.781600 -0.173911 69.639400 -10.389600 9.330000
-27.941300 -0.174911 70.039600 -10.389600 8.910000
-11.853500 -1.356240 75.330300 -11.011200 6.400000
-29.207200 -1.592070 70.437300 -10.300800 7.460000
-11.920500 -1.363900 75.755900 -11.011200 6.050000
-29.372200 -1.601070 70.835200 -10.300800 9.060000
-29.537200 -1.610060 71.233200 -10.300800 6.230000
-17.629100 -0.179908 75.531800 -10.922400 8.600000
-17.727000 -0.180908 75.951400 -10.922400 5.610000
-18.266100 -0.181907 76.266700 -10.922400 8.380000
22.033000 1.646040 75.696100 -10.922400 5.440000
22.150600 2.084030 76.100000 -10.922400 11.750000
22.271000 2.095360 76.513600 -10.922400 12.960000
22.395600 1.425200 76.941600 -10.922400 9.770000
19.468400 0.604023 109.890000 -11.100000 5.710000
19.542500 1.299310 110.309000 -11.100000 7.120000
19.618300 0.956501 110.736000 -11.100000 6.180000
-60.649800 -5.531350 143.137000 -10.212000 7.610000
-59.490500 -14.451900 143.470000 -10.212000 8.190000
-61.589800 -14.491800 143.048000 -10.123200 5.830000
-6.258510 1.381610 162.323000 -11.188800 5.520000
-6.275110 1.385280 162.753000 -11.188800 5.200000
-6.291260 2.399020 163.172000 -11.188800 6.810000
-6.307860 2.405350 163.603000 -11.188800 6.140000
-5.126900 0.900204 166.246000 -11.188800 4.860000
-5.140180 0.902536 166.677000 -11.188800 4.870000
-5.153530 0.387802 167.109000 -11.188800 7.160000
-47.510900 -13.950400 171.831000 -10.656000 8.260000
-47.616600 -14.398500 172.213000 -10.656000 5.520000
6.951150 0.046643 5.094040 -7.104000 6.130000
7.183710 0.048975 5.502220 -7.192800 3.720000
6.431130 0.170907 9.693720 -9.679200 5.940000
6.899960 0.177237 9.895870 -9.590400 13.390000
7.146390 0.183567 10.249300 -9.590400 16.820000
7.392820 0.189896 10.602700 -9.590400 15.540000
6.898020 0.362440 11.933900 -10.123200 7.520000
6.650800 -0.275845 14.011600 -10.389600 9.980000
7.449190 -0.275845 13.604000 -10.389600 9.980000
5.181720 -0.763985 15.058400 -10.833600 8.500000
6.416530 -0.283507 14.592300 -10.567200 9.410000
4.358680 -0.784633 15.763900 -10.833600 9.290000
6.589950 -0.291170 14.986700 -10.478400 8.870000
-8.823480 1.024810 13.755400 -9.324000 7.880000
5.321770 -0.784633 15.465400 -10.833600 7.490000
4.449240 -1.918830 16.091400 -10.833600 6.660000
-8.717350 1.311000 14.307400 -9.501600 6.170000
-9.055670 1.051780 14.117400 -9.324000 6.050000
4.437540 -1.915060 16.544500 -11.011200 5.240000
-8.827510 1.344610 14.742700 -9.501600 5.280000
4.550030 -1.908630 16.963900 -10.922400 9.450000
-7.655990 1.854300 15.813500 -10.034400 6.830000
3.970450 -1.076810 17.624000 -10.922400 10.090000
4.065720 -1.045250 18.046900 -10.922400 8.910000
-7.291430 1.830740 16.935100 -10.123200 6.110000
5.358870 -2.441290 18.021900 -10.922400 10.590000
-7.463250 1.814960 17.334100 -10.212000 6.280000
5.480660 -2.496770 18.431500 -10.922400 10.290000
-7.255430 1.856210 17.885900 -10.389600 6.030000
6.570470 -1.055000 19.583400 -10.922400 7.060000
-7.068570 2.107260 19.323300 -10.567200 8.820000
6.553070 -1.076980 20.042500 -10.922400 8.190000
-7.215830 2.151160 19.725900 -10.567200 12.360000
6.566570 -1.215400 20.483900 -10.922400 8.010000
6.263460 -0.118939 21.064100 -11.011200 8.370000
6.386280 -0.121271 21.477100 -11.011200 4.690000
-8.003800 1.471520 20.876700 -10.478400 6.960000
7.430740 -0.194232 21.594100 -10.922400 9.570000
-8.286690 1.217800 21.246400 -10.478400 7.420000
7.993440 -0.197897 21.851600 -10.833600 7.170000
-8.609630 1.240780 21.581500 -10.389600 6.860000
7.511720 1.994950 22.388800 -10.922400 6.060000
7.498720 -0.205226 22.934800 -10.922400 5.610000
17.662600 1.938250 16.326400 -8.080800 6.090000
9.083050 1.537210 22.768200 -10.744800 3.970000
17.981300 1.916070 16.621000 -8.080800 10.710000
6.474290 -0.212556 24.138100 -11.011200 5.660000
-8.252310 1.564180 23.538500 -10.656000 12.800000
18.296800 1.949690 16.912600 -8.080800 4.970000
-8.396170 1.512670 23.948900 -10.656000 4.830000
6.694250 -0.839425 24.958200 -11.011200 7.110000
-8.395970 1.618120 24.399200 -10.656000 10.470000
6.659030 -0.853415 25.413100 -11.100000 8.280000
-7.137190 1.645090 25.243800 -10.744800 7.750000
6.769430 -0.702228 25.834400 -11.100000 6.940000
6.879900 -0.482729 26.256000 -11.100000 8.370000
6.989110 -0.490391 26.672800 -11.100000 8.110000
18.397200 1.294240 22.211800 -9.057600 9.260000
18.278000 1.313560 22.863700 -9.146400 9.100000
18.544100 1.424730 23.196600 -9.146400 9.200000
-7.232570 2.167030 29.202700 -10.922400 7.180000
-7.526170 0.260198 29.652600 -10.922400 5.290000
18.082200 2.009200 24.596400 -9.412800 7.420000
-7.632170 0.263862 30.070200 -10.922400 5.540000
18.336800 2.037490 24.942900 -9.412800 4.780000
18.591500 2.065790 25.289300 -9.412800 9.150000
7.513660 6.318660 30.337700 -11.100000 8.500000
18.846200 2.094090 25.635700 -9.412800 4.560000
19.104700 2.022650 25.987300 -9.412800 6.550000
18.278300 2.049610 27.095400 -9.590400 6.690000
18.515100 2.178990 27.446500 -9.590400 14.990000
18.759300 2.103550 27.808400 -9.590400 17.420000
19.003400 2.025440 28.170300 -9.590400 6.730000
18.582600 1.944640 28.969400 -9.768000 15.510000
18.814900 1.968950 29.331500 -9.768000 5.680000
19.047200 1.993260 29.693600 -9.768000 13.470000
18.579400 2.017570 30.493400 -9.856800 15.700000
18.803200 2.041870 30.860800 -9.856800 13.500000
19.023700 2.179270 31.222600 -9.856800 5.360000
19.250900 2.090490 31.595600 -9.856800 7.150000
19.471300 2.230550 31.957300 -9.856800 5.760000
18.949100 2.022010 32.782700 -10.034400 7.670000
19.164400 2.044990 33.155300 -10.034400 18.070000
19.379800 2.067960 33.527800 -10.034400 11.210000
19.595100 2.090940 33.900300 -10.034400 12.310000
-6.453760 1.424970 39.524900 -11.100000 5.360000
19.491700 2.044070 34.954200 -10.212000 15.620000
-6.523150 1.440300 39.949900 -11.100000 7.150000
19.701300 2.066050 35.330100 -10.212000 14.490000
-6.592550 1.455620 40.374900 -11.100000 6.060000
9.634240 0.479745 40.226000 -11.100000 8.630000
9.734200 0.613998 40.643400 -11.100000 5.060000
19.565900 1.486260 36.905000 -10.300800 5.410000
9.834060 0.750911 41.060300 -11.100000 5.460000
19.767600 1.501590 37.285500 -10.300800 7.010000
9.933820 0.890482 41.476800 -11.100000 7.430000
8.307570 -3.361530 42.147700 -11.188800 9.860000
19.048100 2.297740 38.582900 -10.389600 5.260000
19.238600 2.320720 38.968700 -10.389600 9.400000
19.429000 2.343690 39.354500 -10.389600 11.660000
19.621900 2.263860 39.745200 -10.389600 8.760000
19.559500 1.234560 42.683800 -10.478400 10.610000
19.738900 1.245890 43.075400 -10.478400 12.720000
19.918400 1.257210 43.467000 -10.478400 9.010000
20.097800 1.268540 43.858600 -10.478400 14.140000
19.753100 2.202140 44.922100 -10.567200 7.460000
19.926400 2.221460 45.316200 -10.567200 11.330000
10.027900 2.819730 48.886900 -11.188800 9.350000
20.099600 2.240770 45.710200 -10.567200 9.420000
20.272900 2.260090 46.104300 -10.567200 8.580000
19.987800 2.140290 47.172500 -10.656000 7.320000
20.155800 2.158270 47.568900 -10.656000 5.650000
20.326300 2.015140 47.971300 -10.567200 6.240000
-23.073000 -1.370480 46.735700 -10.034400 11.340000
19.741200 2.356680 48.665400 -10.656000 15.780000
-23.897200 -1.381800 46.803800 -9.945600 15.390000
19.903000 2.375990 49.064200 -10.656000 10.040000
20.064800 2.395310 49.463100 -10.656000 12.960000
20.226600 2.414630 49.862000 -10.656000 16.880000
20.391100 2.266190 50.267700 -10.656000 16.190000
-5.141290 1.846730 56.615900 -11.188800 12.380000
20.497700 2.392090 53.465200 -10.744800 8.350000
20.391900 2.068510 54.440900 -10.744800 17.140000
20.542900 2.083830 54.844200 -10.744800 17.450000
20.691600 2.281600 55.241100 -10.744800 7.510000
21.270900 2.298260 55.482000 -10.744800 10.040000
20.709000 2.331560 56.612100 -10.833600 5.980000
20.856900 2.348220 57.016400 -10.833600 6.450000
-20.095300 -1.456120 57.318900 -10.567200 5.180000
-12.281000 2.932050 59.870900 -11.011200 6.880000
21.002200 2.553960 57.413700 -10.833600 6.920000
-19.903800 -1.466450 57.841500 -10.656000 8.500000
-12.367500 2.952700 60.292500 -11.011200 6.490000
-19.596900 -1.095720 58.409100 -10.656000 6.760000
20.658200 2.221730 58.924700 -10.833600 6.280000
-20.669900 -0.724615 58.958000 -10.567200 6.420000
20.737600 2.267700 60.264700 -10.833600 12.660000
20.877700 2.283020 60.671900 -10.833600 14.230000
21.017900 2.298340 61.079100 -10.833600 9.870000
-18.661400 -1.721590 62.758400 -10.744800 9.250000
-18.418700 -1.732920 63.278800 -10.833600 8.420000
-19.520700 -1.962050 63.843000 -10.744800 9.270000
-20.017800 -1.974710 64.140300 -10.744800 6.590000
21.687300 1.672990 66.330300 -10.922400 7.830000
21.825100 1.031770 66.751800 -10.922400 6.660000
21.945700 1.765930 70.317700 -11.011200 8.060000
-18.161800 1.628050 75.831300 -10.922400 8.810000
22.499700 2.219950 81.373900 -11.011200 8.380000
21.984700 2.034440 81.965800 -11.011200 5.610000
22.097900 1.780960 82.387500 -11.011200 7.520000
21.729000 2.055090 82.924900 -11.011200 9.600000
22.318200 2.265250 83.209100 -11.011200 8.630000
22.431100 2.075740 83.630000 -11.011200 11.830000
-1.020680 2.868030 88.282000 -11.277600 13.290000
-1.709360 2.882030 88.702100 -11.277600 13.170000
-55.479100 -9.546760 108.659000 -9.856800 10.060000
-54.832400 -9.580370 109.467000 -9.856800 10.080000
-55.037800 -9.233960 109.877000 -9.856800 15.140000
-61.274200 -7.433360 142.315000 -10.212000 15.630000
-60.591500 -8.775200 143.000000 -10.212000 11.650000
-49.347700 -14.280200 150.930000 -10.567200 5.400000
-49.481100 -14.318800 151.338000 -10.567200 6.400000
-6.258060 2.386370 162.311000 -11.277600 5.940000
-6.274660 2.392700 162.742000 -11.277600 4.620000
-7.234670 1.893990 163.140000 -11.277600 9.100000
-5.126900 0.900204 166.246000 -11.277600 9.310000
-5.140180 0.902536 166.677000 -11.277600 5.820000
-5.153530 0.387802 167.109000 -11.277600 4.750000
-48.514900 -13.398900 171.594000 -10.744800 7.560000
-48.631800 -13.431200 172.008000 -10.744800 7.610000
-47.751200 -13.463500 172.700000 -10.744800 6.470000
6.431590 0.098948 9.694420 -9.768000 7.130000
6.823980 0.102613 9.949470 -9.768000 13.410000
7.067690 0.106278 10.304800 -9.679200 16.370000
-1.691990 1.493990 12.290600 2.752800 6.790000
7.311400 0.109943 10.660100 -9.679200 15.200000
-1.750330 1.545510 12.714400 2.752800 15.220000
-1.808680 1.597020 13.138200 2.752800 17.850000
5.749580 3.257540 13.075600 -10.744800 5.590000
5.736600 3.353350 13.538800 -10.744800 8.160000
4.386270 -1.949830 14.751000 -11.011200 3.950000
6.677020 -3.624330 13.524700 -10.567200 9.790000
4.513210 -1.857160 15.178000 -11.011200 6.960000
6.862490 -3.725000 13.900300 -10.567200 8.560000
4.639650 -1.768970 15.603200 -11.011200 6.910000
5.709960 -1.768970 15.244100 -10.833600 7.070000
6.632460 -3.825680 14.473700 -10.656000 8.690000
5.860220 -1.815520 15.645200 -10.833600 7.650000
4.215430 -1.862070 16.608500 -11.100000 7.120000
3.863800 -1.745590 17.150600 -11.011200 7.120000
4.199470 -1.565240 17.534100 -11.100000 9.490000
4.438570 -1.559690 17.921500 -11.100000 9.870000
6.008180 -1.639780 17.907500 -11.011200 7.150000
-7.094200 1.814960 17.488400 -10.478400 4.090000
6.306020 -0.629569 18.325600 -10.922400 7.120000
8.544430 1.856210 17.307200 -10.478400 6.290000
-7.905230 1.856210 17.608300 -10.300800 5.930000
6.443930 -0.827338 18.726400 -11.011200 10.070000
8.751920 1.424050 17.727500 -10.478400 6.980000
-8.080900 1.897460 17.999600 -10.300800 5.410000
6.434570 -0.970467 19.178400 -10.922400 10.390000
-7.318400 2.125660 18.763800 -10.567200 6.260000
6.571470 -0.991115 19.586400 -10.922400 8.930000
-7.214970 2.170890 19.262000 -10.567200 9.600000
6.844430 -1.826120 19.890300 -11.011200 8.310000
-7.215830 2.151160 19.725900 -10.567200 11.820000
5.998700 -1.863390 20.609000 -11.100000 9.800000
-7.365390 2.128770 20.134700 -10.656000 11.480000
6.803840 -1.900650 20.809500 -11.011200 11.130000
-7.521350 1.900650 20.561100 -10.656000 8.940000
7.859610 -0.051973 20.983100 -10.922400 4.420000
-7.668830 1.937920 20.964200 -10.656000 10.070000
7.845680 -0.052973 21.447700 -10.922400 8.370000
-7.991810 1.570290 21.336000 -10.656000 9.080000
7.401410 0.000000 22.060100 -10.922400 9.690000
-8.142600 1.599920 21.738600 -10.656000 6.640000
8.313070 0.000000 22.193700 -10.833600 8.150000
-7.123260 0.000000 23.955600 -10.922400 3.930000
6.428850 1.748060 24.534600 -11.188800 6.720000
8.017290 1.697910 24.520800 -11.011200 5.820000
-8.171960 1.839400 26.726600 -10.833600 8.900000
18.357000 1.925830 21.066200 -8.968800 9.960000
18.635400 2.043200 21.385700 -8.968800 8.560000
18.245000 2.195490 22.822400 -9.235200 9.950000
-6.747060 1.677250 28.907800 -11.100000 7.100000
18.513300 2.227770 23.158000 -9.235200 6.870000
-7.239770 1.701560 29.231800 -11.011200 4.840000
18.781600 2.260060 23.493600 -9.235200 6.180000
-7.513110 1.820330 29.601100 -11.011200 10.880000
-7.617490 1.941740 30.012400 -11.011200 5.950000
18.347300 1.750180 24.957000 -9.501600 12.030000
7.319160 -1.410140 30.559800 -11.188800 7.240000
-7.723280 1.968710 30.429200 -11.011200 8.690000
18.598700 1.871610 25.299100 -9.501600 10.270000
18.853500 1.897250 25.645700 -9.501600 9.960000
7.759150 -1.648440 31.328900 -11.188800 12.550000
19.108300 1.922880 25.992200 -9.501600 6.080000
-15.857800 1.456830 31.058300 -11.988000 15.690000
18.582600 1.907120 30.498600 -10.034400 5.920000
18.806400 1.930100 30.866100 -10.034400 5.000000
19.030300 1.953080 31.233500 -10.034400 7.450000
19.254200 1.976060 31.601000 -10.034400 6.040000
18.695900 2.022010 32.927800 -10.212000 10.340000
-14.023000 2.373240 35.151000 -13.941600 9.600000
-18.446600 1.817040 33.080000 -13.586400 8.900000
19.164400 2.044990 33.155300 -10.212000 5.360000
-13.907900 2.400210 35.658700 -13.852800 9.050000
19.379800 2.067960 33.527800 -10.212000 8.260000
19.595100 2.090940 33.900300 -10.212000 6.540000
9.633370 0.735587 40.222300 -11.277600 17.000000
19.075000 1.854430 36.659000 -10.389600 5.860000
9.734200 0.613998 40.643400 -11.277600 10.420000
19.271000 2.002880 37.035600 -10.389600 5.680000
9.834550 0.620328 41.062400 -11.277600 10.960000
19.469600 2.023530 37.417400 -10.389600 7.480000
9.934910 0.626658 41.481400 -11.277600 5.970000
19.668300 2.044180 37.799200 -10.389600 14.590000
7.842810 -0.632988 42.365500 -11.277600 4.780000
9.318350 -0.639318 42.506800 -11.188800 5.450000
19.460200 2.455110 38.850300 -10.478400 13.770000
9.365580 -4.342690 42.722200 -11.277600 6.650000
19.652900 2.479420 39.234900 -10.478400 7.940000
9.457400 -4.385260 43.141100 -11.188800 6.300000
19.845500 2.503730 39.619600 -10.478400 10.370000
19.391000 1.468990 40.852100 -10.567200 4.720000
19.575700 1.482980 41.241200 -10.567200 7.420000
19.762300 1.354450 41.634200 -10.567200 17.320000
19.559500 1.234560 42.683800 -10.656000 9.880000
19.738900 1.245890 43.075400 -10.656000 8.820000
19.918400 1.257210 43.467000 -10.656000 6.250000
20.097800 1.268540 43.858600 -10.656000 11.590000
19.755700 2.050360 44.928100 -10.656000 9.100000
19.929000 2.068350 45.322200 -10.656000 8.580000
10.024200 3.128360 48.868900 -11.277600 10.420000
20.102300 2.086330 45.716300 -10.656000 4.950000
19.824600 1.808030 46.787300 -10.744800 7.500000
19.985100 2.298720 47.166200 -10.744800 9.540000
20.153100 2.318040 47.562600 -10.744800 6.830000
-22.880400 -1.519010 46.345400 -10.123200 8.980000
20.318100 2.498440 47.952000 -10.744800 12.210000
-23.071000 -1.531670 46.731600 -10.123200 6.660000
-22.899800 -1.381800 47.299800 -10.212000 11.780000
17.104700 0.447100 49.707300 -9.945600 10.410000
