VERSION .7
FIELDS x y z velocity SNR
SIZE 4 4 4 4 4
TYPE F F F F F
COUNT 1 1 1 1 1
WIDTH 173
HEIGHT 1
VIEWPOINT 0 0 0 1 0 0 0
POINTS 173
DATA ascii
6.5537162940873 5.60187805573565 1.70421548584811 -4.48672651146009 5.50782024881409
6.23757061715963 5.59117796581296 -2.65857615792304 -3.24900885312627 6.48704553907746
-5.42481234251251 15.7434267309489 4.55268994076565 0.309429414583454 5.48007226636136
6.06070820224979 15.8680165465791 3.07976084228265 0.309429414583454 5.48007226636136
5.06898461878829 15.9714057994644 4.15098200481575 0.464144121875182 7.26820747058525
6.06070820224979 15.8680165465791 3.07976084228265 0.464144121875182 7.26820747058525
-5.23278338604724 15.5999241022071 5.22220316734884 0.618858829166909 9.8955398344029
5.57762706193416 15.7651799791192 4.28488465013238 0.618858829166909 9.8955398344029
6.09647609095129 15.5718914293833 4.28488465013238 0.618858829166909 9.8955398344029
-4.27662705242454 16.6905364250642 1.0712211625331 0.773573536458636 13.2968345780404
-1.19580694731433 17.087745506927 2.14244232506619 0.773573536458636 13.2968345780404
5.75157480004901 16.2568437938366 -0.803415871899821 0.773573536458636 13.2968345780404
6.09364212489175 15.1900754661066 5.49000845798211 0.773573536458636 13.2968345780404
-11.6369071535875 12.7258781510961 -0.803415871899821 2.63015002395936 7.18999192216735
-8.12642911890901 15.1308312211484 -1.74073438911628 2.63015002395936 7.18999192216735
-12.1545147796654 11.931962802801 -2.81195555164937 2.78486473125109 9.79178436690865
-11.6323454856515 12.720889606498 -0.937318517216457 2.78486473125109 9.79178436690865
-8.13827531662806 15.1528879961078 -1.47292909848301 2.78486473125109 9.79178436690865
5.11162202591463 16.571675334143 2.86308201622482 0.309429414583454 5.92910248634267
5.50015258196266 16.3970026082026 3.13575649396051 0.309429414583454 5.92910248634267
6.06818300441349 16.291509615661 2.59040753848912 0.309429414583454 5.92910248634267
-5.57298574991472 16.6141321563519 1.36337238867849 0.464144121875182 13.9309322959743
5.04804169683423 16.3655504356633 3.9537799271676 0.464144121875182 13.9309322959743
5.5469678011286 16.0979358625251 4.36279164377115 0.464144121875182 13.9309322959743
6.13243507241506 16.055810303453 3.68110544943191 0.464144121875182 13.9309322959743
-5.42569336105997 16.6242848833501 1.77238410528203 0.618858829166909 54.9660312011009
6.10390503119246 16.387414063885 1.77238410528203 0.618858829166909 54.9660312011009
6.11280292038829 16.4113026063511 1.49970962754633 0.773573536458636 78.9221730222871
-12.3434523964114 12.3872587471385 -1.77238410528203 2.63015002395936 54.1543219951896
-0.946982471408515 17.4152541817452 -2.18139582188558 2.63015002395936 54.1543219951896
-12.3434523964114 12.3872587471385 -1.77238410528203 2.78486473125109 63.3596385630305
-0.947878981604236 17.4317412376374 -2.04505858301773 2.78486473125109 63.3596385630305
6.10302098423647 16.8084403988742 0.555087329676241 0.464144121875182 17.0322462254043
6.22591831382023 16.7149883255253 1.3877183241906 0.618858829166909 206.147959841903
6.22196011539522 16.7043615814645 1.52649015660966 0.773573536458636 205.86692478084
6.09934443912174 16.7983147595237 0.83263099451436 0.928288243750363 19.3392786532907
6.41088245772702 15.9808840659381 4.8570141346671 0.928288243750363 19.3392786532907
7.4118520982479 16.0683260746746 2.63666481596214 0.928288243750363 19.3392786532907
-0.958429129858992 17.6257612106137 -2.91420848080026 2.47543531666763 12.1398387829544
-0.961888185288755 17.6893741404797 -2.49789298354308 2.63015002395936 210.117537830493
-0.962920530922495 17.7083592454397 -2.35912115112402 2.78486473125109 211.96498440504
-0.96565825843309 17.7587067670854 -1.94280565386684 2.93957943854282 8.17611376041371
6.20110922601558 17.0785869984079 1.12965140776217 0.464144121875182 12.3093698235594
6.3351449509048 17.008233734745 1.41206425970272 0.618858829166909 109.461507002528
6.32670314313648 16.9855696535314 1.69447711164326 0.773573536458636 79.5435267262368
-0.969682512900671 17.832713854398 -3.53016064925679 2.63015002395936 147.927210338914
-0.976478533332342 17.9576944393774 -2.82412851940543 2.78486473125109 143.753716189332
-0.984153822265674 18.0988450010066 -1.69447711164326 2.93957943854282 6.29713942241427
5.71649127871742 17.0419494750543 4.45287160516598 0.464144121875182 11.5012470226633
5.9184070614972 17.1758951376846 3.59102548803708 0.618858829166909 7.64939995551464
-6.74929984429453 17.2393630077057 0.430923058564451 0.773573536458636 5.24400683201138
5.95789996231785 16.8400224971222 4.88379466373043 0.773573536458636 5.24400683201138
6.92779065385797 16.464769853262 4.88379466373043 0.773573536458636 5.24400683201138
-2.42057466795805 18.1964924004468 2.44189733186521 0.928288243750363 6.21453783102159
-1.99908200868605 18.3001102066824 -2.01097427330077 2.63015002395936 27.4205222808656
-1.00521487042684 18.4861631596154 0.430923058564451 2.63015002395936 27.4205222808656
-1.00548713665038 18.4911702063466 -0 2.78486473125109 19.1947002649094
4.52779907430893 18.2776222051812 -0.292151226145389 0.464144121875182 12.8529944046288
4.37751993238402 18.2955442242837 -0.876453678436169 0.618858829166909 7.89955186639498
4.73387055766579 17.3145324202988 5.6969489098351 0.618858829166909 7.89955186639498
5.36594630446173 17.3961845314792 4.82049523139893 0.618858829166909 7.89955186639498
-1.65253187688869 17.6769004634082 6.28125136212588 2.63015002395936 5.85479724711402
-1.16846427724102 18.7938056062485 0.292151226145389 2.63015002395936 5.85479724711402
-1.16804229363378 18.7870183402293 -0.58430245229078 2.78486473125109 6.18825485130403
-6.38517041500663 18.0477037407051 0.297020413247812 0 7.55217118542607
4.85804267856387 18.3467620482421 -2.52467351260641 0 7.55217118542607
6.01520397010885 17.9324689118988 2.97020413247813 0 7.55217118542607
-6.34256777741815 17.9272872550366 2.2276530993586 0.154714707291727 11.8365700889626
6.2186365380146 18.0471954643303 1.48510206623906 0.154714707291727 11.8365700889626
6.78507250607523 17.7645316691165 2.2276530993586 0.154714707291727 11.8365700889626
-16.4702257691548 9.38956785923251 -2.67318371923031 0.309429414583454 10.8324198406715
-5.39057495472122 17.9926480375925 3.71275516559766 0.309429414583454 10.8324198406715
-4.29757860900342 17.9614349478329 5.04934702521282 0.309429414583454 10.8324198406715
3.56413773546559 18.8109834827417 0.148510206623906 0.309429414583454 10.8324198406715
4.60326239221408 18.5822492419342 0.297020413247812 0.309429414583454 10.8324198406715
7.0662438960929 17.6145523225115 2.52467351260641 0.309429414583454 10.8324198406715
14.155201177334 11.5179177448839 5.79189805833235 0.309429414583454 10.8324198406715
17.3333032191026 8.02174260259457 1.33659185961516 0.309429414583454 10.8324198406715
4.60367790830973 18.5839265792214 0.148510206623906 0.464144121875182 8.55840269345781
5.18784020279909 18.3916559527104 1.18808165299125 0.464144121875182 8.55840269345781
4.45517216933199 18.620086421039 -0.148510206623906 0.618858829166909 5.42569330790631
5.51823932370269 17.8899124436219 4.00977557884547 0.618858829166909 5.42569330790631
6.08854331556111 17.6696500329724 4.15828578546938 0.618858829166909 5.42569330790631
4.95172129512307 18.7005463603075 -2.11322720245165 0 11.2520729733866
6.4898453398428 18.3435677364544 0.301889600350235 0 11.2520729733866
6.85940092872868 17.9591367550548 3.01889600350236 0 11.2520729733866
6.31656301773457 18.3313893241638 1.6603928019263 0.154714707291727 22.2822100561419
6.88283046163148 18.0204794568272 2.56606160297701 0.154714707291727 22.2822100561419
-7.82050659338565 17.7419976196 -1.6603928019263 0.309429414583454 7.99400279469872
6.12811971680205 18.2690922628778 2.71700640315212 0.309429414583454 7.99400279469872
6.15213857878926 18.3406970659776 2.11322720245165 0.464144121875182 7.4500493128837
6.89630320289613 18.0557534997577 2.26417200262677 0.464144121875182 7.4500493128837
6.43495430060451 18.6749743866072 0.920276362357977 0 8.9318173674501
6.43243179833518 18.6676537961152 1.07365575608431 0.154714707291727 15.2324644446686
-8.58924604867445 17.8110939049164 -0 0.309429414583454 6.91206954298947
-7.95169917975637 18.0396277701924 -1.5337939372633 0.309429414583454 6.91206954298947
6.86125604676143 18.4207066233874 2.14731151216861 0.464144121875182 11.4137450148041
6.87210858651031 18.4498428995255 1.84055272471595 0.618858829166909 5.3177738028993
-8.86829599407662 17.9912605649323 1.09069791094279 0.154714707291727 5.34844706289044
-7.94627429546427 18.4486909917585 -0.155813987277541 0.154714707291727 5.34844706289044
5.37333141055981 18.4773505111741 5.76511752926902 0.154714707291727 5.34844706289044
6.95040383222253 18.6600454836357 2.6488377837182 0.464144121875182 5.38627523361287
-15.3482651416762 13.4372954865297 0.316497161657504 0.773573536458636 5.19374674282651
-14.3988879164179 14.4499889142497 -0.316497161657504 0.773573536458636 5.19374674282651
-0.479592538165123 20.604428948131 -2.08888126693953 2.78486473125109 7.20126645371419
15.3715612443509 20.6421217295053 0.199636671199349 4.33201180416836 6.07566766462614
15.7311838280662 20.70250333962 -1.61657011800449 4.33201180416836 6.24486534723205
-0.838940071379668 27.0264401448027 3.81257350119733 3.55843826770973 6.22079066721626
3.75665232715646 26.6428549320851 4.65981205701896 3.55843826770973 6.22079066721626
16.8390268955754 21.7163138354318 -2.78517502258605 3.403723560418 5.28973738493697
16.1230781534115 22.092597688314 3.85639618511914 3.55843826770973 17.8529191589396
16.6770414932259 21.5074106811109 4.71337311514562 3.55843826770973 17.8529191589396
16.0854394850412 22.0410234200559 4.28488465013238 3.71315297500145 5.24593845061813
16.839316616403 22.1608247858646 -2.38346708663614 3.55843826770973 10.5779833264462
15.5658160079888 24.567614425405 2.49058920288945 2.93957943854282 7.53834783959547
16.9807791699949 23.7416767554183 0.226417200262676 2.93957943854282 7.53834783959547
16.7884897835488 27.5994811862627 1.25381567887396 2.01129119479245 11.2411796120056
15.0453355226621 28.6134898532151 0.250763135774792 2.16600590208418 12.4378472183538
16.7884897835488 27.5994811862627 1.25381567887396 2.16600590208418 12.4378472183538
15.1845498172391 28.8782501039452 -1.01279091730402 2.01129119479245 12.5832110766327
16.9392232693876 27.8472798900284 1.77238410528203 2.01129119479245 12.5832110766327
15.1914067413288 28.8912907255764 -0.253197729326004 2.16600590208418 15.0415767476384
16.9392232693876 27.8472798900284 1.77238410528203 2.16600590208418 15.0415767476384
-5.25856387199842 33.486857288935 0.26293610353085 1.701861780209 21.9694029989431
14.7204347126914 30.5250360163335 0.788808310592554 1.85657648750073 16.2722630876041
16.717850976395 29.8481533946952 -0.265370697082061 1.85657648750073 29.5964308056195
16.8712257559949 30.1219896643713 -0.267805290633273 1.701861780209 15.8481781241127
16.8712257559949 30.1219896643713 -0.267805290633273 1.85657648750073 11.1748705096906
-9.00425573034973 39.003331105843 3.4279077201059 0.773573536458636 5.00822643407566
14.7249288801204 37.6110707900515 2.82656311295665 0.773573536458636 21.9941681562909
14.7249288801204 37.6110707900515 2.82656311295665 0.928288243750363 17.442665742325
14.8305500574821 37.880853117085 3.16497161657506 0.773573536458636 22.0776074149929
16.7617294027896 37.1680166179687 1.58248580828753 0.773573536458636 22.0776074149929
14.8305500574821 37.880853117085 3.16497161657506 0.928288243750363 16.4434937635134
16.7561735189588 37.1556968162592 1.89898296994503 0.928288243750363 16.4434937635134
-20.8768085173999 48.4692290890923 5.34880203201184 0 8.59967929673328
16.5427808329419 50.6869598093033 2.06940451852984 -0.154714707291727 5.5757598264984
-20.7072595735193 48.0755910195609 10.3470225926492 0 9.24304694973791
16.5308149012393 50.6502962818459 2.89716632594178 0 9.24304694973791
-21.3011135709111 48.3247858379879 9.57525643691514 0 5.39318295542677
-21.6458931389625 47.9983238344032 10.4078874314295 0.154714707291727 7.59698002177813
13.6534114639562 59.1418706887738 10.0207870567869 -0.309429414583454 6.99876754595329
16.2474420479209 59.426395094412 5.27576422547549 -0.464144121875182 5.87218672348275
16.2361140431909 59.3849619578767 5.75537915506417 -0.309429414583454 9.85266385056896
-1.07785304479329 2.82201178126536 -0.852107742924053 0 5.22731079225949
-0.599720997311056 3.03398439612686 -0.535610581266548 0 5.22731079225949
6.75375878917094 4.5392706231236 2.36642493177766 1.97261251796952 11.0159805139225
6.18465491758829 15.0510705005343 1.26598864663002 -1.24586053766496 11.628165267439
-12.5188537352791 12.2896306278685 -1.09069791094279 1.0382171147208 15.1048449613165
-11.9962332463411 12.8437680715693 0.272674477735696 1.0382171147208 15.1048449613165
-12.5245232898801 12.2951963716134 -0.954360672074938 1.14203882619288 10.1935832871567
-11.9846767926603 12.8313951535242 0.818023433207091 1.14203882619288 10.1935832871567
-8.37011473514426 15.2599167767301 -2.45407029962127 1.14203882619288 10.1935832871567
-1.10263473370289 17.7349904858368 -2.0815774862859 1.0382171147208 81.6258276588145
-1.10360943820925 17.7506678217836 -1.94280565386684 1.14203882619288 70.9468642515615
6.49471394099797 17.0043210862383 0.282412851940542 -1.34968224913704 8.96856440267232
-1.82771424135054 18.0331974360706 -1.69447711164326 0.934395403248721 10.1288789905394
-1.25976069459033 18.0016265979519 -2.40050924149462 0.934395403248721 10.1288789905394
-1.12091802738151 18.0290625203275 -2.25930281552435 1.0382171147208 161.855304622782
-1.12091802738151 18.0290625203275 -2.25930281552435 1.14203882619288 134.887356467606
-1.12091802738151 18.0290625203275 -2.25930281552435 1.24586053766496 8.2129627394922
-1.8578155392558 18.3301927955895 -1.86733325377928 0.934395403248721 5.84552304760612
-1.85922655585658 18.3441146332443 -1.7236922342578 1.0382171147208 67.7789662195521
-1.02252929150886 18.804579870861 -0 1.0382171147208 8.46005443631889
0.5828769472586 18.7773709520912 -1.31468051765425 1.0382171147208 8.46005443631889
-1.02249853066636 18.8040141709592 -0.146075613072694 1.14203882619288 6.92461219866376
-1.8200802477399 17.9578764089146 6.38593888482798 1.0382171147208 6.54672772721782
-0.319728358776747 20.6075295719268 -2.08888126693953 1.14203882619288 5.54024087136185
16.9234462674864 22.2715408261545 -3.94404155296276 -0.20764342294416 5.40287959700679
17.0920487957647 22.4934245980879 -4.20941225004482 -0.31146513441624 7.06380414248211
17.1114845593473 22.5190023908895 -3.98786423688457 -0.20764342294416 6.07248077900269
17.0246245401601 26.330533043418 -4.67198502477502 -0.62293026883248 6.4887304747984
-32.3681327748835 51.0868049111934 -7.0846672340257 -0.934395403248721 5.19861164568453
