VERSION .7
FIELDS x y z velocity SNR
SIZE 4 4 4 4 4
TYPE F F F F F
COUNT 1 1 1 1 1
WIDTH 371
HEIGHT 1
VIEWPOINT 0 0 0 1 0 0 0
POINTS 371
DATA ascii
4.74731460666524 6.24754612067843 -0.0608648387802893 -4.33201180416836 8.8883250189002
4.80832226364287 6.20101363022347 -0 -4.17729709687663 9.04639575999324
1.12944062273616 8.01019632517891 -1.07609034963552 -2.93957943854282 6.3574092395664
-0.459015595966146 8.44141630757521 -0.591606232944414 -4.48672651146009 7.24880527613882
5.24287858005914 6.62558152231769 -0.657340258827127 -4.02258238958491 8.4668337315378
5.9672027475599 5.98838007850624 -0.591606232944414 -2.78486473125109 9.56136541453969
4.04783014083034 7.37977351923908 0.98601038824069 4.79615592604354 7.98363000389901
5.43705926820948 6.87097343055168 -0.681686194339243 -4.02258238958491 6.24686343373365
5.90044153015271 6.45259938567455 0.886192052641014 -4.02258238958491 6.24686343373365
4.54747661222384 7.32479975671657 1.70421548584811 4.64144121875182 8.73949372029213
4.17528752183485 7.61214656169479 1.36337238867849 4.79615592604354 6.15266643845775
5.81644467792369 6.49590346488103 -2.61231888045003 -4.33201180416836 10.1710779253588
5.75664524980304 6.42911845550904 -2.89473173239057 -4.17729709687663 10.0861502145243
5.66325895923166 7.45294434278054 -1.02252929150886 -4.48672651146009 11.5188719740242
-1.80526829206938 8.76756637087619 2.9215122614539 4.64144121875182 5.69606579849757
0.143302834418818 9.23633239580342 -1.82594516340869 4.64144121875182 5.69606579849757
4.16202767174311 8.44357522243318 -0.219113419609043 4.79615592604354 8.56003999068802
4.64677658193367 8.12565990018626 1.02252929150886 4.79615592604354 8.56003999068802
5.91025659205312 7.62211425855493 -1.2830308014885 -4.48672651146009 9.9997992406731
5.95783386174628 7.68347189676627 -0.377362000437795 -4.17729709687663 14.5901170868413
6.46244849793175 7.21737142083772 0.905668801050708 -4.17729709687663 14.5901170868413
5.93192992912315 7.65006510111803 -0.981141201138266 -4.02258238958491 6.85448938924694
4.52339859525239 8.24680285703867 2.49058920288945 4.64144121875182 12.5680009785563
3.93856217159277 9.14407353104074 1.3244188918591 4.64144121875182 12.5807683288245
4.20998322921173 8.92527016557705 1.86976784733049 4.64144121875182 12.5807683288245
4.86251930822968 8.3288818302482 2.80465177099574 4.64144121875182 12.5807683288245
-7.22402738620653 10.100274042705 -1.8502910989208 4.33201180416836 6.00116640763361
-2.02502775850264 12.2658983747895 -1.75290735687234 4.33201180416836 6.00116640763361
-2.49064927769043 12.6001775469236 -0.798546684797399 4.17729709687663 8.56297900405076
-2.08550088565742 12.6321932213524 -1.29763836279577 4.17729709687663 8.56297900405076
-2.08550088565742 12.6321932213524 -1.29763836279577 4.33201180416836 49.9569561902513
-2.08550088565742 12.6321932213524 -1.29763836279577 4.48672651146009 15.2133456534211
-2.03583043717975 12.3313318278731 -4.19237009518634 3.24900885312627 6.85458812734708
3.24352178837051 12.6586017182855 1.73829979556507 3.24900885312627 6.85458812734708
3.92388934200994 12.3634285180402 2.35181737047039 3.24900885312627 6.85458812734708
4.19123488347464 12.4948696043993 0.30675878745266 3.403723560418 7.7384793673901
4.69853806075885 12.3016118256901 0.613517574905318 3.403723560418 7.7384793673901
5.29776253100319 12.0187725810193 1.12478222065975 3.403723560418 7.7384793673901
5.6761631296484 11.7703782088527 1.73829979556507 3.403723560418 7.7384793673901
-3.03045062068658 12.6655604558457 -2.04505858301773 4.17729709687663 15.6714752994481
-2.14084208685748 12.9674032188492 -1.02252929150886 4.17729709687663 15.6714752994481
-2.14084208685748 12.9674032188492 -1.02252929150886 4.33201180416836 72.1839150991577
-1.72802004140658 12.990263827639 -1.43154100811241 4.33201180416836 72.1839150991577
-2.1394810221359 12.9591590446712 -1.12478222065975 4.48672651146009 21.1583817997411
-1.83117150935774 12.9869981650697 -1.32928807896152 4.48672651146009 21.1583817997411
3.16784864935322 12.7878335292316 2.93125063565874 3.09429414583454 7.93311239185679
3.30944448735297 12.9158804557385 2.09375045404196 3.24900885312627 19.9372560669158
4.80634563050894 12.5838712982722 0.837500181616785 3.403723560418 15.161345029292
5.42735023380197 12.3127618114012 1.04687522702098 3.403723560418 15.161345029292
5.70753648027996 12.1001206638829 1.77968788593566 3.403723560418 15.161345029292
4.81040801458644 12.5945073453494 0.628125136212587 3.55843826770973 12.4632565455019
5.31588505475031 12.3417739026168 1.25625027242518 3.55843826770973 12.4632565455019
-2.6921542059263 13.0748658162247 1.98906293133986 3.71315297500145 8.53164789293268
0.521165201446109 13.4278220055016 1.25625027242518 3.71315297500145 8.53164789293268
-3.09868064540877 12.950723163043 -2.19843797674406 4.17729709687663 14.9186568424936
-3.10260420689341 12.9671214190801 -2.09375045404196 4.33201180416836 22.2950559096582
-2.30201668703656 13.2921611959701 -0.418750090808392 4.33201180416836 22.2950559096582
-1.87323180959201 13.2852973900048 -1.46562531782937 4.33201180416836 22.2950559096582
-0.104574087273618 13.4814949022402 0.628125136212587 4.33201180416836 22.2950559096582
-1.87323180959201 13.2852973900048 -1.46562531782937 4.48672651146009 5.74846303300354
4.49630130875941 12.7088094248382 2.99941925509267 2.78486473125109 8.20168418728728
4.0053375945303 12.9851452012078 2.46380867382612 2.93957943854282 16.599920108797
4.65042304613286 12.8078141632433 2.2495644413195 2.93957943854282 16.599920108797
3.25255357886638 13.1297667014306 2.78517502258605 3.24900885312627 21.7107995961936
5.43092013013498 12.6088483176287 1.49970962754633 3.55843826770973 42.3132775910822
5.98727787339436 12.4155214361699 0.856976930026477 3.55843826770973 42.3132775910822
5.41552298594005 12.573101105181 1.82107597630626 3.71315297500145 43.1776437918654
5.98420332518828 12.4091458979092 0.964099046279786 3.71315297500145 43.1776437918654
5.60164594193276 12.4212761377166 2.2495644413195 3.86786768229318 9.24231658917737
6.30478564618051 12.249378323348 0.964099046279786 3.86786768229318 9.24231658917737
4.47845403224904 12.6583640431017 4.38226839218085 2.78486473125109 6.05628428848274
4.77327971647052 13.1461759395355 1.97202077648138 2.93957943854282 15.5677054783001
4.43744555171964 13.2288705087778 2.19113419609042 3.09429414583454 12.6472889870488
4.99024697631009 13.0653578672886 1.97202077648138 3.09429414583454 12.6472889870488
5.48972244945506 12.7453683745004 2.62936103530851 3.09429414583454 12.6472889870488
6.12612552222398 12.7034429251768 0.766896968631647 3.55843826770973 63.4111566662991
6.2326979485619 12.6443786822174 0.87645367843617 3.71315297500145 61.9122512555462
6.22196011539522 12.6225946602888 1.20512380784973 3.86786768229318 5.68317120726889
4.67179229575035 12.8666675998433 4.59164343758504 2.93957943854282 7.85930116167997
4.8391418115555 12.9918503277117 -4.03168692080638 3.09429414583454 5.9862682492083
4.58044134387382 13.6551682054278 1.00792173020159 3.24900885312627 7.17024638380279
4.82760243917483 12.9608700827254 -4.14367822416211 3.24900885312627 7.17024638380279
5.82287183855133 12.9118298034067 2.79978258389332 3.24900885312627 7.17024638380279
6.26849364250125 12.9986646413735 0.447965213422931 3.55843826770973 12.0059939001125
6.26679462142034 12.9951414655502 0.559956516778664 3.71315297500145 9.76220556181728
-4.5446458132546 13.5484549097185 3.66162870102222 3.09429414583454 7.88757193305136
-4.0927107997627 13.6606402022644 3.77605459792916 3.09429414583454 7.88757193305136
-1.66602990967168 14.2219428124048 3.54720280411527 3.09429414583454 7.88757193305136
-1.32449963687318 14.1679858478183 3.8904804948361 3.09429414583454 7.88757193305136
3.50486540778367 14.6483445098435 0.350581471374468 2.93957943854282 6.74637791856974
3.96128603826691 14.4887391195312 1.16860490458156 2.93957943854282 6.74637791856974
5.41908801243581 13.8416765549483 2.45407029962127 2.93957943854282 6.74637791856974
-4.21302728081654 14.0622322615358 3.38895422328652 3.09429414583454 19.3474974642858
4.19887019692591 14.4387141703288 0.934883923665248 3.09429414583454 19.3474974642858
4.5377732888703 14.2976599995765 1.40232588549787 3.09429414583454 19.3474974642858
5.43246859442731 13.8758538348925 2.22034931870496 3.09429414583454 19.3474974642858
4.67090282341889 14.3116121814503 0.584302452290779 3.24900885312627 7.45476667040739
5.44448300190765 13.9065415709028 1.98662833778865 3.24900885312627 7.45476667040739
3.5778834371125 14.9535183537986 0.357885252028103 2.93957943854282 5.08959180206168
5.40708451175648 14.1567129843759 2.62449184820608 2.93957943854282 5.08959180206168
4.1672814743796 14.7736252734887 0.95436067207494 3.09429414583454 21.2609046467823
4.63231023238843 14.5955279162344 1.43154100811241 3.09429414583454 21.2609046467823
5.09003078382077 14.3869876051493 1.90872134414988 3.09429414583454 21.2609046467823
5.41428385639641 14.1755621544826 2.50519676419672 3.09429414583454 21.2609046467823
5.85153240543509 13.9069061347489 2.98237710023419 3.09429414583454 21.2609046467823
5.41428385639641 14.1755621544826 2.50519676419672 3.24900885312627 14.9361936139996
5.87726577364835 13.96806473586 2.62449184820608 3.24900885312627 14.9361936139996
5.07792311573698 14.7367144650336 1.82594516340869 3.09429414583454 10.7859307865972
5.05681917034457 14.6754683984341 2.312863873651 3.24900885312627 9.81317868087007
5.40467554431763 14.5101628503521 2.55632322877216 3.24900885312627 9.81317868087007
5.91864044630322 14.4036936274791 1.94767484096926 3.24900885312627 9.81317868087007
-1.69413729549665 15.5085679717647 -1.70421548584811 4.48672651146009 6.29112090686591
2.72692095528487 17.3651999083027 3.33052397805744 2.16600590208418 5.74620390299458
3.58673067418005 17.4195156356973 1.94280565386684 2.16600590208418 5.74620390299458
2.76610128407991 17.6147026453294 3.67136707522706 2.16600590208418 5.23791802649656
3.65265428057073 17.7396838882373 1.83568353761353 2.16600590208418 5.23791802649656
-9.77459904910817 20.7223954404725 -0.177725329238445 2.78486473125109 13.7044583565306
-9.90849766621924 21.0062638711639 -0.180159922789656 2.78486473125109 8.81866281257768
14.781461226611 26.9487187803356 1.19295084009367 4.64144121875182 5.95762107375729
16.6887465461737 25.8110592307444 1.19295084009367 4.64144121875182 5.95762107375729
14.7885848733983 26.9617062076961 0.715770504056206 4.79615592604354 6.15684355907469
16.6967893731917 25.823498384516 0.715770504056206 4.79615592604354 6.15684355907469
14.9394888006779 27.236825658795 0.723074284709841 4.64144121875182 6.21672125660209
16.8712257559949 26.0932842426734 0.241024761569946 4.64144121875182 6.21672125660209
14.9394888006779 27.236825658795 0.723074284709841 4.79615592604354 7.44195693453531
16.630208245195 26.2475506438247 0.241024761569946 4.79615592604354 7.44195693453531
-7.24056026381175 31.3636104769195 -3.00915762929751 4.17729709687663 5.00153146264889
0.748455021681935 32.1553966917803 -3.2599207650723 4.17729709687663 5.00153146264889
3.00471870851938 32.1410523293737 1.75534195042355 4.17729709687663 5.00153146264889
17.0436838012728 27.452933045447 1.00305254309917 4.17729709687663 5.00153146264889
-7.25022144381327 31.4054593774569 -2.50763135774793 4.33201180416836 18.9501323357184
-5.76685806829992 31.8064242589263 0.501526271549584 4.33201180416836 18.9501323357184
-3.49279010118235 31.9738977704364 3.2599207650723 4.33201180416836 18.9501323357184
0.751927226526744 32.3045708184086 -1.00305254309917 4.33201180416836 18.9501323357184
3.00770890610697 32.1730380513201 -1.00305254309917 4.33201180416836 18.9501323357184
17.2275399380349 27.1903225939899 3.00915762929751 4.33201180416836 18.9501323357184
1.00293183796521 32.3094321189204 -0.501526271549584 4.48672651146009 6.10504576198205
16.9471395051344 26.7477650231771 6.51984153014461 4.48672651146009 6.10504576198205
-4.81061213475411 32.2853454288354 0.253197729326004 4.17729709687663 23.4441391859981
-3.54092723419508 32.4145574508992 1.51918637595603 4.17729709687663 23.4441391859981
-1.22884475606989 31.6611865318616 -7.84912960910614 4.17729709687663 23.4441391859981
3.0251821925802 32.3599473328146 3.03837275191205 4.17729709687663 23.4441391859981
14.6412238865355 29.0649837734542 2.53197729326004 4.17729709687663 23.4441391859981
16.433574813585 28.1486394180971 -1.77238410528203 4.17729709687663 23.4441391859981
-4.81061213475411 32.2853454288354 0.253197729326004 4.33201180416836 102.87355332752
16.44001930162 28.159678012681 -1.51918637595603 4.33201180416836 102.87355332752
16.445470357454 28.1690149832951 -1.26598864663002 4.48672651146009 29.8868247652851
16.5980964102894 28.4304441474184 -1.5337939372633 4.17729709687663 40.761852414781
-1.23816245560906 31.9012570710411 -8.18023433207091 4.33201180416836 186.92152658272
16.3427410809003 28.577994555731 -1.5337939372633 4.33201180416836 186.92152658272
-1.2406605710321 31.9656210177449 -7.9246020091937 4.48672651146009 54.5522533827804
16.3427410809003 28.577994555731 -1.5337939372633 4.48672651146009 54.5522533827804
16.4919188661776 28.838856666584 -1.80646841499899 4.17729709687663 11.4819834275059
-1.29017930612029 33.2414712833742 -0.516133832856853 4.33201180416836 48.3416529640361
16.4983862340518 28.8501659324522 -1.54840149857056 4.33201180416836 48.3416529640361
16.4983862340518 28.8501659324522 -1.54840149857056 4.48672651146009 15.6348791753469
-4.71559082429954 33.4438194726376 2.89229713883936 4.02258238958491 12.6150442406177
0 33.5280981126427 -4.99578596708616 4.02258238958491 12.6150442406177
14.5461629792956 30.163657358545 5.25872207061702 4.02258238958491 12.6150442406177
16.4070674071761 27.5307926440154 11.0433163482957 4.02258238958491 12.6150442406177
-4.37078835130204 32.8570806227273 7.09927479533297 4.17729709687663 7.57402919720759
0 33.4010435394252 5.78459427767871 4.17729709687663 7.57402919720759
16.5407006544322 27.7550270625895 10.2545080377032 4.17729709687663 7.57402919720759
24.7427424799534 21.1491953446654 9.46569972711062 4.17729709687663 7.57402919720759
-4.49771018928222 33.8112062239034 2.65370697082062 3.86786768229318 7.45634960150758
0.262158029884791 33.7969207823511 -5.30741394164125 3.86786768229318 7.45634960150758
2.6472328021328 34.0258318382363 2.38833627373856 3.86786768229318 7.45634960150758
14.5090758378606 30.7596051231774 3.71518975914887 3.86786768229318 7.45634960150758
16.9723785031382 29.0715421307703 -6.10352603288743 3.86786768229318 7.45634960150758
-5.82391216469216 33.628070430677 2.38833627373856 4.02258238958491 78.0942901929307
-4.46711480536357 33.5812076709423 4.77667254747712 4.02258238958491 78.0942901929307
0.261113515432895 33.6622639411998 -6.10352603288743 4.02258238958491 78.0942901929307
2.38250952191952 34.045392084254 2.38833627373856 4.02258238958491 78.0942901929307
-5.80839851777759 33.5384924981245 3.44981906206681 4.17729709687663 41.3543815244444
-4.45105057049803 33.4604459644272 5.57278463872331 4.17729709687663 41.3543815244444
0 34.009801366703 3.71518975914887 4.17729709687663 41.3543815244444
14.6849145413694 31.1323875902169 2.67805290633274 3.86786768229318 21.7358625201758
15.7577882330125 29.3398774152256 -9.10537988153131 3.86786768229318 21.7358625201758
16.3184215257204 30.3837366066116 1.60683174379964 4.02258238958491 259.223030775348
16.3184215257204 30.3837366066116 1.60683174379964 4.17729709687663 140.87636361904
15.9687580703409 29.7326882002162 -8.64767629390353 3.86786768229318 16.0182147501651
15.9687580703409 29.7326882002162 -8.64767629390353 4.02258238958491 197.01232848942
15.9687580703409 29.7326882002162 -8.64767629390353 4.17729709687663 108.777875712246
16.0744814206266 30.570738042498 -6.54418746565672 4.02258238958491 13.8905463236008
15.9699496801603 30.3719376973234 -7.63488537659951 4.17729709687663 8.85372523643342
-9.70935156583074 34.421078241061 1.11017465935248 3.71315297500145 5.90832393351658
-2.38692115635501 34.1084331015958 -10.5466592638486 3.71315297500145 5.90832393351658
-9.58429129858993 33.9777212141414 5.82841696160052 3.86786768229318 8.21989922983876
-0.799510386256998 34.3488558223843 -9.99157193417232 3.86786768229318 8.21989922983876
14.4956646727801 32.885599551377 3.35973910067198 3.71315297500145 35.656942599207
14.4846635264012 32.8606417931375 3.63971735906131 3.86786768229318 49.0974316963004
14.6319155618183 33.1947052237677 3.10654137134598 3.71315297500145 91.4405730135305
14.6217139308043 33.1715612866064 3.38895422328652 3.86786768229318 131.912868156593
14.6217139308043 33.1715612866064 3.38895422328652 4.02258238958491 10.8151228007405
-12.8511731618735 39.3759008316885 0.964099046279788 3.24900885312627 11.4491104960869
-9.91157912207919 40.0106311426318 4.17776253387907 3.24900885312627 11.4491104960869
-2.88174994818305 41.1793975940234 3.53502983635921 3.24900885312627 11.4491104960869
-1.27786356003176 41.1663528738436 4.499128882639 3.24900885312627 11.4491104960869
14.4506056099522 38.7961569510074 1.60683174379964 3.24900885312627 11.4491104960869
15.7464773722619 38.320867408622 0.321366348759928 3.24900885312627 11.4491104960869
-12.8407251349931 39.3438881535349 1.92819809255957 3.403723560418 5.6507392608416
-9.91910699682547 40.0410193397145 3.85639618511914 3.403723560418 5.6507392608416
-2.55976954756787 41.1718288789945 3.85639618511914 3.403723560418 5.6507392608416
-1.27673495481387 41.1299948759257 4.82049523139893 3.403723560418 5.6507392608416
14.4506056099522 38.7961569510074 1.60683174379964 3.403723560418 5.6507392608416
15.7450561358227 38.3174086659549 0.642732697519855 3.403723560418 5.6507392608416
14.5670968511009 39.1089059524686 0.971402826933423 3.09429414583454 5.72316352952163
15.8643368641244 38.6076920649394 -0.647601884622278 3.09429414583454 5.72316352952163
14.5640273487461 39.1006651286353 1.29520376924456 3.24900885312627 34.0898126150692
15.8662461732459 38.6123385887274 -0 3.24900885312627 34.0898126150692
14.5600798948761 39.0900672309392 1.6190047115557 3.403723560418 14.6615662308447
15.8657688675063 38.6111770102025 0.323800942311139 3.403723560418 14.6615662308447
14.6735313137743 39.3946550920085 1.30494214344941 3.24900885312627 14.5287443992064
15.9855412572552 38.902656923981 -0 3.24900885312627 14.5287443992064
14.6695541797999 39.3839775108711 1.63117767931176 3.403723560418 6.88877524842808
15.9850603627507 38.901486611783 0.326235535862351 3.403723560418 6.88877524842808
16.9637375278171 38.4847947181071 0.326235535862351 3.403723560418 6.88877524842808
-22.2644524042885 36.6017040947152 6.38350429127677 1.85657648750073 8.71458494387933
-20.6484913848944 37.645154226561 5.71155647114237 1.85657648750073 8.71458494387933
-13.29221039062 40.7272356836481 6.38350429127677 1.85657648750073 8.71458494387933
-11.8836344788204 40.864421498424 8.06337384161275 1.85657648750073 8.71458494387933
-10.12928214849 40.8894452428949 10.0792173020159 1.85657648750073 8.71458494387933
4.67168926647803 42.765843550418 5.03960865100797 1.85657648750073 8.71458494387933
8.0058105019348 40.5013402067371 13.1029824926207 1.85657648750073 8.71458494387933
-16.444883212656 40.0205185099085 -2.01584346040319 3.09429414583454 9.78380367043138
-14.445139627392 40.8292314133984 0.671947820134394 3.09429414583454 9.78380367043138
-5.70313114092756 42.8728697521172 2.35181737047038 3.09429414583454 9.78380367043138
-4.02185093608433 43.0211723417282 3.02376519060478 3.09429414583454 9.78380367043138
14.0956141822766 40.9070867516159 -2.01584346040319 3.09429414583454 9.78380367043138
4.70109155449228 43.0349996473923 5.41453605789455 1.701861780209 16.1252068077572
6.75818609197725 43.036543570232 2.36885952532887 1.701861780209 16.1252068077572
4.70109155449228 43.0349996473923 5.41453605789455 1.85657648750073 39.2649940957048
6.75818609197725 43.036543570232 2.36885952532887 1.85657648750073 39.2649940957048
4.70109155449228 43.0349996473923 5.41453605789455 2.01129119479245 9.50086465343323
6.76083634001533 43.0534205123005 2.03045102171046 2.01129119479245 9.50086465343323
14.202463897458 41.2171768627521 -1.69204251809205 3.09429414583454 19.9198416471499
14.2063143963208 41.2283514514559 -1.35363401447364 3.24900885312627 9.75935529180516
4.7250647698395 43.2544566186204 6.13517574905318 1.701861780209 13.5045357629097
6.80023105135032 43.3042884504915 3.06758787452659 1.701861780209 13.5045357629097
4.7250647698395 43.2544566186204 6.13517574905318 1.85657648750073 33.8612202697843
6.79632408526186 43.279408650793 3.40843097169621 1.85657648750073 33.8612202697843
4.7250647698395 43.2544566186204 6.13517574905318 2.01129119479245 9.17441796642025
6.80023105135032 43.3042884504915 3.06758787452659 2.01129119479245 9.17441796642025
14.31153374845 41.5337100622861 -1.02252929150887 3.09429414583454 5.47488367678344
4.74770597240898 43.4617200027302 6.86555381441666 1.85657648750073 5.30793659032572
5.81813886870452 43.7374319043154 3.43277690720833 1.85657648750073 5.30793659032572
-16.5318449947091 45.5306530970021 4.52834400525354 2.78486473125109 14.3736752492373
-6.39582641595178 48.0801556394956 3.77362000437795 2.78486473125109 14.3736752492373
-4.47352234482305 47.8526377107799 7.5472400087559 2.78486473125109 14.3736752492373
-16.4755623852196 45.3756441449533 6.03779200700472 2.93957943854282 17.4352627550225
-6.38730374795579 48.0160871083847 4.52834400525354 2.93957943854282 17.4352627550225
-4.45569852023107 47.6619787724586 8.67932601006928 2.93957943854282 17.4352627550225
-2.95194855970291 47.4797120214041 10.1887740118205 2.93957943854282 17.4352627550225
14.0524739775932 46.9043136325964 -0 2.63015002395936 15.7673678562039
16.703004798963 46.0020474074451 1.51918637595603 2.63015002395936 15.7673678562039
14.0524739775932 46.9043136325964 -0 2.78486473125109 147.751944729071
16.703004798963 46.0020474074451 1.51918637595603 2.78486473125109 147.751944729071
14.0524739775932 46.9043136325964 -0 2.93957943854282 65.6204015854028
16.703004798963 46.0020474074451 1.51918637595603 2.93957943854282 65.6204015854028
14.1387244123718 47.1922001250567 -1.14669356262066 2.63015002395936 16.320026169212
15.2726806529843 46.7953821220075 2.29338712524131 2.63015002395936 16.320026169212
16.8055191167592 46.2843839429347 1.91115593770109 2.63015002395936 16.320026169212
14.1387244123718 47.1922001250567 -1.14669356262066 2.78486473125109 132.794061980669
15.2726806529843 46.7953821220075 2.29338712524131 2.78486473125109 132.794061980669
16.7999487182827 46.2690424078109 2.29338712524131 2.78486473125109 132.794061980669
14.1357451744137 47.1822560318107 -1.52892475016087 2.93957943854282 56.1978692284971
15.2726806529843 46.7953821220075 2.29338712524131 2.93957943854282 56.1978692284971
16.7999487182827 46.2690424078109 2.29338712524131 2.93957943854282 56.1978692284971
14.9472585696161 47.0959669753207 4.23132359200573 2.78486473125109 8.85782176739962
16.9003272343258 46.5454966930898 2.69266046764 2.78486473125109 8.85782176739962
14.160090798552 47.2635167971383 -5.00065515418858 2.93957943854282 5.15882944196503
14.9567675047798 47.1259278202712 3.8466578109143 2.93957943854282 5.15882944196503
16.8926768570769 46.5244266508354 3.07732624873144 2.93957943854282 5.15882944196503
14.4674915617478 48.2895583205614 3.52772605570558 2.78486473125109 5.42345201639525
-20.1140068103939 46.6982490728887 0.394404155296275 2.63015002395936 29.7890126825767
-17.6947152076996 47.5057562935982 3.94404155296276 2.63015002395936 29.7890126825767
-16.1311195153817 48.0899402017241 3.54963739766649 2.63015002395936 29.7890126825767
13.7704678789844 48.8183324153825 3.54963739766649 2.63015002395936 29.7890126825767
16.9593786777399 47.9357357922548 -0 2.63015002395936 29.7890126825767
-20.1049279791713 46.6771709492845 1.57761662118511 2.78486473125109 40.5425030956445
-16.1116019830234 48.0317547197368 4.33844570825904 2.78486473125109 40.5425030956445
-7.47923753827429 50.1952268658301 3.15523324237021 2.78486473125109 40.5425030956445
-5.85146218282729 49.9505801486597 7.49367895062925 2.78486473125109 40.5425030956445
13.7704678789844 48.8183324153825 3.54963739766649 2.78486473125109 40.5425030956445
16.9573378234602 47.9299673113807 0.788808310592549 2.78486473125109 40.5425030956445
13.8789065664608 49.2027634992377 1.98419374423744 2.63015002395936 96.0635178644196
16.66522175415 48.3643822267151 0.793677497694972 2.63015002395936 96.0635178644196
13.8855952440318 49.2264758442322 1.19051624654247 2.78486473125109 126.453385476927
16.66522175415 48.3643822267151 0.793677497694972 2.78486473125109 126.453385476927
13.8387066114346 49.0602487506613 -4.36522623732236 2.93957943854282 11.0952910424189
16.6592032129517 48.3469157308439 1.58735499538995 2.93957943854282 11.0952910424189
16.7674623784086 48.661096228106 0.798546684797396 2.63015002395936 43.410481893954
16.7649395338986 48.6537746443923 1.1978200271961 2.78486473125109 70.0165724317571
13.9404736552682 49.4210278773008 -3.59346008158829 2.93957943854282 6.39205725911916
15.1650824456785 49.1645942190588 1.5970933695948 2.93957943854282 6.39205725911916
16.7614069136447 48.6435225758184 1.5970933695948 2.93957943854282 6.39205725911916
14.3572346301157 50.898506782641 4.11446310154757 2.47543531666763 6.9460082583014
16.4578524061903 50.4267397292032 -0 2.47543531666763 6.9460082583014
13.9381609446631 50.9800039134804 4.52590941170233 2.63015002395936 10.6623802263902
16.4578524061903 50.4267397292032 -0 2.63015002395936 10.6623802263902
-48.1092722001361 22.2646655117841 -13.1321976152353 2.47543531666763 5.10626926703802
-22.8644278978811 49.5683235585462 1.69447711164326 2.47543531666763 5.10626926703802
-18.5712774438463 51.1474908659355 4.65981205701897 2.47543531666763 5.10626926703802
13.5411283241746 52.8474175467261 2.54171566746489 2.47543531666763 5.10626926703802
13.9987397132618 52.867289047863 5.11264645754432 2.47543531666763 13.8562996359002
16.6156011233283 52.3525968414065 0.426053871462025 2.47543531666763 13.8562996359002
14.0885553022282 53.2064843468796 4.71337311514562 2.47543531666763 7.43290506437562
16.2806022628915 52.7810651055869 0.856976930026473 2.47543531666763 7.43290506437562
13.511339221335 54.5419860114484 8.37256722261663 2.47543531666763 7.57825904750666
16.2646954824618 54.2882612175256 3.96595289492367 2.47543531666763 7.57825904750666
-1.29609005584468 2.68763772315506 -0.973837420484632 0 5.45054560359761
-0.974620408931193 2.82846005165023 -0.949491484972516 0 5.45054560359761
-0.598884209708478 3.02975109340697 -0.559956516778663 0 5.45054560359761
1.43727129407062 6.71062011856328 2.23982606711465 0.934395403248721 5.63744841960543
1.80473229078131 7.28526475027527 0.642732697519857 1.76496909502536 7.44937547902036
-6.50763804825287 4.37385034622799 -0.304324193901448 0.934395403248721 13.9077979521713
5.75258511034915 5.03634679396285 1.76508032462839 1.34968224913704 6.87113747300013
5.49045895745083 6.00425102339784 -0.632994323315011 1.24586053766496 10.7177652132258
6.3884327157802 5.067998491652 -0.316497161657506 2.0764342294416 10.1624573034199
6.12134049818672 4.73186865325286 2.59527672559155 2.18025594091368 6.86517400481042
6.5039352698272 4.89603160384613 -0.56969489098351 2.28407765238576 6.01248030721899
1.12747440473011 9.01453126016376 0.564825703881087 0.5191085573604 5.61606597526908
5.40429797263432 7.25730944569039 -0.988444981791902 0.5191085573604 5.61606597526908
6.2336732972186 6.39357561312208 1.7650803246284 0.5191085573604 5.61606597526908
6.91161758213077 5.90779904493365 -0.423619277910815 0.5191085573604 5.61606597526908
3.59686221110887 8.35075621672883 -0.423619277910815 0.62293026883248 7.31707069710391
5.10249346671623 7.73350155388023 -1.67986955033599 0.726751980304561 5.08148876852149
-0.857017323784714 12.2465369153031 -2.62936103530851 -0.20764342294416 5.42186361975007
5.44829637862728 10.8156699921376 -3.31104722964775 -0.10382171147208 10.5722144803078
-10.2437963225396 7.71132375366477 -1.09800169159642 1.66114738355328 6.38385547056224
-9.97432373750908 8.11598782173644 0.499091677998374 1.66114738355328 6.38385547056224
-1.96970397615131 12.54319573868 -2.09618504759317 1.66114738355328 6.38385547056224
-10.3281948623034 7.56637366325165 -1.29763836279577 1.76496909502536 32.7158298903629
-1.97456748556312 12.5741668649344 -1.89654837639382 1.76496909502536 32.7158298903629
-10.3360391579824 7.57212034725821 -1.1978200271961 1.86879080649744 16.1954581239682
-1.97456748556312 12.5741668649344 -1.89654837639382 1.86879080649744 16.1954581239682
5.61307300630721 11.8998557269265 0.818023433207092 -0.41528684588832 5.16570108510281
-2.12131543448061 12.8491273420624 -2.04505858301773 1.66114738355328 21.830898902364
-2.12386405154472 12.8645646997842 -1.94280565386684 1.76496909502536 166.200483041374
-2.12627914642778 12.879193293529 -1.84055272471595 1.86879080649744 151.023975585485
-2.12856117361815 12.8930158762013 -1.73829979556507 1.97261251796952 5.67114678645096
6.32339025065766 11.7737014903049 -1.88437540863776 -0.10382171147208 61.3189368950282
-2.17443224324817 13.1708638593029 -1.98906293133986 1.66114738355328 32.9310205405014
-2.17443224324817 13.1708638593029 -1.98906293133986 1.76496909502536 270.300803657604
-2.17690484039034 13.1858407528987 -1.88437540863776 1.86879080649744 154.786024827994
7.59445084580465 11.5103914978052 -0.749854813773166 -0.10382171147208 5.15100807652359
-3.07261964826651 13.3095288597498 -2.03532020881288 1.66114738355328 33.6904996963809
-3.07611359505878 13.3246634325214 -1.92819809255957 1.76496909502536 122.172940868569
-2.34809255037137 13.5582095726559 -1.1783432787864 1.86879080649744 33.5316620508259
5.48299157568758 12.4389925796382 3.83448484315824 -0.31146513441624 5.74928590126135
-3.23849338547971 13.5350609178897 -2.41024761569946 1.66114738355328 10.5236700855882
-3.22924849967945 13.4964225519611 -2.62936103530851 1.76496909502536 29.5800594352832
-1.41581473980791 13.9691786375693 -1.5337939372633 1.86879080649744 9.00172492842462
-2.78076742052263 14.0678832339561 -1.67986955033599 1.76496909502536 7.74700244837483
-1.55075787890567 14.1960359627806 -2.12783476375892 1.76496909502536 7.74700244837483
-1.55075787890567 14.1960359627806 -2.12783476375892 1.86879080649744 7.22303401940727
-1.57561572530219 15.5458598586816 -1.46075613072695 1.86879080649744 8.12294940065722
-1.60712803980823 15.8567770558552 -1.48997125334149 1.86879080649744 12.839810310465
16.6031632721437 24.661084086306 -4.90814059924255 0.31146513441624 7.91944895417689
16.6031632721437 24.661084086306 -4.90814059924255 0.41528684588832 10.3851045663164
16.7538057808817 24.8848370853017 -5.19542263828551 0.41528684588832 7.39892213257381
2.91850706402744 31.2188585249552 -4.67198502477502 0.20764342294416 10.2548781627093
11.7940296291327 29.3998558570101 -1.22946974336185 0.20764342294416 10.2548781627093
0.496642143466515 32.0101967098193 -0.24832854222358 0.31146513441624 9.58495546799258
16.3460766460399 32.4493673588109 -7.18205097607416 0 8.31717717774861
16.4583026402755 32.6721524706769 -7.53263244744863 0 22.7119618301069
16.5690015931711 32.8919061807892 -7.88808310592552 -0.20764342294416 14.2761570896241
16.5966077044795 32.9467083737918 -7.59593187978013 -0.10382171147208 46.3871449588403
16.5966077044795 32.9467083737918 -7.59593187978013 0 8.51961203707715
20.4830044289285 35.0848012322046 -3.79796593989006 -0.31146513441624 29.7483130323974
5.36765283852006 42.9161620907293 -2.35181737047038 -0.934395403248721 5.21859091446931
