VERSION .7
FIELDS x y z velocity SNR
SIZE 4 4 4 4 4
TYPE F F F F F
COUNT 1 1 1 1 1
WIDTH 166
HEIGHT 1
VIEWPOINT 0 0 0 1 0 0 0
POINTS 166
DATA ascii
-8.25714755916984 5.71626401674721 0.155813987277541 4.02258238958491 7.05841799488231
-8.25714755916984 5.71626401674721 0.155813987277541 4.17729709687663 5.57563782159982
-8.22278746897991 7.71822137966205 0.701162942748936 1.85657648750073 6.25946717603757
-8.23643370829163 7.73103025942515 0.262936103530851 2.01129119479245 5.04724828288525
-8.32004565421489 7.63292879875993 0.438226839218085 2.16600590208418 7.46310584209575
-8.45834129157313 7.93932116564808 0.540479768368971 1.85657648750073 7.60632916252095
-8.4672616420419 7.94769414621724 0.0900799613948282 2.01129119479245 8.22341317471044
2.16165891289588 11.4089109691755 -0.180159922789656 2.63015002395936 7.84016896903841
6.6482111451327 9.87475045485505 0.740116439568321 1.85657648750073 7.6219527108498
7.16712576906877 9.43205843827857 1.3877183241906 2.47543531666763 9.18656329159583
7.16034705422153 9.42313753516682 1.48023287913664 2.63015002395936 20.9043370746557
6.93525111845053 9.69652149783863 -0.370058219784161 2.78486473125109 9.55437287989778
7.20144973571117 9.28729097593423 2.03532020881288 2.78486473125109 9.55437287989778
7.51188868511219 9.11348512976378 1.66526198902872 2.78486473125109 9.55437287989778
7.92171106198085 8.84710045134946 1.11017465935248 2.78486473125109 9.55437287989778
7.355734341939 9.6802705024438 1.42423722745877 2.47543531666763 12.46620560547
7.34877723985894 9.67111483872385 1.51918637595603 2.63015002395936 24.4490554210135
7.41017330344076 9.55646962442597 1.89898296994503 2.78486473125109 12.3134843012133
7.54434291480923 9.92848256660902 1.46075613072695 2.63015002395936 7.78396520975943
8.17998824533087 9.52386440885114 0.0973837420484629 2.63015002395936 7.78396520975943
-8.14338441066232 9.8796209373559 1.29763836279577 0.154714707291727 10.3852498831995
9.72434807615077 8.31201865470904 1.39745669839545 0.154714707291727 10.3852498831995
-7.58596528941994 10.3946453414175 0.0998183355996745 0.464144121875182 11.2903177844434
9.0613078759243 9.0934660451391 0.898365020397074 0.464144121875182 11.2903177844434
9.55368985699666 8.56365137954533 0.998183355996748 0.464144121875182 11.2903177844434
9.99361884348385 7.92802358234365 1.69691170519447 0.464144121875182 11.2903177844434
-8.06606527092824 10.4023353562421 0.715770504056204 0 8.90680425615283
-8.06922840869455 10.4064146710899 0.613517574905318 0.154714707291727 16.8741806247284
-7.96972794245847 10.4882964402363 0.511264645754432 0.309429414583454 6.2359565740845
-8.28024452588892 10.2530857243506 0.30675878745266 0.464144121875182 29.093730627362
-7.87252806791134 10.5718397834504 0.204505858301772 0.464144121875182 29.093730627362
-7.87252806791134 10.5718397834504 0.204505858301772 0.618858829166909 9.77943800287708
-8.05875650359149 10.8219217352897 0.314062568106295 0.464144121875182 12.4761625775118
-2.41017510799927 13.9166828053198 0.109556709804521 0.464144121875182 5.81070123619045
0.980179435251634 14.0064889055212 1.5337939372633 0.464144121875182 5.81070123619045
6.6731010152797 12.4248379831345 -0.766896968631647 0.464144121875182 5.81070123619045
6.69923374118668 12.7407232885587 -1.11991303355733 0.464144121875182 10.8725520947443
7.16399273428715 12.5274300280645 0.447965213422931 0.464144121875182 10.8725520947443
7.95042568639407 12.0499182999066 0.223982606711465 0.464144121875182 10.8725520947443
6.83574822361873 13.0003489879659 -1.37311076288333 0.464144121875182 5.62276115214554
7.20536089885334 12.8644954232922 0.457703587627778 0.464144121875182 5.62276115214554
8.12399427817533 12.3129843837735 -0.114425896906944 0.464144121875182 5.62276115214554
-7.62422940899762 15.1352172314909 0.26293610353085 -2.01129119479245 5.29692743166332
-7.49832255821996 15.5488999217131 -0.133902645316636 -2.01129119479245 7.42651557377338
-8.18109836252214 16.2406840437985 0.84723855582163 -2.16600590208418 10.9621962520607
-7.34185054199771 16.6560942419959 -0.282412851940542 -2.16600590208418 10.9621962520607
-8.18109836252214 16.2406840437985 0.84723855582163 -2.01129119479245 6.59059362471309
-8.18359631977163 16.6021988717532 0.574564078085934 -2.32072060937591 5.95409714977259
-7.46371346992143 16.9325586565863 -0.718205097607416 -2.32072060937591 5.95409714977259
-8.18137822664464 16.597698989089 0.718205097607416 -2.16600590208418 14.5844642603357
-7.32569199559564 17.0078986582034 -0 -2.16600590208418 14.5844642603357
-8.32716818503078 16.5306541346806 0.574564078085934 -2.01129119479245 8.19538795111783
-8.17407994098305 16.9501845202829 0.730378065363474 -2.16600590208418 7.15973365970441
6.11381387125817 18.2264438120939 3.01889600350236 -1.701861780209 5.65532836317749
6.69288632999139 17.9686772667002 3.32078560385259 -1.701861780209 5.65532836317749
7.24432388020239 17.6298970439807 3.92456480455307 -1.701861780209 5.65532836317749
-1.07613095282413 19.7903283768294 3.27209373282836 -1.39243236562554 6.82615101036742
-12.7212789636706 15.4335602571908 -1.86976784733049 1.23771765833382 10.0394205755109
-7.93119926086006 18.4136916140927 1.24651189822033 1.23771765833382 10.0394205755109
-12.7212789636706 15.4335602571908 -1.86976784733049 1.39243236562554 13.1848493982865
-7.93119926086006 18.4136916140927 1.24651189822033 1.39243236562554 13.1848493982865
7.39369919677467 18.8853166052077 2.21548013160254 -1.54714707291727 27.4154327978646
7.24233176320058 18.961718073083 2.05723155077378 -1.39243236562554 51.661602124571
7.22999529335885 18.9294189916815 2.37372871243129 -1.23771765833382 11.3531335050798
7.3537522518652 19.2534368126688 2.08888126693953 -1.54714707291727 41.7145046710119
7.34771547018261 19.2376314400241 2.2495644413195 -1.39243236562554 82.3458227862608
7.33428261019452 19.2024618133987 2.57093079007943 -1.23771765833382 16.9067233731346
-12.0479748392564 16.8448762761411 0.482049523139894 -0.464144121875182 11.1715623157725
-12.2115538805297 16.7328437203306 0.160683174379964 -0.309429414583454 6.08665572561891
-0.159864179388373 20.6093897222939 -2.08888126693953 1.23771765833382 53.8299067936023
0.317074298599966 20.4364667866677 3.37434666197925 1.23771765833382 53.8299067936023
0.317475779310022 20.4623435203947 3.21366348759929 1.39243236562554 68.5952464041126
0.317475779310022 20.4623435203947 3.21366348759929 1.54714707291727 15.5563219664927
7.46517274052983 19.5451555522547 2.12053098310528 -1.54714707291727 9.6230576520904
7.44540810428838 19.4934082045108 2.60988428689881 -1.39243236562554 14.2049563448796
-12.2323604023669 17.1026749551011 0.326235535862351 -0.464144121875182 26.6680621848866
-12.396577424174 16.9863716554871 -0.163117767931175 -0.309429414583454 15.1504195412949
-0.162153141140393 20.9044783718418 -2.28364875103646 1.23771765833382 30.6164660321622
-0.162409620915764 20.937543262718 -1.95741321517411 1.39243236562554 42.9220606075007
0.484560213641705 20.8178520276189 -2.93611982276116 1.39243236562554 42.9220606075007
-12.7379412413653 17.1054930275334 -0.827761807411938 -0.309429414583454 7.19230593968051
0.328544939060096 21.175786762523 -2.6488377837182 1.23771765833382 10.2687578569461
0.492817408590147 21.1726006383395 -2.6488377837182 1.39243236562554 14.7038781876286
0.167130732996936 21.5461801642163 -2.18383041543679 1.23771765833382 7.24637819812199
0.334261465993872 21.5442354615599 -2.18383041543679 1.39243236562554 6.43096643401615
7.15770504056205 25.375116304849 -0 -2.32072060937591 7.213858405554
8.58821243772146 24.9239761168348 0.409011716603544 -2.32072060937591 7.213858405554
7.15684369810122 25.3720627192377 -0.409011716603544 -2.16600590208418 7.36384298760864
8.79348736373069 24.8548189748011 0.204505858301772 -2.16600590208418 7.36384298760864
7.24204421831671 25.6741110849429 0.413880903705967 -2.32072060937591 10.5188887405348
8.69149897782534 25.2237254857992 -0 -2.32072060937591 10.5188887405348
7.24291581485445 25.6772010227639 -0 -2.16600590208418 11.2852459819364
8.89736861107481 25.1484396386874 0.413880903705967 -2.16600590208418 11.2852459819364
7.32459854966179 25.9667783222039 0.837500181616785 -2.32072060937591 9.38602621365787
8.79269368623864 25.5174041196165 -0.41875009080839 -2.32072060937591 9.38602621365787
8.79348736373069 25.5197074625997 -0.209375045404195 -2.16600590208418 7.07275079803045
6.78726773976327 30.5050535365391 2.9215122614539 -2.78486473125109 6.50013067056018
8.03391702666425 30.3406894002634 -0.243459355121157 -2.78486473125109 6.50013067056018
7.02967015904053 30.4501072591451 2.9215122614539 -2.63015002395936 7.53821463867015
8.27662196379052 30.2724456820107 0.486918710242314 -2.63015002395936 7.53821463867015
8.1135238250923 30.6413304371621 -0.491787897344738 -2.78486473125109 7.29981796262059
7.36593663981694 30.7854268235505 1.72125764070659 -2.63015002395936 7.80885092143483
8.35636924237162 30.5641281062771 0.98357579468948 -2.63015002395936 7.80885092143483
15.2670725968087 28.4261999118188 2.00610508619834 0.154714707291727 11.4149612621878
15.5356174116422 28.3236534119854 1.25381567887396 0.309429414583454 5.76308928117452
-20.6165011117207 24.5039043467754 6.32994323315011 0.309429414583454 6.12385007118543
-19.7354730098283 25.4516919671135 5.31715231584609 0.309429414583454 6.12385007118543
-12.9017930612029 30.6627414223065 0.516133832856853 -2.78486473125109 7.51015104711688
-12.1112529173492 30.9351029495032 1.80646841499899 -2.78486473125109 7.51015104711688
8.16796696467085 31.8773997525157 4.90327141214012 -2.78486473125109 7.51015104711688
-10.4172388509126 31.9183438559899 0.781504529938919 -2.78486473125109 5.8336734822674
-10.5971107806316 40.0207825981027 1.60683174379964 -3.24900885312627 5.28701566304533
-21.2595714445522 44.0849198208304 5.73346781310327 -2.16600590208418 5.06008141206163
-28.017013385113 47.0120934392446 4.68659258608229 -3.24900885312627 10.8522456320958
-24.1414564608273 48.9761769221298 5.96475420046837 -3.24900885312627 10.8522456320958
-14.7816748167927 52.4032096224965 7.24291581485445 -3.24900885312627 10.8522456320958
-10.9294549896201 53.080598845036 8.94713130070256 -3.24900885312627 10.8522456320958
8.04715215360909 54.0066585540565 5.96475420046837 -3.24900885312627 10.8522456320958
-27.9974794265235 46.9793157739801 5.11264645754432 -3.09429414583454 6.34563531667392
-24.1612907484702 49.0164150735561 5.53870032900634 -3.09429414583454 6.34563531667392
-14.7658274057484 52.3470282213211 7.66896968631647 -3.09429414583454 6.34563531667392
-10.9432939080349 53.1478097057352 8.52107742924053 -3.09429414583454 6.34563531667392
8.09978508901095 54.3598927065474 5.57035004517209 -3.24900885312627 16.6638297858155
10.2787721839772 54.2498152783654 1.71395386005295 -3.24900885312627 16.6638297858155
8.09978508901095 54.3598927065474 5.57035004517209 -3.09429414583454 15.2740261215724
10.2809385294988 54.261248924551 1.28546539503972 -3.09429414583454 15.2740261215724
8.14580659519851 54.6687557332892 5.60199976133784 -3.24900885312627 9.34462713066723
10.7678898944364 54.4746808356075 1.7236922342578 -3.24900885312627 9.34462713066723
8.14580659519851 54.6687557332892 5.60199976133784 -3.09429414583454 10.1174576743738
10.7678898944364 54.4746808356075 1.7236922342578 -3.09429414583454 10.1174576743738
8.32747043541257 59.0599202268644 6.04509578765835 -3.403723560418 9.02929809917548
10.2224654500032 59.0259225082321 2.32503684140706 -3.403723560418 9.02929809917548
8.32063431702497 59.011437243975 6.51010315593977 -3.24900885312627 10.6916773578697
10.2224654500032 59.0259225082321 2.32503684140706 -3.24900885312627 10.6916773578697
8.32063431702497 59.011437243975 6.51010315593977 -3.09429414583454 10.6554228048977
10.2190770865987 59.0063576315668 2.79004420968847 -3.09429414583454 10.6554228048977
8.3641978474806 59.3203976483937 6.54418746565673 -3.403723560418 12.9632789180587
11.2064510269031 59.1459648345184 2.80465177099574 -3.403723560418 12.9632789180587
8.35681061332714 59.2680060532287 7.01162942748935 -3.24900885312627 27.5552239822102
11.202058097781 59.1227796146167 3.27209373282836 -3.24900885312627 27.5552239822102
8.34890668670364 59.2119499820024 7.47907138932197 -3.09429414583454 18.4762920559772
11.202058097781 59.1227796146167 3.27209373282836 -3.09429414583454 18.4762920559772
11.2553048334264 59.4038078854292 3.75901244307068 -3.24900885312627 9.06019612074492
10.7912187274414 59.517691791755 3.28913588768684 -3.09429414583454 7.22454180173556
8.15926543287256 61.336679015872 5.78459427767871 -3.403723560418 10.2027123009141
10.1154239269665 61.270647468966 2.41024761569946 -3.403723560418 10.2027123009141
8.14638019520246 61.2398151874408 6.7486933239585 -3.24900885312627 13.0163822234133
8.2004738441497 61.6464602230229 5.81380940029325 -3.403723560418 8.82987592855471
11.1310604058454 61.3920484130148 2.90690470014663 -3.403723560418 8.82987592855471
11.1310604058454 61.3920484130148 2.90690470014663 -3.24900885312627 16.6677909218702
-7.20287012977078 4.98640808403472 -2.47111245447975 0.934395403248721 7.25168656059284
-7.63567620723368 5.43991961114655 0.876453678436169 0.830573691776641 6.42365547135617
1.38422815597586 10.4058335626338 -3.2380094231114 -0.31146513441624 5.26744729066645
8.14218707423428 7.81697208436758 -0.525872207061701 -0.10382171147208 5.64476323460542
9.53571614979263 5.82870693346732 1.66526198902872 -0.10382171147208 5.64476323460542
8.27837658324178 8.12679759327576 -0.540479768368971 0 5.26376631497226
-7.46315208814806 9.43140715895097 -2.27877956393404 -1.14203882619288 5.05655036143677
-13.6564262402544 10.5565791121833 0.267805290633273 0.726751980304561 7.72836598486791
0.463413718397509 19.9093486125574 -4.43096026320508 0.5191085573604 14.4016074181548
0.467129683572614 20.0689952590985 -3.63971735906131 0.62293026883248 12.6498922724221
0.454446266144391 19.5240856693473 -6.90937649833847 0.5191085573604 35.5380197029775
0.481338433889028 20.679436754824 1.12478222065975 0.62293026883248 30.7705897113305
0.4778402634653 20.5291470855561 -2.73161396445939 0.726751980304561 8.74075851353497
-0.487568804364305 20.9471081958133 -1.79429544724293 0.5191085573604 25.947809298501
12.0473535584704 29.3186232974352 -0.491787897344738 -2.595542786802 5.62507221362394
-19.0321609650851 28.8457491140908 7.97816306732034 -1.66114738355328 5.60341920041376
