VERSION .7
FIELDS x y z velocity intensity
SIZE 4 4 4 4 4
TYPE F F F F F
COUNT 1 1 1 1 1
WIDTH 970
HEIGHT 1
VIEWPOINT 0 0 0 1 0 0 0
POINTS 970
DATA ascii
-1.340880 1.857160 15.777900 2.397600 14.240000
-2.214520 2.108390 16.086200 2.308800 9.710000
6.222990 -0.597570 15.599000 -11.188800 7.650000
-7.282530 1.763850 15.042100 -10.656000 4.150000
-2.590460 2.163870 16.462600 2.308800 5.210000
6.259060 -0.612892 16.047700 -11.277600 8.090000
-7.930220 1.384470 15.240600 -10.567200 6.250000
6.414790 -0.682815 16.447000 -11.366400 9.770000
-8.135520 1.214750 15.635100 -10.567200 7.460000
6.473750 -0.699469 16.885800 -11.366400 10.520000
-8.337340 1.132680 16.023000 -10.567200 6.270000
6.725970 -0.830632 17.244800 -11.366400 8.300000
8.294660 -0.544311 16.559400 -11.011200 7.110000
-8.785950 1.216840 16.267700 -10.478400 4.050000
7.020000 -0.732777 17.596800 -11.366400 10.410000
7.259610 -1.736780 17.896200 -11.366400 4.780000
7.506100 2.977170 18.102000 -11.366400 7.610000
7.419120 3.041890 18.597300 -11.366400 9.310000
-7.729740 1.704780 18.641400 -11.100000 5.430000
-7.862720 0.713511 20.508700 -11.100000 8.240000
-8.137630 0.727502 20.864200 -11.188800 3.880000
7.101990 -1.886140 21.167600 -11.544000 10.310000
-7.262260 0.547335 21.645300 -11.277600 4.590000
7.238560 -1.922410 21.574700 -11.544000 9.670000
7.548140 -1.815230 21.935300 -11.544000 5.840000
7.687920 -1.848840 22.341500 -11.544000 5.610000
17.857700 1.808050 16.127900 -8.436000 7.470000
7.949060 2.235650 22.673600 -11.455200 10.160000
-7.628870 0.797454 23.332800 -11.366400 9.420000
18.176600 1.840340 16.415900 -8.436000 6.060000
-7.945470 0.811444 23.681700 -11.366400 5.730000
18.495400 1.872620 16.703900 -8.436000 6.330000
-8.267890 0.825434 24.027000 -11.366400 10.500000
18.814300 1.904910 16.991900 -8.436000 8.110000
18.279000 1.937200 18.181200 -8.880000 4.430000
-7.202170 2.076700 24.743600 -11.455200 10.280000
18.583600 1.969480 18.484200 -8.880000 6.850000
-7.487750 0.853415 25.181400 -11.455200 7.510000
-14.213900 1.919370 22.539200 -13.764000 5.650000
-7.610500 0.867406 25.594200 -11.455200 10.620000
18.151000 1.699020 20.114600 -9.235200 6.950000
-14.446300 1.866570 22.907700 -13.852800 11.960000
-7.734660 0.713554 26.011700 -11.455200 8.990000
18.439100 1.725990 20.433900 -9.235200 8.110000
-14.495800 1.896200 23.383700 -13.852800 11.970000
-7.857430 0.724881 26.424600 -11.455200 10.700000
18.723500 1.839400 20.749100 -9.235200 10.420000
18.807700 1.867700 21.250500 -9.324000 12.190000
-6.603800 2.218610 27.572900 -11.632800 14.390000
-14.438600 1.026590 24.979300 -14.119200 8.290000
-14.654100 1.041920 25.352200 -14.208000 6.810000
18.212600 1.608420 23.990000 -9.856800 11.340000
18.472800 1.631390 24.332700 -9.856800 6.140000
18.732900 1.654370 24.675500 -9.856800 7.630000
-6.808870 1.654370 30.223200 -11.721600 8.640000
18.993100 1.677350 25.018200 -9.856800 6.810000
-7.139410 1.677350 30.588800 -11.721600 5.070000
-7.238080 1.626470 31.011600 -11.721600 12.270000
18.666300 1.548620 26.336100 -10.123200 13.680000
18.915200 1.569270 26.687300 -10.123200 10.590000
9.151330 0.481071 31.440100 -11.721600 10.600000
19.164100 1.589910 27.038400 -10.123200 10.720000
9.272120 0.384795 31.855100 -11.721600 8.930000
9.143550 0.389793 32.340200 -11.721600 8.780000
18.797400 1.631210 28.333600 -10.300800 9.430000
9.512090 0.605326 32.679500 -11.721600 13.580000
19.032500 1.758340 28.687800 -10.300800 5.480000
19.264800 1.968950 29.038000 -10.300800 10.650000
18.580300 2.211430 29.972600 -10.478400 11.650000
18.810500 2.127990 30.343900 -10.478400 6.780000
10.452000 -1.161200 34.183600 -11.632800 8.060000
19.037100 2.153630 30.709500 -10.478400 8.610000
8.899830 -1.175190 35.064700 -11.810400 9.650000
10.578000 -1.175190 34.595500 -11.632800 13.290000
19.263700 2.179270 31.075100 -10.478400 9.620000
-12.098400 2.066180 34.508900 -13.941600 13.770000
-12.038700 2.090490 34.985000 -13.941600 7.160000
18.988200 1.796400 32.273700 -10.567200 9.840000
19.203500 1.934170 32.639700 -10.567200 9.660000
19.416100 2.163410 33.001000 -10.567200 9.670000
9.728990 1.690650 39.282500 -11.810400 10.850000
19.155400 1.835120 36.130600 -10.833600 7.000000
9.831170 1.835120 39.695000 -11.810400 7.650000
19.359600 1.726620 36.515800 -10.833600 6.000000
9.934660 1.854430 40.112900 -11.810400 7.810000
19.845000 1.744600 36.744300 -10.833600 10.570000
9.494120 1.486260 40.677600 -11.810400 8.260000
19.379200 1.912380 37.955100 -10.922400 12.530000
19.574900 1.931700 38.338500 -10.922400 12.270000
19.770700 1.951020 38.721900 -10.922400 9.200000
19.664400 1.970340 39.258000 -10.922400 9.580000
19.823400 1.732020 40.153400 -11.011200 15.680000
20.014000 1.748670 40.539400 -11.011200 16.610000
-22.632200 -1.329130 39.154600 -10.212000 8.470000
20.204600 1.765330 40.925500 -11.011200 8.630000
19.748800 2.014390 43.989000 -11.188800 6.490000
19.925100 2.032370 44.381800 -11.188800 12.530000
20.101400 2.050360 44.774500 -11.188800 7.710000
20.275000 2.221460 45.161200 -11.188800 10.100000
-21.176400 -0.599681 47.169000 -10.833600 6.270000
10.672200 2.318040 50.541600 -11.899200 8.450000
-21.352900 -0.604678 47.562100 -10.833600 7.280000
10.761100 2.337360 50.962700 -11.899200 13.220000
-22.159100 -2.031790 47.628000 -10.833600 8.960000
-23.062700 -2.826220 47.636100 -10.656000 13.260000
-20.830200 -2.065100 49.160700 -10.922400 7.730000
-23.250200 -2.849200 48.023400 -10.656000 8.550000
20.401900 1.427110 50.294100 -11.366400 5.250000
-8.743800 1.930610 53.549900 -11.810400 6.330000
-8.814970 1.607620 53.985700 -11.810400 6.010000
-8.883520 1.790770 54.405600 -11.899200 6.990000
20.189500 1.632930 51.764200 -11.366400 7.150000
-8.635830 1.804760 54.881500 -11.899200 6.860000
20.346000 1.645590 52.165500 -11.366400 7.640000
10.589200 -2.007220 55.409400 -11.899200 7.330000
12.170700 -2.198330 55.517900 -11.899200 9.230000
-18.950600 -1.860720 54.053800 -11.277600 8.310000
11.070100 -2.746220 56.163300 -11.899200 7.470000
-19.093100 -1.874720 54.460200 -11.277600 11.210000
11.151600 -2.945220 56.576900 -11.899200 11.390000
11.673800 -2.967200 56.910800 -11.899200 9.390000
11.318100 -2.989180 57.421300 -11.899200 9.010000
-20.401800 -3.033140 55.772400 -11.188800 6.710000
20.565600 1.944670 56.220100 -11.455200 5.850000
21.158000 2.313670 61.486200 -11.544000 11.460000
21.302400 1.924080 61.905900 -11.544000 7.310000
21.235600 1.962050 63.293300 -11.544000 8.420000
12.312600 1.202990 66.510500 -11.899200 7.250000
-18.363800 2.238470 66.415600 -11.544000 8.280000
-18.481900 1.823530 66.842900 -11.544000 9.760000
-18.986300 1.672990 67.153400 -11.544000 7.150000
-19.103500 1.683310 67.567900 -11.544000 6.200000
21.956500 1.475140 67.153900 -11.632800 5.980000
22.088900 1.703970 67.558700 -11.632800 9.690000
21.438200 0.389466 68.691600 -11.632800 7.150000
21.164800 1.063420 69.220000 -11.632800 9.600000
21.288400 1.520120 69.624400 -11.632800 7.080000
21.414400 1.529110 70.036300 -11.632800 8.300000
21.543600 0.854546 70.458900 -11.632800 10.050000
21.666300 1.547100 70.860300 -11.632800 10.860000
21.792300 1.556090 71.272300 -11.632800 12.510000
21.366400 1.333250 71.855300 -11.632800 15.890000
-27.394700 1.574080 70.237800 -11.100000 13.850000
21.487900 1.574080 72.264000 -11.721600 8.010000
-28.094900 1.583080 70.424700 -11.100000 7.610000
21.610700 1.583080 72.676900 -11.721600 6.670000
-28.254500 1.592070 70.824800 -11.100000 5.550000
21.734800 1.356240 73.094200 -11.721600 11.020000
-28.415800 1.363900 71.229200 -11.100000 11.250000
21.860200 -0.652327 73.516200 -11.721600 7.640000
21.981500 1.133050 73.923900 -11.721600 11.260000
21.674200 1.139380 74.463400 -11.721600 14.820000
21.795500 0.904519 74.880100 -11.721600 14.080000
-1.993430 4.496990 79.564600 -12.076800 7.400000
-2.004200 4.521290 79.994700 -12.076800 11.870000
18.667600 0.555048 100.839000 -11.988000 11.910000
18.745700 0.875877 101.261000 -11.988000 9.350000
18.824100 0.879541 101.685000 -11.988000 9.310000
-56.373900 -11.238700 94.149100 -10.034400 7.030000
-56.594100 -11.282600 94.516900 -10.034400 7.910000
20.316100 2.444290 135.925000 -11.988000 11.440000
20.378600 2.878320 136.343000 -11.988000 9.210000
19.652500 2.459620 136.894000 -11.988000 5.970000
21.564100 2.467280 137.042000 -11.899200 9.460000
-61.860500 -14.560800 132.961000 -10.744800 8.450000
-61.269500 -14.603300 133.706000 -10.744800 5.710000
-61.448100 -14.645900 134.096000 -10.744800 7.670000
-6.795620 1.779050 153.239000 -11.988000 5.570000
-6.814710 1.784050 153.670000 -11.988000 5.270000
-6.834160 0.834904 154.108000 -12.076800 5.160000
-6.853100 1.315650 154.536000 -11.988000 7.720000
-6.967790 0.851229 157.122000 -12.076800 5.360000
-6.986730 1.341300 157.549000 -12.076800 5.250000
-7.005600 1.834020 157.974000 -12.076800 5.450000
-7.024690 1.839020 158.405000 -12.076800 7.910000
5.743440 -0.015992 3.813850 -3.552000 8.850000
6.102400 -0.016991 4.052210 -3.818400 12.240000
6.461360 -0.017991 4.290580 -3.996000 10.990000
6.461150 -0.065966 4.290440 -6.393600 7.000000
6.820100 -0.069630 4.528790 -6.660000 8.740000
7.123460 -0.073295 4.849830 -6.748800 6.570000
5.847190 -0.957530 6.258070 -8.702400 6.010000
5.934280 -0.538407 6.810070 -8.880000 5.980000
5.908940 -0.564046 7.391410 -9.235200 9.970000
6.117780 -0.589684 7.774760 -9.235200 9.570000
7.026580 -1.350000 10.244900 -10.034400 7.070000
5.827080 -1.704150 11.412600 -10.567200 6.850000
5.523150 -1.362410 12.560600 -10.656000 9.010000
6.941860 -1.130030 13.341100 -10.389600 9.290000
7.257830 -0.743336 13.689600 -10.478400 10.850000
7.364720 1.450870 15.515700 -10.656000 6.430000
8.392630 -0.359791 15.050400 -10.300800 5.350000
7.548840 1.487150 15.903500 -10.656000 5.970000
5.720390 -1.745590 16.623800 -11.011200 5.710000
8.447120 1.523420 15.932800 -10.389600 5.940000
6.089060 -1.788170 16.948600 -11.100000 4.590000
7.435500 1.445460 16.909700 -10.833600 5.120000
7.105210 1.479070 17.515600 -10.922400 5.300000
6.414800 -0.224880 18.297300 -11.100000 9.150000
7.404540 1.512690 17.857100 -10.922400 6.690000
7.094060 -0.413759 18.503800 -11.011200 4.440000
7.357440 -0.422754 18.863900 -11.011200 6.820000
7.491330 1.661360 19.207100 -11.011200 7.620000
18.481500 1.510240 15.441100 -7.725600 4.370000
18.811600 1.537210 15.716900 -7.725600 8.190000
6.901840 2.122740 22.572700 -11.188800 11.310000
8.603400 2.161330 22.440700 -11.011200 7.140000
18.364500 1.752960 21.074800 -8.968800 8.590000
18.647100 1.779930 21.399000 -8.968800 7.710000
18.929600 1.806900 21.723300 -8.968800 10.510000
19.212100 1.833870 22.047500 -8.968800 7.200000
18.781600 2.260060 23.493600 -9.412800 6.860000
19.049900 2.292350 23.829300 -9.412800 6.260000
19.318200 2.324630 24.164900 -9.412800 8.230000
18.550000 1.390830 24.829500 -9.590400 14.080000
18.613000 1.410140 25.318500 -9.679200 7.600000
18.868000 1.429460 25.665400 -9.679200 9.470000
19.123000 1.448780 26.012200 -9.590400 6.490000
18.709000 1.569270 26.832200 -9.768000 5.730000
18.955100 1.589910 27.185300 -9.768000 7.680000
19.201300 1.610560 27.538400 -9.768000 5.680000
19.447500 1.631210 27.891400 -9.768000 11.930000
9.140220 0.987355 32.328400 -11.366400 5.100000
18.572000 2.263880 28.952900 -10.034400 7.050000
9.259380 0.710586 32.749900 -11.366400 9.910000
18.807900 2.184460 29.320700 -10.034400 14.630000
9.377150 0.612989 33.166400 -11.366400 14.570000
19.040100 2.211430 29.682700 -10.034400 6.050000
9.299540 0.728576 33.633300 -11.366400 9.730000
19.272300 2.238400 30.044600 -10.034400 11.790000
9.141720 -1.802300 34.083100 -11.366400 8.440000
8.586790 -1.824280 34.670600 -11.366400 17.450000
19.278500 1.641950 31.098900 -10.123200 13.400000
8.225120 -0.755560 35.240600 -11.455200 17.990000
19.502500 1.775750 31.460300 -10.123200 13.690000
19.239200 1.680580 32.131000 -10.123200 9.280000
19.175000 1.600720 33.173600 -10.300800 5.370000
19.387900 1.738530 33.541800 -10.300800 7.880000
19.603300 1.757850 33.914500 -10.300800 5.780000
19.271000 2.002880 37.035600 -10.478400 8.350000
19.469600 2.023530 37.417400 -10.478400 9.800000
19.671100 1.912380 37.804600 -10.478400 10.390000
19.869800 1.931700 38.186500 -10.478400 6.190000
20.068500 1.951020 38.568300 -10.478400 7.760000
19.661600 2.106120 39.252300 -10.567200 7.660000
19.854400 2.126770 39.637200 -10.567200 7.880000
20.050000 2.008970 40.027700 -10.567200 5.230000
20.242800 2.028290 40.412600 -10.567200 7.440000
19.875100 2.435600 41.052300 -10.656000 17.760000
20.065100 2.351780 41.444600 -10.656000 17.430000
20.252600 2.373760 41.831900 -10.656000 11.170000
20.443300 2.250660 42.225700 -10.656000 7.360000
19.905200 2.144190 43.438300 -10.744800 9.930000
20.084500 2.163510 43.829600 -10.744800 13.750000
20.263900 2.182820 44.221000 -10.744800 10.330000
20.098700 2.202140 44.768500 -10.833600 14.030000
19.931500 1.915210 45.327900 -10.833600 7.620000
20.104800 1.931870 45.722000 -10.833600 6.200000
20.278200 1.948520 46.116200 -10.833600 9.700000
20.451500 1.965180 46.510300 -10.833600 9.260000
20.265000 1.823350 47.067500 -10.833600 14.280000
20.435300 1.838680 47.463000 -10.833600 13.720000
20.605600 1.854000 47.858500 -10.833600 7.020000
20.775900 1.869320 48.254000 -10.833600 13.670000
20.123200 1.869320 48.529900 -10.922400 17.100000
20.290200 1.720820 48.932800 -10.922400 16.120000
20.455200 1.734810 49.330600 -10.922400 6.780000
20.502500 1.658250 52.566700 -11.011200 8.560000
20.657100 1.846730 52.962900 -11.011200 6.690000
20.717300 1.585680 56.634800 -11.100000 6.870000
20.866500 1.456120 57.042700 -11.100000 8.600000
21.014500 1.466450 57.447200 -11.100000 6.930000
21.313300 1.103380 58.263900 -11.100000 4.440000
21.458500 1.497430 58.660900 -11.100000 8.110000
21.606500 1.507750 59.065500 -11.100000 6.140000
21.094400 1.331230 60.168700 -11.188800 8.890000
21.234200 1.687610 60.567500 -11.188800 6.240000
-16.731900 -2.498100 62.381800 -11.100000 16.600000
-16.848800 -1.911420 62.817500 -11.100000 15.100000
12.078400 0.769591 65.245600 -11.455200 8.960000
11.650700 0.568037 65.763000 -11.544000 10.320000
11.726300 -0.155920 66.189500 -11.455200 9.860000
11.801400 -0.156920 66.613800 -11.455200 5.400000
12.390300 1.421170 66.930200 -11.544000 5.670000
-13.230600 -3.653400 67.124100 -11.277600 7.400000
12.468700 1.430170 67.353800 -11.544000 5.490000
12.546200 1.652330 67.772700 -11.544000 7.600000
21.302200 1.834850 66.450700 -11.188800 7.170000
-17.798100 1.683310 67.923400 -11.188800 7.690000
-17.907300 1.693640 68.340100 -11.188800 7.570000
21.174400 1.868830 67.846500 -11.277600 8.900000
21.304000 1.714300 68.261700 -11.277600 8.420000
21.432400 1.724620 68.672900 -11.277600 10.460000
21.563500 1.287280 69.093000 -11.277600 5.490000
21.411700 1.925460 70.027400 -11.277600 10.680000
21.538900 1.765930 70.443400 -11.277600 7.760000
21.666300 1.547100 70.860300 -11.277600 7.320000
21.787600 2.189900 71.257000 -11.277600 12.230000
21.918300 1.565090 71.684200 -11.277600 13.210000
22.044200 1.574080 72.096200 -11.277600 14.120000
22.171500 1.348580 72.512500 -11.277600 12.530000
21.732000 1.827890 73.084800 -11.277600 11.040000
21.853500 2.016070 73.493400 -11.277600 15.160000
-28.571800 1.848550 71.620100 -10.744800 14.400000
21.976300 2.027400 73.906300 -11.277600 8.500000
-28.731400 1.858880 72.020200 -10.744800 6.240000
22.099000 2.038730 74.319200 -11.277600 11.650000
21.789400 2.050050 74.859300 -11.277600 12.680000
21.909800 2.061380 75.272900 -11.277600 9.420000
22.030200 2.072710 75.686400 -11.277600 10.320000
-62.224200 -9.250240 133.742000 -10.389600 4.970000
-63.449600 -8.819630 133.673000 -10.389600 7.820000
-62.574600 -9.762990 134.496000 -10.389600 8.040000
-61.094400 -10.281000 136.083000 -10.389600 4.490000
-6.814930 1.308320 153.675000 -11.632800 5.920000
-6.834010 1.311980 154.105000 -11.544000 8.800000
-6.852610 2.272430 154.525000 -11.632800 10.080000
-5.975870 2.278760 154.992000 -11.544000 9.490000
-5.992470 2.285090 155.423000 -11.544000 5.360000
-6.109240 0.858225 158.451000 -11.544000 6.430000
-6.125910 0.368812 158.884000 -11.544000 6.070000
-6.142510 0.369811 159.314000 -11.544000 5.500000
5.743440 0.015992 3.813850 -3.996000 8.030000
6.102400 0.016991 4.052210 -4.262400 9.410000
6.461360 -0.017991 4.290580 -4.351200 6.060000
6.661460 -0.333081 5.457470 -7.636800 5.430000
6.882820 -0.349735 5.864040 -7.814400 7.750000
4.744400 0.894083 7.653360 -9.945600 5.700000
5.158810 -0.726846 7.398720 -9.679200 4.100000
5.577640 -0.726846 7.088320 -9.324000 4.490000
5.713590 -0.761457 7.526070 -9.412800 4.600000
5.625530 3.452060 10.610800 -10.478400 5.100000
4.750070 -1.664520 11.906900 -10.922400 5.210000
5.499870 3.571100 11.140300 -10.656000 12.540000
4.979450 -1.720000 12.275200 -10.922400 6.160000
5.276240 -0.618144 12.724400 -10.833600 10.940000
5.818840 -0.593525 12.961000 -10.744800 6.560000
5.997230 -0.475674 13.358400 -10.833600 8.840000
6.174740 -0.396419 13.753800 -10.833600 11.330000
6.241940 -0.407745 14.195300 -10.833600 6.230000
7.248860 -0.283507 14.197300 -10.567200 7.490000
7.303860 1.466620 14.581400 -10.567200 5.650000
7.270230 -0.199894 15.626400 -10.744800 8.520000
8.033250 -0.204891 15.733500 -10.833600 6.350000
6.458850 1.411840 16.847000 -11.011200 6.290000
-8.082480 1.356040 16.135800 -10.478400 5.980000
7.695260 1.445460 16.793000 -10.833600 6.430000
6.871510 1.362130 17.618000 -11.011200 6.090000
6.641800 -0.967087 17.731800 -11.100000 8.930000
8.056930 1.393090 17.582300 -10.833600 7.200000
6.652770 -0.989067 18.186600 -11.188800 8.210000
7.249370 0.234875 18.908900 -11.100000 9.250000
-7.905220 1.358330 19.064600 -10.744800 9.380000
7.671680 0.244870 19.669500 -11.100000 7.180000
-8.069910 1.386630 19.461700 -10.744800 9.290000
7.803470 1.730580 20.007400 -11.100000 8.190000
7.957450 1.730580 19.946700 -11.011200 5.970000
17.907600 0.796759 13.444200 -7.281600 4.410000
7.846530 1.578830 20.466500 -11.188800 4.460000
17.956800 1.599920 14.711300 -7.725600 3.570000
18.147900 1.556420 15.162400 -7.814400 4.240000
18.477900 1.584720 15.438100 -7.814400 3.850000
18.493400 1.782810 19.792900 -8.791200 11.410000
18.368000 1.666500 21.078800 -9.146400 12.500000
18.650600 1.692140 21.403100 -9.146400 8.200000
-7.606640 1.666500 26.904200 -11.188800 8.900000
18.723000 1.717780 21.908800 -9.146400 13.750000
18.723000 1.717780 21.908800 -9.146400 8.710000
18.253100 2.014720 22.832600 -9.412800 11.420000
18.521500 2.044340 23.168300 -9.412800 12.530000
-6.657010 0.860771 28.522000 -11.366400 9.210000
18.790000 2.073970 23.504100 -9.412800 6.590000
19.062400 2.009200 23.844800 -9.412800 17.680000
18.539100 1.750180 24.814900 -9.679200 9.070000
18.796500 1.774490 25.159500 -9.679200 5.710000
18.860100 1.700330 25.654600 -9.768000 9.540000
19.111700 1.823100 25.996900 -9.768000 5.260000
18.490100 1.948520 26.958800 -9.856800 14.290000
18.736700 1.871720 27.318500 -9.856800 14.380000
-7.006480 1.366910 31.960900 -11.455200 10.080000
18.980100 1.896030 27.673200 -9.856800 11.050000
9.023820 0.872122 31.916700 -11.455200 7.110000
19.223400 1.920330 28.028000 -9.856800 16.140000
9.141010 0.883448 32.331200 -11.455200 5.860000
9.259380 0.710586 32.749900 -11.455200 16.290000
19.051600 1.564680 29.202800 -10.034400 6.290000
9.376590 0.719581 33.164400 -11.455200 11.680000
19.055600 1.693160 29.706800 -10.123200 13.790000
9.038880 0.917427 33.699700 -11.455200 17.820000
19.282700 1.907120 30.060800 -10.123200 9.940000
8.225460 -1.147210 34.343900 -11.455200 17.690000
8.124690 -1.161200 34.810300 -11.455200 10.870000
19.020100 2.292330 31.216700 -10.300800 12.580000
9.376870 0.083957 34.959800 -11.544000 7.390000
19.243800 2.319300 31.584000 -10.300800 12.690000
7.359660 0.198231 35.878900 -11.544000 9.750000
19.467600 2.346270 31.951200 -10.300800 8.090000
7.656050 0.085956 36.257800 -11.544000 8.950000
7.745080 0.086956 36.679400 -11.544000 9.250000
9.911530 -2.636910 36.953200 -11.455200 6.220000
7.993210 -2.666540 37.854500 -11.455200 9.910000
19.510400 1.053340 34.987700 -10.478400 9.890000
19.447000 1.064670 35.514800 -10.567200 9.020000
19.653900 1.075990 35.892600 -10.567200 7.590000
19.859100 1.215210 36.267300 -10.567200 6.290000
19.271000 2.002880 37.035600 -10.656000 16.010000
19.469600 2.023530 37.417400 -10.656000 7.460000
19.668300 2.044180 37.799200 -10.656000 10.740000
19.867000 2.064820 38.181000 -10.656000 18.000000
20.365200 1.951020 38.412500 -10.656000 19.710000
19.656200 2.343690 39.241600 -10.744800 17.000000
19.848900 2.366670 39.626300 -10.744800 7.960000
20.044000 2.285840 40.015900 -10.744800 7.690000
19.880600 2.188710 41.063500 -10.744800 10.550000
20.065100 2.351780 41.444600 -10.744800 11.570000
20.252600 2.373760 41.831900 -10.744800 11.740000
20.440100 2.395740 42.219200 -10.744800 10.510000
19.725900 2.124870 43.046900 -10.833600 16.480000
19.902400 2.291950 43.432000 -10.833600 16.440000
20.081700 2.312600 43.823300 -10.833600 11.730000
20.261000 2.333250 44.214600 -10.833600 9.650000
19.929000 2.068350 45.322200 -10.922400 6.050000
20.102300 2.086330 45.716300 -10.922400 16.180000
20.275600 2.104320 46.110400 -10.922400 17.340000
20.443300 2.436490 46.491600 -10.922400 14.150000
19.990300 1.981830 47.178400 -10.922400 13.750000
20.158300 1.998480 47.574900 -10.922400 16.490000
20.326300 2.015140 47.971300 -10.922400 14.830000
20.496600 1.869320 48.373300 -10.922400 9.390000
20.344100 1.818750 52.160500 -11.100000 8.650000
20.348400 2.022540 53.075900 -11.100000 7.450000
20.502600 2.037870 53.478000 -11.100000 8.340000
10.672100 -1.670910 55.843600 -11.544000 6.300000
10.427600 -1.683570 56.327900 -11.632800 8.920000
11.161400 -1.696230 56.626200 -11.544000 5.140000
11.244600 -1.708880 57.048800 -11.544000 8.220000
11.329600 -1.404480 57.479600 -11.544000 6.730000
20.567600 1.759520 56.225500 -11.188800 5.790000
20.715600 1.772180 56.630000 -11.188800 7.130000
20.865300 1.597000 57.039400 -11.188800 8.200000
20.377400 1.810150 58.123600 -11.188800 7.250000
20.970400 1.822810 58.370100 -11.188800 8.120000
21.117800 1.642310 58.780600 -11.188800 8.500000
-3.268620 2.625900 62.771500 -11.632800 11.990000
-3.291010 2.643880 63.201500 -11.632800 13.790000
-4.049310 2.464800 63.596800 -11.632800 11.130000
-17.463900 -1.340220 61.768800 -11.188800 8.850000
-3.706500 2.481450 64.049000 -11.632800 7.080000
-17.221400 -1.349210 62.283900 -11.188800 12.020000
20.882800 1.766900 63.869900 -11.366400 7.270000
21.511500 1.778220 64.115500 -11.277600 7.040000
12.310300 1.778220 66.498100 -11.632800 8.840000
21.151800 1.631680 64.692600 -11.277600 8.930000
12.775300 1.789550 66.848900 -11.632800 6.180000
-30.041900 -0.586361 62.051700 -10.389600 8.910000
12.856200 1.800880 67.272000 -11.632800 7.700000
-13.826500 -4.314980 67.405400 -11.366400 5.180000
-18.599100 1.457150 67.266600 -11.277600 6.800000
-18.713900 1.466150 67.681900 -11.277600 11.510000
-18.827400 1.693640 68.092400 -11.277600 9.770000
21.174400 1.868830 67.846500 -11.366400 5.850000
21.302800 1.880160 68.257700 -11.366400 10.440000
21.957800 2.113950 68.495800 -11.366400 6.950000
22.087200 2.350390 68.899300 -11.366400 7.630000
21.281800 2.364380 69.602800 -11.366400 10.450000
21.411700 1.925460 70.027400 -11.366400 5.600000
21.537600 1.936790 70.439300 -11.366400 13.260000
22.070900 2.177240 70.718700 -11.366400 14.760000
21.240900 1.786590 71.433200 -11.366400 12.810000
21.363600 1.796910 71.846100 -11.366400 11.760000
21.486400 1.807240 72.259000 -11.366400 15.000000
-27.707800 1.592070 71.040500 -10.833600 13.440000
21.607900 1.993420 72.667600 -11.366400 7.170000
-27.864300 1.601070 71.441800 -10.833600 7.450000
-28.018900 1.848550 71.838200 -10.833600 12.080000
21.851600 2.253190 73.487100 -11.366400 11.950000
-28.175500 1.858880 72.239500 -10.833600 5.890000
-28.332000 1.869200 72.640900 -10.833600 4.880000
21.088600 2.758010 74.589100 -11.366400 15.370000
21.210000 2.291170 75.018500 -11.366400 14.400000
21.327200 2.303830 75.433000 -11.366400 8.510000
21.442300 2.560250 75.840200 -11.366400 8.970000
18.824100 0.879541 101.685000 -11.632800 11.860000
18.902500 0.883206 102.108000 -11.632800 6.100000
18.981000 0.886871 102.532000 -11.632800 6.640000
19.059400 0.890536 102.956000 -11.632800 7.460000
20.444500 2.031890 136.785000 -11.632800 5.990000
20.508200 2.038220 137.211000 -11.632800 8.770000
20.570900 2.474940 137.630000 -11.632800 11.910000
20.631900 3.345980 138.038000 -11.632800 10.640000
20.695600 3.356300 138.464000 -11.632800 4.770000
-60.891200 -11.171200 135.631000 -10.478400 7.960000
-62.113700 -11.203400 135.548000 -10.478400 7.590000
-6.814710 1.784050 153.670000 -11.721600 4.390000
-6.834010 1.311980 154.105000 -11.721600 5.710000
-8.066110 1.799040 154.904000 -11.632800 9.270000
-8.088510 1.804040 155.334000 -11.721600 9.170000
-7.005600 1.834020 157.974000 -11.721600 6.380000
-6.108910 1.839020 158.443000 -11.721600 6.060000
-6.125510 1.844020 158.873000 -11.721600 7.360000
-6.141870 2.342060 159.297000 -11.721600 9.810000
6.102420 0.000000 4.052230 -4.262400 6.420000
6.461360 -0.017991 4.290580 -4.528800 5.150000
5.435780 -1.033210 7.160130 -9.590400 6.620000
5.748600 -1.133370 7.452220 -9.590400 7.380000
4.092450 -1.892310 9.306970 -10.744800 3.270000
4.138780 -1.872810 9.767800 -10.833600 6.500000
5.087620 -1.809700 10.305200 -10.656000 5.180000
5.724200 -1.876720 10.453700 -10.567200 6.300000
4.562140 -1.443110 12.471500 -11.188800 6.840000
6.237650 -1.404840 12.216800 -10.744800 7.070000
5.967130 -1.448740 12.825500 -10.922400 8.440000
6.084630 -1.142920 13.278200 -10.922400 11.800000
7.046090 -1.083510 13.290200 -10.744800 11.770000
7.052520 -0.323812 13.812700 -10.744800 9.750000
7.683850 1.649960 15.340000 -10.744800 4.990000
6.173790 1.527980 16.482400 -11.100000 5.940000
7.996890 1.691210 15.662300 -10.744800 5.720000
-7.798850 1.323750 15.797000 -10.478400 5.500000
6.324370 1.565240 16.884400 -11.100000 6.740000
-7.994300 1.188540 16.192900 -10.478400 5.940000
6.365360 0.042978 17.400900 -11.188800 7.720000
6.269360 -0.615578 17.882500 -11.188800 8.630000
-8.105270 1.479070 17.075800 -10.567200 7.880000
7.781340 1.512690 17.696200 -11.011200 7.970000
-7.266690 1.512690 17.913600 -10.833600 5.670000
6.657230 -0.689503 18.198800 -11.277600 7.020000
6.694060 -0.949819 18.632600 -11.277600 5.970000
7.115020 5.172070 18.242300 -11.188800 8.530000
-7.747170 1.033030 18.683400 -10.833600 8.610000
7.503650 -1.166790 19.238700 -11.188800 9.140000
-7.394470 1.055000 19.287400 -10.922400 3.940000
-8.460120 1.055000 18.844300 -10.744800 9.400000
7.546320 -1.191090 19.683500 -11.188800 4.930000
-8.487850 1.076980 19.302900 -10.744800 6.310000
7.389820 -1.215400 20.201500 -11.188800 6.440000
-8.661070 1.098960 19.696800 -10.744800 7.500000
-7.528300 -5.077920 20.954700 -11.011200 7.370000
-7.793630 -5.173730 21.305400 -11.011200 6.360000
18.488300 1.361250 15.446800 -7.903200 9.340000
7.350640 -1.483270 22.481900 -11.366400 9.120000
7.481240 -1.659180 22.881300 -11.366400 9.480000
8.594970 -1.688810 22.946300 -11.188800 7.200000
7.300020 -1.688810 23.390500 -11.455200 9.720000
18.509200 1.355670 17.375400 -8.436000 8.000000
8.565540 -1.718430 23.415600 -11.277600 9.500000
18.822900 1.378640 17.669900 -8.436000 8.310000
18.254400 1.259540 18.870300 -8.791200 6.220000
18.550800 1.362710 19.176700 -8.791200 8.300000
18.850000 1.384690 19.486000 -8.791200 5.940000
-7.127390 1.896200 26.573100 -11.366400 6.160000
-7.446550 1.925830 26.931700 -11.277600 5.100000
-7.564190 1.779930 27.357200 -11.277600 10.780000
18.260500 1.833870 22.841900 -9.501600 9.460000
18.529100 1.860830 23.177800 -9.501600 8.820000
-7.302780 1.677250 28.772500 -11.366400 10.130000
-7.408620 1.701560 29.189400 -11.366400 5.720000
-7.731130 2.386690 29.504600 -11.366400 17.690000
18.542200 1.654370 24.819100 -9.679200 5.900000
18.605200 1.677350 25.308000 -9.768000 7.990000
-6.223110 1.845970 30.338200 -11.544000 7.110000
18.856900 1.798790 25.650300 -9.768000 9.240000
19.111700 1.823100 25.996900 -9.768000 6.250000
18.496500 1.746280 26.968200 -9.945600 6.810000
18.739900 1.769260 27.323100 -9.945600 4.900000
-7.092270 1.974160 32.352300 -11.455200 14.540000
18.980100 1.896030 27.673200 -9.945600 4.570000
8.694730 1.792240 32.416600 -11.544000 14.990000
19.223400 1.920330 28.028000 -9.945600 10.790000
8.956740 0.285851 32.393500 -11.544000 11.420000
18.808500 1.838190 28.830200 -10.123200 16.190000
9.186110 0.399787 33.223100 -11.544000 6.970000
19.043600 1.861170 29.190600 -10.123200 16.340000
9.185740 0.506391 33.221700 -11.544000 7.820000
19.278700 1.884150 29.550900 -10.123200 11.840000
9.040580 0.620651 33.706000 -11.544000 14.240000
19.516200 1.824280 29.914900 -10.123200 7.730000
19.385100 1.858340 33.537000 -10.478400 10.350000
7.180110 -2.755220 37.571100 -11.544000 10.480000
9.009370 -2.786180 37.616900 -11.544000 10.210000
19.600500 1.878990 33.909600 -10.478400 10.350000
8.891400 -2.696160 38.095200 -11.632800 6.430000
19.236600 1.301110 35.130600 -10.567200 10.380000
19.443500 1.315100 35.508400 -10.567200 7.100000
19.650300 1.329090 35.886100 -10.567200 11.460000
19.271000 2.002880 37.035600 -10.656000 6.320000
6.661180 1.598790 40.795200 -11.721600 10.230000
19.469600 2.023530 37.417400 -10.656000 12.970000
9.162390 3.002880 40.670000 -11.632800 6.550000
19.671100 1.912380 37.804600 -10.656000 6.960000
19.869800 1.931700 38.186500 -10.656000 9.750000
9.124320 2.044180 41.621700 -11.632800 4.990000
9.215080 2.197930 42.035700 -11.632800 10.400000
7.335750 2.085470 42.847500 -11.632800 12.450000
19.563500 2.188710 41.215500 -10.922400 6.240000
19.748100 2.209360 41.604400 -10.922400 6.600000
19.932600 2.230010 41.993200 -10.922400 16.010000
20.114100 2.395740 42.375500 -10.922400 6.900000
19.720000 2.417720 43.034200 -11.011200 5.250000
-6.673620 0.689957 46.486400 -11.721600 13.690000
19.905200 2.144190 43.438300 -11.011200 8.670000
20.084500 2.163510 43.829600 -11.011200 10.300000
20.263900 2.182820 44.221000 -11.011200 11.410000
19.929000 2.068350 45.322200 -11.011200 5.320000
20.102300 2.086330 45.716300 -11.011200 6.250000
20.275600 2.104320 46.110400 -11.011200 16.780000
20.453800 1.808030 46.515700 -11.011200 5.850000
19.987800 2.140290 47.172500 -11.100000 7.320000
20.155800 2.158270 47.568900 -11.100000 13.140000
20.326300 2.015140 47.971300 -11.100000 8.200000
-21.331700 -0.778575 48.512100 -10.744800 9.370000
-21.881400 -0.784905 48.739300 -10.656000 6.680000
-8.565930 2.302160 54.437300 -11.632800 11.990000
-8.632850 2.320140 54.862600 -11.632800 5.150000
20.496100 2.181680 52.550100 -11.188800 7.040000
-8.699780 2.338130 55.287900 -11.632800 7.790000
20.652500 2.198330 52.951300 -11.188800 9.360000
20.809000 2.214990 53.352400 -11.188800 7.300000
20.815100 1.708880 54.293100 -11.277600 7.690000
9.299940 -1.874720 56.955900 -11.721600 6.350000
20.969200 1.721540 54.695200 -11.277600 6.680000
9.037500 -1.888710 57.434100 -11.721600 9.900000
9.102440 -2.264950 57.846800 -11.721600 7.160000
-18.144800 -1.746860 56.601300 -11.100000 9.700000
10.737800 -2.281600 58.003700 -11.632800 13.790000
20.387900 1.772180 56.748800 -11.277600 5.920000
20.533500 1.784830 57.154100 -11.277600 11.630000
-3.657170 2.252380 63.196500 -11.721600 5.910000
-3.314190 2.267700 63.646600 -11.721600 5.770000
-15.154300 -0.553378 63.274100 -11.366400 6.850000
-15.745100 -0.557043 63.573700 -11.366400 5.140000
21.096600 2.154520 62.878900 -11.366400 8.750000
21.233600 2.168510 63.287200 -11.366400 9.780000
21.014900 1.987370 64.273800 -11.366400 7.390000
12.311900 1.412180 66.506600 -11.721600 6.630000
21.148700 2.000030 64.683200 -11.366400 6.410000
12.777000 1.421170 66.857400 -11.721600 6.670000
21.284400 1.800880 65.098200 -11.366400 8.900000
12.858600 1.218320 67.284600 -11.721600 11.820000
21.302200 1.834850 66.450700 -11.366400 8.890000
21.433700 1.846180 66.860900 -11.366400 13.060000
-18.304400 1.256630 68.244300 -11.277600 8.830000
-18.944600 1.264290 68.516400 -11.366400 6.790000
21.304000 1.714300 68.261700 -11.455200 8.070000
21.432400 1.724620 68.672900 -11.455200 8.630000
21.562200 1.511120 69.088900 -11.455200 11.170000
21.405500 2.604790 70.007300 -11.455200 11.090000
21.537600 1.936790 70.439300 -11.455200 10.020000
21.664800 1.776260 70.855400 -11.455200 10.260000
21.790800 1.786590 71.267300 -11.455200 9.410000
21.365100 1.565090 71.851000 -11.455200 8.860000
21.487900 1.574080 72.264000 -11.455200 13.900000
21.610700 1.583080 72.676900 -11.455200 8.110000
-27.705900 1.827890 71.035500 -10.922400 12.570000
21.733500 1.592070 73.089900 -11.455200 14.500000
-27.862400 1.838220 71.436900 -10.922400 11.590000
21.431000 1.601070 73.627900 -11.455200 8.590000
-28.018900 1.848550 71.838200 -10.922400 11.780000
21.544800 2.504280 74.018600 -11.455200 10.590000
-28.175500 1.858880 72.239500 -10.922400 6.880000
-15.582000 1.619060 75.963400 -11.455200 14.010000
-28.332000 1.869200 72.640900 -10.922400 5.490000
21.792200 1.628050 74.868800 -11.455200 16.360000
21.911100 1.879530 75.277200 -11.455200 4.990000
22.028300 2.316490 75.679900 -11.455200 14.240000
22.583600 2.819300 75.948900 -11.455200 6.810000
12.373600 4.250820 78.635500 -11.721600 7.120000
12.440500 4.273790 79.060600 -11.721600 10.860000
18.039800 0.879541 101.827000 -11.721600 9.970000
18.115000 0.883206 102.251000 -11.721600 13.970000
20.506000 2.896310 137.196000 -11.721600 10.000000
20.567000 3.658380 137.604000 -11.721600 12.390000
-60.670200 -12.513800 135.139000 -10.567200 9.220000
-61.888900 -12.550100 135.057000 -10.567200 14.080000
-62.067700 -12.586300 135.448000 -10.567200 13.820000
-7.929470 4.009500 152.280000 -11.810400 6.160000
-7.952880 3.193140 152.729000 -11.721600 6.420000
-6.814710 1.784050 153.670000 -11.810400 7.410000
-6.833520 2.266100 154.094000 -11.810400 6.740000
-6.852610 2.272430 154.525000 -11.721600 8.060000
-6.871700 2.278760 154.955000 -11.810400 7.890000
-6.890790 2.285090 155.385000 -11.810400 6.070000
-7.006050 0.366813 157.985000 -11.810400 6.320000
-6.109240 0.858225 158.451000 -11.810400 4.950000
-6.125840 0.860557 158.882000 -11.810400 5.770000
-6.142440 0.862890 159.312000 -11.810400 6.920000
5.572320 -1.163800 9.145580 -10.212000 1.780000
4.939040 -1.640670 10.405300 -10.744800 4.770000
5.316580 -1.640670 10.217600 -10.567200 0.970000
6.057040 -1.701440 10.295000 -10.656000 3.110000
4.633140 -2.058190 11.421500 -11.011200 4.160000
6.141580 -1.196220 10.816800 -10.656000 6.670000
4.792900 -2.129160 11.815300 -11.011200 4.850000
6.180130 -1.237470 11.286400 -10.567200 7.160000
5.396230 -2.200140 12.019700 -10.922400 5.710000
7.999020 -0.566237 12.261100 -10.212000 17.670000
-7.971240 2.034410 12.640100 -9.945600 14.350000
-8.052280 1.066610 13.215800 -9.945600 9.840000
7.377480 3.629040 13.659900 -10.744800 6.840000
-8.065600 1.096240 13.708900 -10.123200 7.190000
-8.887310 1.280630 13.174400 -9.679200 7.180000
7.140830 3.727130 14.255900 -10.833600 7.690000
-8.283590 1.125870 14.079400 -10.123200 6.880000
7.553400 3.825210 14.516400 -10.833600 6.210000
7.155320 0.377780 16.618900 -11.011200 8.370000
7.456600 0.386775 16.957700 -11.011200 6.460000
-8.107190 1.420610 17.079900 -10.567200 7.260000
6.797300 -0.689503 18.147000 -11.277600 10.350000
-8.291450 1.452900 17.468000 -10.567200 8.230000
7.084300 -1.118170 18.478400 -11.277600 10.190000
-7.563780 1.714310 18.241100 -10.833600 5.380000
7.338360 -1.517470 18.814900 -11.277600 9.540000
-7.729740 1.704780 18.641400 -10.833600 5.090000
7.404110 0.000000 19.312500 -11.277600 10.650000
-7.761060 1.230650 19.132300 -10.922400 7.460000
-7.925520 1.125890 19.537800 -10.922400 8.770000
-7.260980 1.730580 20.210600 -11.100000 9.830000
-8.087260 1.148870 19.936500 -10.922400 9.270000
-7.399040 2.115880 21.502000 -11.188800 4.540000
-7.959350 2.155800 21.758400 -11.100000 4.470000
17.864900 1.688810 16.770600 -8.613600 8.460000
18.178300 1.718430 17.064800 -8.613600 8.640000
18.491700 1.748060 17.359000 -8.613600 3.730000
18.809000 1.697910 17.656900 -8.613600 9.950000
-7.616120 0.909377 26.937800 -11.366400 8.040000
-7.574260 1.011270 27.393600 -11.366400 11.000000
18.802900 7.889610 20.437700 -9.324000 14.470000
18.083900 1.833870 22.981900 -9.590400 11.280000
18.349900 1.860830 23.319900 -9.590400 8.060000
-7.297120 2.044340 28.750100 -11.455200 7.010000
18.619300 1.794690 23.662300 -9.590400 4.820000
-7.008810 2.073970 29.264000 -11.455200 8.390000
18.885300 1.820330 24.000400 -9.590400 13.420000
18.347300 1.750180 24.957000 -9.856800 5.470000
18.602100 1.774490 25.303700 -9.856800 14.590000
-5.887970 2.356920 30.809700 -11.632800 5.690000
18.856900 1.798790 25.650300 -9.856800 11.230000
19.108300 1.922880 25.992200 -9.856800 5.350000
-6.060230 1.448780 31.711100 -11.544000 6.390000
18.493400 1.847410 26.963700 -10.034400 5.600000
-6.141040 1.468090 32.133900 -11.544000 12.300000
18.739900 1.769260 27.323100 -10.034400 4.940000
-7.097720 1.487410 32.377100 -11.544000 13.010000
18.980100 1.896030 27.673200 -10.034400 9.280000
8.518400 0.493731 32.509100 -11.544000 7.190000
19.223400 1.920330 28.028000 -10.034400 10.640000
9.070920 0.500061 32.806500 -11.544000 7.070000
9.185740 0.506391 33.221700 -11.544000 15.290000
9.300940 0.404785 33.638400 -11.544000 5.760000
9.415760 0.409782 34.053700 -11.544000 15.360000
19.043200 1.415590 31.254700 -10.300800 15.390000
6.477730 8.667530 34.991600 -11.632800 18.630000
19.267200 1.432250 31.622400 -10.300800 17.430000
19.241300 0.960419 35.139100 -10.656000 6.370000
19.448200 0.970746 35.516900 -10.656000 7.940000
19.655000 0.981073 35.894700 -10.656000 6.200000
18.987700 1.873750 37.188300 -10.744800 7.340000
9.730120 1.357070 40.626300 -11.632800 6.970000
19.472400 1.893070 37.422700 -10.744800 12.210000
9.827040 1.762590 41.031000 -11.632800 6.620000
19.671100 1.912380 37.804600 -10.744800 11.550000
9.925990 1.912380 41.444100 -11.632800 7.830000
19.869800 1.931700 38.186500 -10.744800 10.720000
9.784100 1.931700 41.920000 -11.632800 7.730000
19.452500 0.917466 39.402000 -10.833600 11.000000
19.643200 0.926461 39.788300 -10.833600 8.020000
19.835100 0.796885 40.177000 -10.833600 11.660000
19.563500 2.188710 41.215500 -10.922400 9.620000
19.748100 2.209360 41.604400 -10.922400 10.080000
19.935500 2.086240 41.999200 -10.922400 5.520000
20.120100 2.105550 42.388100 -10.922400 4.350000
19.731000 1.831940 43.058100 -11.011200 6.880000
19.907900 1.996400 43.444100 -11.011200 13.610000
19.748800 2.014390 43.989000 -11.011200 7.700000
20.266600 2.032370 44.226900 -11.011200 7.010000
-5.381980 1.443060 48.805500 -11.810400 16.990000
20.454100 2.086330 45.560000 -11.011200 7.440000
-8.698610 2.511210 55.280500 -11.632800 14.980000
20.498400 2.007220 52.556200 -11.277600 15.120000
-8.334720 2.704920 55.763600 -11.721600 10.680000
20.654900 2.022540 52.957400 -11.277600 5.900000
20.811400 2.037870 53.358600 -11.277600 7.780000
20.805900 2.428060 54.269200 -11.277600 9.050000
20.960000 2.446040 54.671200 -11.277600 5.580000
-19.513800 -2.464030 55.660300 -11.100000 7.940000
-20.087800 -2.482010 55.913400 -11.011200 6.990000
-18.607100 -1.574350 56.909700 -11.188800 5.860000
-18.741000 -1.585680 57.319200 -11.188800 9.570000
21.382700 0.749601 60.991000 -11.366400 7.530000
21.440500 2.140530 62.307200 -11.366400 8.430000
21.098600 1.949390 62.884900 -11.366400 5.840000
21.233600 2.168510 63.287200 -11.366400 5.570000
21.014900 1.987370 64.273800 -11.455200 8.280000
21.146700 2.210490 64.677000 -11.455200 7.120000
12.466000 2.012690 67.339400 -11.721600 7.290000
21.278300 2.436250 65.079500 -11.455200 12.400000
12.543200 2.238470 67.756400 -11.721600 11.870000
21.174700 1.233640 66.052900 -11.455200 7.130000
21.303500 1.672990 66.454600 -11.455200 5.430000
-18.713900 1.466150 67.681900 -11.366400 11.270000
-18.829800 1.256630 68.101200 -11.366400 9.300000
-18.416000 1.264290 68.660400 -11.455200 13.460000
21.829500 1.714300 68.095400 -11.455200 9.810000
21.961000 1.724620 68.505700 -11.455200 10.890000
22.092500 1.734950 68.915900 -11.455200 7.970000
21.794700 1.095070 71.280100 -11.544000 7.670000
21.918300 1.565090 71.684200 -11.544000 9.130000
22.044200 1.574080 72.096200 -11.544000 7.420000
21.610700 1.583080 72.676900 -11.544000 11.070000
-28.252600 1.827890 70.819900 -10.922400 9.770000
21.732000 1.827890 73.084800 -11.544000 8.780000
-28.412200 1.838220 71.220000 -10.922400 8.950000
21.431000 1.601070 73.627900 -11.544000 7.440000
-28.571800 1.848550 71.620100 -10.922400 8.580000
21.552700 1.371560 74.046000 -11.544000 11.600000
-28.731400 1.858880 72.020200 -10.922400 15.100000
21.675100 0.899522 74.466400 -11.544000 9.190000
21.794600 1.145710 74.877100 -11.544000 12.460000
21.915000 1.152040 75.290700 -11.544000 13.020000
22.036300 0.914514 75.707500 -11.544000 9.370000
18.039300 1.199360 101.823000 -11.810400 9.080000
18.114400 1.204360 102.248000 -11.810400 11.910000
18.190200 0.886871 102.675000 -11.810400 14.590000
18.265300 0.890536 103.099000 -11.721600 12.860000
20.506000 2.896310 137.196000 -11.810400 5.090000
-59.656900 -11.597300 135.671000 -10.656000 6.840000
-60.846100 -12.550100 135.530000 -10.567200 5.420000
-61.041400 -12.010300 135.965000 -10.567200 6.940000
-6.815150 0.356818 153.680000 -11.810400 7.020000
-8.021810 0.357817 154.053000 -11.810400 4.890000
-8.044220 0.358817 154.483000 -11.810400 6.620000
-6.871700 2.278760 154.955000 -11.810400 5.390000
-6.890790 2.285090 155.385000 -11.810400 5.770000
-7.025060 0.858225 158.413000 -11.810400 5.090000
-7.044000 1.352290 158.840000 -11.810400 4.790000
-7.063240 0.862890 159.274000 -11.810400 4.890000
-48.697200 -22.722100 163.769000 -11.188800 5.370000
5.162900 -1.569400 10.307200 -10.744800 6.280000
5.436340 -1.627530 10.647400 -10.744800 6.780000
5.715320 -1.685650 10.983900 -10.833600 7.300000
6.170200 -1.436300 11.268200 -10.656000 7.050000
5.701680 1.278720 12.012000 -10.922400 6.440000
6.819740 -1.484170 11.389500 -10.478400 4.490000
5.789870 1.319970 12.444500 -10.922400 4.180000
5.970800 1.361220 12.833400 -11.011200 4.680000
6.875760 1.700060 12.330200 -10.744800 10.160000
-1.320270 1.233240 14.538800 2.397600 11.680000
-1.359530 1.211410 14.971200 2.397600 9.470000
-1.399280 1.114470 15.408900 2.397600 7.560000
-1.372090 2.359220 16.145100 2.397600 12.040000
7.334010 3.774580 14.641600 -11.011200 6.720000
-2.064180 0.896118 16.653800 2.397600 4.090000
-7.350130 1.809070 15.484900 -10.656000 6.870000
-2.117110 0.919096 17.080800 2.397600 3.990000
7.262070 3.968150 15.608800 -11.100000 7.300000
-7.655990 1.854300 15.813500 -10.656000 4.920000
7.211980 -2.552160 16.401300 -11.188800 8.410000
-8.093730 0.965050 16.158300 -10.567200 7.810000
7.383700 -2.612930 16.791900 -11.188800 10.440000
-8.186260 1.159650 16.581700 -10.656000 10.250000
6.024430 -0.716123 17.507300 -11.455200 11.400000
6.267980 -0.732777 17.878500 -11.366400 7.170000
7.687610 -2.673690 17.123600 -11.188800 8.130000
8.110810 1.303640 17.087500 -11.011200 8.470000
-8.376640 1.186620 16.967300 -10.656000 6.480000
6.551170 -0.749431 18.234900 -11.366400 9.280000
-8.563530 1.333270 17.345900 -10.656000 6.000000
6.926690 1.714310 18.492400 -11.277600 4.030000
-6.940430 1.179370 18.529100 -11.011200 10.290000
-7.237010 1.205010 18.876700 -11.011200 11.210000
7.397650 -0.863309 19.295700 -11.366400 7.090000
-7.500890 1.294490 19.231600 -11.011200 9.690000
7.535320 1.647150 19.654800 -11.366400 7.070000
-7.808240 1.321460 19.572700 -11.011200 5.940000
-7.111160 1.481410 20.283600 -11.188800 6.700000
-7.710610 1.217800 21.462200 -11.188800 6.680000
-7.982360 1.240780 21.821300 -11.188800 7.070000
17.673700 1.528120 15.057700 -8.080800 9.790000
-8.301240 1.263760 22.162100 -11.188800 4.870000
18.001000 1.556420 15.336500 -8.080800 8.870000
18.328300 1.584720 15.615400 -8.080800 8.920000
7.788790 1.916070 23.214700 -11.544000 8.040000
18.182100 1.641310 17.068400 -8.613600 10.020000
7.925440 1.949690 23.621900 -11.544000 11.550000
18.323600 1.748060 17.536400 -8.613600 9.490000
18.638000 1.697910 17.837300 -8.613600 9.840000
17.956400 -4.889510 18.562200 -9.057600 7.770000
18.250800 -4.969670 18.866500 -9.057600 5.950000
-16.237300 0.965305 21.733900 -11.366400 6.330000
18.545100 -5.049830 19.170800 -9.057600 11.190000
-13.017400 1.531410 23.772800 -14.208000 6.500000
-13.229900 1.321490 24.160900 -14.208000 11.370000
-13.784900 1.321490 23.848500 -14.030400 4.040000
-7.702340 0.980627 26.462000 -11.455200 6.950000
-14.000300 1.342140 24.221200 -14.030400 7.600000
-7.964070 1.925830 26.783200 -11.455200 11.900000
18.436400 1.867700 21.573400 -9.412800 8.680000
-14.019500 1.604330 24.691700 -14.030400 6.630000
-15.873200 1.779930 23.530200 -12.432000 14.830000
18.715700 1.896000 21.900300 -9.412800 5.890000
-16.113800 1.806900 23.886700 -12.432000 6.320000
-18.428500 2.014720 22.691200 -13.320000 8.960000
8.071610 1.952600 28.548800 -11.632800 5.550000
18.615500 1.312950 25.321900 -9.945600 6.300000
18.872900 1.232400 25.672000 -9.945600 6.590000
-7.191110 1.366910 31.919900 -11.632800 5.170000
18.949900 1.769260 27.177800 -10.123200 7.220000
-7.285730 1.384890 32.339900 -11.632800 7.780000
19.196000 1.792240 27.530800 -10.123200 4.510000
8.955640 0.597664 32.389600 -11.721600 8.010000
9.071280 0.394790 32.807800 -11.721600 8.340000
9.185740 0.506391 33.221700 -11.721600 8.650000
9.300560 0.512720 33.637000 -11.721600 11.390000
18.811600 1.734450 30.874500 -10.478400 8.920000
19.035500 1.755100 31.242100 -10.478400 5.250000
19.259500 1.775750 31.609600 -10.478400 7.090000
-13.138300 1.564750 35.075800 -13.764000 12.940000
9.778240 -9.570440 35.364700 -11.721600 8.990000
19.150300 2.518570 33.130800 -10.656000 5.890000
7.456630 -9.679190 36.351600 -11.810400 8.060000
7.540410 -9.787950 36.760100 -11.810400 6.210000
19.614500 1.151910 33.934000 -10.656000 10.000000
19.031600 1.164570 34.756200 -10.744800 8.590000
19.238500 1.177230 35.134000 -10.744800 6.720000
19.449500 0.845508 35.519400 -10.744800 10.380000
19.656400 0.854503 35.897200 -10.744800 9.580000
19.273700 1.873750 37.040900 -10.833600 5.970000
19.472400 1.893070 37.422700 -10.833600 10.320000
19.671100 1.912380 37.804600 -10.833600 11.250000
9.372300 1.121300 41.601700 -11.810400 8.400000
19.869800 1.931700 38.186500 -10.833600 7.270000
9.466970 1.132630 42.021900 -11.810400 10.840000
19.246600 1.951020 38.985000 -10.922400 8.930000
19.437200 1.970340 39.371000 -10.922400 8.730000
7.079740 1.291160 43.358600 -11.899200 16.540000
19.627700 1.989650 39.757000 -10.922400 10.490000
19.818300 2.008970 40.143000 -10.922400 12.440000
19.566300 2.047600 41.221500 -11.011200 7.670000
19.750900 2.066920 41.610300 -11.011200 14.420000
19.935500 2.086240 41.999200 -11.011200 6.160000
19.731000 1.831940 43.058100 -11.100000 15.670000
19.907900 1.996400 43.444100 -11.100000 12.590000
20.087200 2.014390 43.835500 -11.100000 6.250000
20.263900 2.182820 44.221000 -11.100000 11.590000
19.931500 1.915210 45.327900 -11.188800 7.340000
-5.427470 1.915210 49.218100 -11.899200 14.380000
20.104800 1.931870 45.722000 -11.188800 12.640000
-21.500200 -2.803240 47.890200 -10.833600 9.470000
-21.676400 -2.826220 48.282700 -10.833600 13.190000
-22.249200 -1.569640 48.553500 -10.833600 7.060000
-23.086800 -1.582300 48.638100 -10.744800 6.130000
-13.233500 2.747410 52.139200 -11.899200 7.920000
-8.632850 2.320140 54.862600 -11.810400 5.570000
-8.699780 2.338130 55.287900 -11.810400 7.120000
20.500600 1.832740 52.561700 -11.366400 8.660000
-8.766700 2.356110 55.713200 -11.810400 7.150000
20.657100 1.846730 52.962900 -11.366400 8.050000
-8.833620 2.374100 56.138500 -11.810400 7.980000
-18.626700 -2.264950 55.517200 -11.277600 10.720000
-19.206400 -0.867194 55.814800 -11.277600 8.920000
-18.468000 -2.114480 56.484100 -11.277600 5.780000
-18.274500 -1.944670 57.006000 -11.366400 8.920000
-17.954300 -2.704380 57.528700 -11.366400 9.530000
-18.082600 -2.723700 57.939600 -11.366400 9.280000
20.326900 1.111040 59.071100 -11.455200 7.840000
-16.488900 -1.358210 62.927300 -11.544000 7.490000
-16.598100 -1.367200 63.344000 -11.544000 7.330000
20.967300 1.172340 62.493700 -11.544000 8.930000
21.101700 1.590370 62.894000 -11.544000 6.830000
21.235600 1.962050 63.293300 -11.544000 8.910000
