VERSION .7
FIELDS x y z velocity SNR
SIZE 4 4 4 4 4
TYPE F F F F F
COUNT 1 1 1 1 1
WIDTH 213
HEIGHT 1
VIEWPOINT 0 0 0 1 0 0 0
POINTS 213
DATA ascii
-0.616450336956292 9.91510654139853 1.48023287913664 4.79615592604354 8.55425582091911
5.99233839633013 8.046975623045 0.467441961832623 4.79615592604354 8.55425582091911
4.1457051663008 8.98757038572472 3.05298031321932 2.63015002395936 5.05072761560166
6.16766410737513 8.28241655270548 0.803415871899822 4.79615592604354 8.77142464520645
4.46977929119865 9.69013819768289 0.0827761807411935 2.63015002395936 8.97930786453659
5.41552298594006 9.08715961754407 1.40719507260029 3.55843826770973 6.39063163034756
4.74107881129758 9.61830596429203 2.38590168018735 2.16600590208418 7.39473950960126
-0.766689307952679 10.9557749322338 0.255632322877217 2.32072060937591 7.31666012848014
4.81556609237476 9.55960727187456 2.47111245447975 2.32072060937591 7.31666012848014
5.41645132345278 9.47156389902787 1.27816161438608 2.32072060937591 7.31666012848014
5.96916387894636 9.0470548241399 1.78942626014051 2.32072060937591 7.31666012848014
5.2307011003381 9.33892574022453 2.47111245447975 2.47543531666763 7.42218362050937
5.56882633588227 9.34440014896568 1.53379393726329 3.55843826770973 10.9717345837703
4.96209150776409 9.85048178166236 2.45407029962127 2.16600590208418 6.56011795641802
6.14748554482135 9.31732481843395 1.75290735687234 2.16600590208418 6.56011795641802
5.47897001314927 9.78218657579396 1.40232588549787 2.32072060937591 5.39885695368966
6.10470074624167 9.25247881550287 2.19113419609042 2.32072060937591 5.39885695368966
4.78235529173769 9.91693318658152 2.54171566746489 2.47543531666763 5.45940858962843
5.3992091398437 9.63978102470483 2.36642493177766 2.47543531666763 5.45940858962843
5.7931229270098 9.14331830189351 3.24287861021383 2.47543531666763 5.45940858962843
5.55449320978545 9.3203493961578 3.15523324237021 3.55843826770973 6.61976687517386
5.57844524119736 10.1703038510081 2.7754366483812 2.63015002395936 5.0438538415747
5.77510422707839 10.5288413206727 2.37372871243129 2.47543531666763 5.19778158629381
5.1917043132253 10.3062969864995 4.08281338538182 2.63015002395936 7.51664361777835
5.95582744164227 10.6335707455151 -1.13938978196702 2.63015002395936 7.51664361777835
7.22257397930303 9.69903114661961 1.89898296994503 4.02258238958491 5.52070293500941
5.42357922841003 10.7666028119922 3.50581471374468 2.47543531666763 5.32818724789541
6.23709837203499 10.6833622678664 2.14244232506619 2.63015002395936 7.7680221409071
6.29250995470184 10.7782753149525 1.36337238867849 2.78486473125109 7.11675494275994
7.42510178117636 9.97100114845758 1.75290735687234 4.02258238958491 6.71844958787839
6.58781196186468 11.0542414801401 0.0998183355996745 2.47543531666763 5.06735727973351
6.46453165985507 11.0729267833866 1.09800169159642 2.63015002395936 6.24860200459439
6.36507732662654 11.1303938725265 1.09800169159642 2.78486473125109 9.1196971602977
5.04436384136312 14.6393216072 2.55632322877216 1.08300295104209 14.8671416831913
5.55066972712216 14.5326447232478 2.06940451852984 1.08300295104209 14.8671416831913
4.84039227284757 14.830926618246 1.70421548584811 1.23771765833382 7.36706096755315
-3.85728695123989 14.5673330863179 4.38226839218084 1.39243236562554 6.7665308501604
4.477362852384 14.9445308925684 1.70421548584811 1.39243236562554 6.7665308501604
4.58996606039842 14.8804874386322 1.94767484096926 1.54714707291727 5.22779931484744
5.34708136612509 14.3555373047568 3.40843097169621 1.54714707291727 5.22779931484744
6.1677201183125 13.9924024551056 3.53016064925679 1.54714707291727 5.22779931484744
5.45606010466105 14.2849398338883 3.53016064925679 1.701861780209 6.01147013260246
5.83247900909041 14.1940098402351 3.28670129413563 1.701861780209 6.01147013260246
4.58730113509391 15.3114826265248 0.869149897782533 0.928288243750363 6.95554187810359
5.38309567186404 14.8256810841171 2.73161396445939 0.928288243750363 6.95554187810359
5.37558466634329 14.8049948880583 2.85577823557118 1.08300295104209 24.8547421475768
4.59100537364004 14.4653841675011 5.09073511558342 1.23771765833382 12.9092145825254
5.28122083649655 14.5451057587426 4.09742094668909 1.23771765833382 12.9092145825254
4.70103653163195 15.2405734894319 1.3658069822297 1.39243236562554 11.0386936200104
5.16936285021551 15.0020830472385 2.11079260890044 1.39243236562554 11.0386936200104
5.61171628166518 14.6924755062643 2.97994250668297 1.39243236562554 11.0386936200104
6.19195016434456 14.3757150799042 3.35243532001835 1.39243236562554 11.0386936200104
4.70402717044195 15.2502690215252 1.24164271111791 1.54714707291727 5.74063174784019
5.20720669389039 15.1119102159028 0.869149897782533 1.54714707291727 5.74063174784019
6.44549290592069 14.2924504793872 3.22827104890656 1.54714707291727 5.74063174784019
-11.010877510631 11.2933217020622 2.73161396445939 3.24900885312627 5.51786820757372
-7.82995734089315 13.6919796472308 2.73161396445939 3.24900885312627 5.51786820757372
-4.18023587290903 15.2895666800125 -2.23495688001223 3.24900885312627 5.51786820757372
9.15961975870555 12.5509404830489 -3.84909240446551 3.24900885312627 5.51786820757372
4.81082169228375 15.1579835518809 3.67136707522706 1.08300295104209 20.1820598118674
5.36390459995009 15.161092785525 2.78517502258605 1.08300295104209 20.1820598118674
4.71800789969586 14.8655449558524 4.81075685719408 1.23771765833382 23.8690271546342
5.39621630862833 15.2524219290996 2.15218069927104 1.23771765833382 23.8690271546342
4.79321371852669 15.5394082637344 1.39258751129302 1.39243236562554 12.7703087818599
5.42735023380197 15.3404220639901 1.26598864663002 1.39243236562554 12.7703087818599
4.93676157134329 15.5547961417909 0.253197729326004 1.54714707291727 7.25795168300712
5.43326027796663 15.3571268219285 1.01279091730402 1.54714707291727 7.25795168300712
5.93563024625007 15.1610517913386 1.13938978196702 1.54714707291727 7.25795168300712
6.75357566895867 14.6412333355208 2.53197729326004 1.54714707291727 7.25795168300712
-11.9655916087662 10.9774047620139 -1.64578524061903 3.09429414583454 18.5229436074175
-1.25953595881749 16.18926703175 -1.64578524061903 3.09429414583454 18.5229436074175
-1.26049258024175 16.20156282972 -1.51918637595603 3.24900885312627 28.4527474555518
4.91218541501358 15.4773613505552 3.61293682999798 1.08300295104209 7.45436209661108
5.02851882083689 15.8439057716117 0.645167291071069 1.23771765833382 13.3164813700088
5.02685205568765 15.8386541118468 0.774200749285282 1.39243236562554 11.0490438952781
4.52637583595179 15.1081263104997 -5.29037178678276 1.54714707291727 6.33737367437156
4.85143844947728 14.8647720228687 -5.67747216142541 1.54714707291727 6.33737367437156
5.65676841680377 15.5794081373252 1.41936804035635 1.54714707291727 6.33737367437156
5.87478605128033 15.0056408319512 -4.12907066285484 1.54714707291727 6.33737367437156
6.37476784287866 14.8001588800675 -4.12907066285484 1.54714707291727 6.33737367437156
7.00205742741595 14.8445375793752 2.70970262249849 1.54714707291727 6.33737367437156
-1.28473282216948 16.5131313456762 -1.54840149857056 3.09429414583454 54.9667912051341
-1.28375780417937 16.5005990900528 -1.67743495678478 3.24900885312627 96.0302440235837
-1.28375780417937 16.5005990900528 -1.67743495678478 3.403723560418 11.6261079882695
5.24589252532739 16.0733764341305 1.18321246588883 1.23771765833382 5.03297604641558
6.4184430664077 15.620020903905 1.44614856941968 1.23771765833382 5.03297604641558
-2.2105523801792 16.6176652673362 -2.49789298354308 2.93957943854282 6.8577322180329
-2.2078997379288 16.5977242239181 -2.62936103530851 3.09429414583454 69.3134980323612
-1.31147313133185 16.856834121695 -1.18321246588883 3.09429414583454 69.3134980323612
-1.30988634008321 16.8364385251517 -1.44614856941968 3.24900885312627 63.8269905798586
-1.17517649249913 16.7929421004357 -1.97202077648138 3.403723560418 9.26657951747992
-2.25404875499997 16.9446460724938 -2.41024761569946 2.93957943854282 5.64225506507506
-2.2514885353677 16.9253998093239 -2.5441502610161 3.09429414583454 21.7763169368056
-2.24878677011266 16.905089487324 -2.67805290633274 3.24900885312627 13.5292936581367
-1.33499223103358 17.1591335382001 -1.33902645316637 3.24900885312627 13.5292936581367
-1.35642334026499 17.4345952649615 -1.77238410528203 3.09429414583454 8.46380604743846
-1.35745354795266 17.4478368935446 -1.63604686641418 3.24900885312627 15.9953245035828
-1.35840064897518 17.4600103223795 -1.49970962754633 3.403723560418 5.00949002413397
-1.37951179776156 17.7313594828835 -1.94280565386684 3.24900885312627 9.02759256192094
-10.1859740216952 22.5867177909195 0.961664452728574 0.773573536458636 6.80913545443293
-10.3149104017167 22.8726256110577 0.973837420484632 0.773573536458636 6.00831936532737
5.58242931777518 25.0899642878412 4.24349655976178 0.309429414583454 17.1812263610809
5.58242931777518 25.0899642878412 4.24349655976178 0.464144121875182 42.438723293228
6.86297847177095 25.1019249051633 1.21242758850337 0.618858829166909 7.08029333231515
5.66363747078592 25.4549504870275 3.88561130773368 0.309429414583454 35.532728309309
5.66363747078592 25.4549504870275 3.88561130773368 0.464144121875182 85.6431792650791
8.07098214618099 24.7294304262586 4.29462302433723 0.773573536458636 7.47722104767562
4.90754996441226 25.9013113894795 0.409011716603544 4.48672651146009 6.06910617050041
5.92906398150071 25.6826607932444 0.61351757490532 4.48672651146009 6.06910617050041
16.7614069136447 20.3350767116884 -0.818023433207092 4.48672651146009 6.06910617050041
17.9878513219601 19.2586944369052 0.818023433207092 4.48672651146009 6.06910617050041
5.9278146401914 25.6772490774724 0.818023433207092 4.64144121875182 6.04034707916398
16.5629811298914 20.5092572863779 -0.409011716603544 4.64144121875182 6.04034707916398
5.73106172639052 25.7579856118731 3.9318685852067 0.309429414583454 10.5968600492851
7.01880990657229 25.6718915734746 1.86246406667686 0.309429414583454 10.5968600492851
5.73757864909082 25.7872756124284 3.72492813335372 0.464144121875182 27.4787353120399
6.96705978818171 25.4826111333542 3.72492813335372 0.618858829166909 7.75071605666718
8.15620556343037 24.9905543550921 4.55268994076565 0.618858829166909 7.75071605666718
7.9523004243446 25.0561851471591 4.55268994076565 0.773573536458636 9.07527477385172
16.7495655933537 20.7402971418712 -1.03470225926492 4.48672651146009 9.36931993448309
16.550753314534 20.9156789856418 -0.620821355558955 4.64144121875182 8.86199871509925
4.14213398940906 26.3773633165504 7.07005967271843 0.309429414583454 5.04377744906322
5.2775447763373 26.6990626859164 4.71337311514562 0.309429414583454 5.04377744906322
-16.6797518330149 22.3988612660647 -0.650036478173494 -2.93957943854282 6.2799050088657
5.02442530589001 27.7116240843318 2.19113419609042 0.309429414583454 5.22364854411793
-18.3796321746164 21.8452562001258 0.886192052641016 0.154714707291727 9.07156622391869
-17.7153081201122 22.3873615134257 0.886192052641016 0.154714707291727 9.07156622391869
-17.7046361709754 22.3738750540449 1.32928807896152 0.309429414583454 5.62690430038645
23.721224879532 14.0133640609174 -7.53263244744863 0.309429414583454 5.62690430038645
-4.41021674664561 33.1534806907476 8.56976930026476 2.32072060937591 8.01855109930437
2.66221575006617 34.2184130371436 3.74927406886584 2.32072060937591 8.01855109930437
16.4245192753766 30.5812830466902 2.97263872602934 2.16600590208418 5.19753004080366
14.7008957309303 31.1662681134002 5.13455779950522 2.32072060937591 27.3245763585144
16.4245192753766 30.5812830466902 2.97263872602934 2.32072060937591 27.3245763585144
14.6832547930886 31.1288688821826 5.40479768368971 2.47543531666763 12.9895651519928
16.4245192753766 30.5812830466902 2.97263872602934 2.47543531666763 12.9895651519928
16.5483647512329 30.8118744867022 3.54476821056406 2.16600590208418 5.34392800352888
16.5483647512329 30.8118744867022 3.54476821056406 2.32072060937591 30.165586901365
16.5347800040473 30.7865806566768 3.81744268829976 2.47543531666763 14.1466579066234
15.0418614719555 33.3543242299197 3.1333219004093 2.01129119479245 6.40718756430866
16.5166782341805 32.7880366141587 0.854542336475267 2.01129119479245 6.40718756430866
15.0313740193829 33.3310690035567 3.41816934590106 2.16600590208418 5.43058857676664
16.5166782341805 32.7880366141587 0.854542336475267 2.16600590208418 5.43058857676664
16.3356312875506 34.6319485443513 -0.297020413247812 1.85657648750073 5.49338793045185
16.462096075901 34.9000570713943 -1.1978200271961 1.85657648750073 9.33882315997828
14.6646917734865 39.3709232013433 1.95741321517411 1.39243236562554 15.9707181687871
15.9812126857692 38.8921228464177 0.978706607587058 1.39243236562554 15.9707181687871
14.6589432138931 39.3554897983257 2.28364875103646 1.54714707291727 17.2979423224688
15.977845208332 38.8839277019851 1.30494214344941 1.54714707291727 17.2979423224688
14.7683383125042 39.6491874833878 2.30069090589494 1.39243236562554 9.5394725693676
16.0970828591404 39.1741062669253 1.31468051765425 1.39243236562554 9.5394725693676
14.7616530360677 39.6312392367264 2.62936103530851 1.54714707291727 10.3910933513275
16.0970828591404 39.1741062669253 1.31468051765425 1.54714707291727 10.3910933513275
14.5445599771856 41.1102433366908 1.35363401447364 1.23771765833382 6.95418964728259
14.5301000977511 41.0693724431675 2.36885952532887 1.39243236562554 8.89425343242293
14.6491970993236 41.4060004829979 1.36337238867849 1.23771765833382 6.98552043218302
17.0236886259379 40.4589470560246 2.04505858301773 1.23771765833382 6.98552043218302
14.6403722183066 41.3810569297659 2.04505858301773 1.39243236562554 8.94645908357721
14.2385157191212 44.8628531420753 1.09556709804521 1.08300295104209 5.7189260083332
15.6955683207038 44.3635719460692 1.46075613072695 1.08300295104209 5.7189260083332
17.1452864018374 43.793256037101 2.19113419609042 1.08300295104209 5.7189260083332
16.7374017839177 47.3083174217804 1.94767484096926 0.773573536458636 5.09590330963855
16.7419395420841 47.3211434091404 1.55813987277541 0.928288243750363 7.03639022160541
14.8405270900538 48.1123986627162 4.31166517919571 0.773573536458636 7.04165324402701
16.8364280510525 47.5882154692308 2.35181737047039 0.773573536458636 7.04165324402701
16.8364280510525 47.5882154692308 2.35181737047039 0.928288243750363 10.8491324775958
13.7308274551585 51.8554983382184 8.42369368719207 0.773573536458636 5.7024639590443
16.4019717850973 51.6794914547947 2.94829279051722 0.773573536458636 5.7024639590443
16.5476463567163 53.6468114382245 2.17896122833436 0.618858829166909 6.12874752692677
16.6345757430593 53.9286330518276 2.62936103530851 0.618858829166909 5.48235770494521
-50.4217252775875 33.8889592395196 11.5107583101283 0.773573536458636 5.12849527351826
-25.4993888000813 56.5431933599724 3.85639618511915 0.618858829166909 17.4924890531642
-25.4993888000813 56.5431933599724 3.85639618511915 0.773573536458636 29.8814665147081
-25.6498348482524 56.8767974341199 2.90690470014663 0.618858829166909 65.9043620908358
-25.6397801122605 56.8545017279039 3.39138881683773 0.773573536458636 110.76314245186
-25.1658757001721 57.0925810797516 2.90690470014663 0.928288243750363 9.14694614386604
-25.7787284907059 57.1626104865527 2.92151226145389 0.618858829166909 31.3254424241982
-25.7686232284025 57.1402027416119 3.40843097169621 0.773573536458636 56.6971541783122
-25.3007236268523 57.3985039206314 2.43459355121158 0.928288243750363 5.98156725750937
13.5001850566843 68.2973432486988 9.81628119848509 0.309429414583454 7.18388622495405
6.86295761109023 6.00846991373229 2.33720980916312 0.830573691776641 5.61213512452835
6.28625671651791 8.61372371218745 0.413880903705969 0.10382171147208 5.02068604877325
5.23589225638881 9.95771411844193 1.0517444141234 -0.5191085573604 6.05825221801528
-11.8644400459857 11.1364151349038 -1.26598864663002 1.24586053766496 26.1110052372615
-7.97234659963925 13.9409708930137 -2.91177388724905 1.24586053766496 26.1110052372615
-11.8568970931976 11.1293350322386 -1.39258751129302 1.34968224913704 33.8726116960562
-7.9941156495507 13.9790376889553 -2.65857615792305 1.34968224913704 33.8726116960562
-11.8644400459857 11.1364151349038 -1.26598864663002 1.45350396060912 6.21644023900125
-11.3884123629293 11.680540843918 -0.506395458652009 1.45350396060912 6.21644023900125
-8.02296711940095 14.0294892713565 -2.27877956393404 1.45350396060912 6.21644023900125
-1.27624483822982 16.4040322464418 -2.45163570607006 1.24586053766496 174.8757834637
-1.27769608572191 16.4226856505102 -2.32260224785585 1.34968224913704 254.669788512123
-1.27906737190206 16.4403112831824 -2.19356878964163 1.45350396060912 32.772510256194
-1.30032492951718 16.7135422888275 -2.49789298354308 1.24586053766496 266.476054592709
-1.30180355903741 16.7325476439161 -2.36642493177765 1.34968224913704 518.910614369403
-1.30180355903741 16.7325476439161 -2.36642493177765 1.45350396060912 58.0507328210579
-1.9866075312068 16.9585302973845 -2.5441502610161 1.24586053766496 63.1848304122881
-1.45850213558821 17.0315747314358 -2.41024761569946 1.24586053766496 63.1848304122881
-1.45850213558821 17.0315747314358 -2.41024761569946 1.34968224913704 110.912561836491
-1.45850213558821 17.0315747314358 -2.41024761569946 1.45350396060912 11.5822015314149
-13.1992960367682 11.2822776424178 -2.72674477735697 1.24586053766496 11.6123200416724
-12.6147370644644 12.1108796181558 -1.77238410528203 1.24586053766496 11.6123200416724
-0.946982471408515 17.4152541817452 -2.18139582188558 1.24586053766496 11.6123200416724
-1.24439202307905 17.7820125974192 -1.52649015660966 1.34968224913704 12.9539192176651
-0.75087720621812 19.3463520686114 -1.96228240227653 1.34968224913704 5.4115421723812
-0.764586459591959 19.6995709973147 -1.5337939372633 1.34968224913704 5.35009338102442
19.1110067358192 12.4584525947748 -2.13270395086134 1.14203882619288 5.20017408386322
6.38356719200581 24.9133626650035 -0.998183355996748 -1.45350396060912 14.0483407773311
6.38529787186463 24.9201170475741 -0.798546684797399 -1.34968224913704 10.569086004173
16.6724904020487 19.0129860384369 -4.79128010878439 0.41528684588832 20.3636556171276
16.7589412417396 18.7166680864599 -5.58982679358179 0.5191085573604 10.0542466541057
16.8231418613653 19.1847860529269 -5.25385288351459 0.41528684588832 16.1179762902974
-7.3140042203397 25.9292198677557 1.67500036323357 -1.45350396060912 5.22776322843796
