VERSION .7
FIELDS x y z velocity intensity
SIZE 4 4 4 4 4
TYPE F F F F F
COUNT 1 1 1 1 1
WIDTH 969
HEIGHT 1
VIEWPOINT 0 0 0 1 0 0 0
POINTS 969
DATA ascii
-7.708760 0.622944 22.402100 -11.366400 8.950000
-7.848920 0.634270 22.809400 -11.366400 9.220000
-7.990100 0.512702 23.219700 -11.366400 10.470000
-14.264900 1.618120 21.501700 -13.675200 6.150000
18.097100 1.563950 18.998500 -9.146400 9.650000
-14.505400 1.563950 21.864200 -13.675200 6.250000
18.393800 1.589580 19.310000 -9.146400 7.000000
-15.958300 1.672050 21.360500 -12.964800 5.680000
18.686900 1.699020 19.617700 -9.146400 6.400000
18.987100 1.640860 19.932900 -9.146400 6.320000
-7.339820 1.406670 26.545700 -11.632800 11.700000
18.157000 1.839400 21.246500 -9.501600 7.100000
-6.357780 1.428650 27.239900 -11.721600 6.980000
18.436400 1.867700 21.573400 -9.501600 7.230000
18.715700 1.896000 21.900300 -9.501600 12.310000
18.995000 1.924300 22.227100 -9.501600 15.200000
-7.344440 1.631390 29.654400 -11.721600 6.400000
18.347300 1.750180 24.957000 -10.034400 10.150000
-7.618930 1.845970 30.018000 -11.721600 5.150000
18.602100 1.774490 25.303700 -10.034400 7.530000
7.971470 0.656618 30.421800 -11.810400 7.140000
18.856900 1.798790 25.650300 -10.034400 6.770000
8.909530 0.665613 30.609400 -11.810400 8.090000
19.111700 1.823100 25.996900 -10.034400 12.720000
9.210120 0.474741 30.973700 -11.721600 9.120000
18.274700 2.150690 27.090000 -10.212000 13.680000
9.333590 0.278521 31.388900 -11.721600 13.900000
18.726100 2.178990 27.303000 -10.212000 10.240000
9.456710 0.076961 31.803000 -11.721600 18.250000
18.969300 2.207290 27.657500 -10.212000 5.160000
8.080010 0.077960 32.624400 -11.810400 17.930000
9.827540 0.077960 32.141200 -11.632800 11.000000
19.212500 2.235580 28.012100 -10.300800 13.750000
7.918390 1.736360 33.061800 -11.899200 11.670000
18.572000 2.263880 28.952900 -10.478400 9.380000
9.797560 -2.582930 32.949300 -11.721600 7.920000
-12.655200 2.292180 32.446900 -13.941600 7.870000
10.191000 -1.861170 33.330000 -11.810400 8.310000
-11.920800 2.320480 33.181100 -14.030400 6.670000
8.944550 -1.802300 34.135400 -11.810400 6.220000
9.062300 0.940080 34.584700 -11.810400 7.510000
9.373660 0.951406 34.947800 -11.810400 5.590000
19.038300 1.641950 31.246600 -10.567200 7.240000
18.969500 0.996711 32.818100 -10.744800 9.810000
19.185100 1.008040 33.191000 -10.744800 8.460000
19.400700 1.019360 33.564000 -10.744800 10.810000
19.616200 1.030690 33.936900 -10.744800 4.890000
8.610410 1.636690 38.219800 -11.899200 4.500000
19.029100 1.548830 35.233500 -10.833600 7.520000
9.845750 2.044070 38.791600 -11.899200 4.980000
19.231300 1.690650 35.607900 -10.833600 10.620000
8.890440 2.066050 39.462800 -11.899200 11.360000
19.435900 1.708630 35.986700 -10.833600 7.710000
9.303620 0.474748 39.861400 -11.899200 4.800000
19.640500 1.726620 36.365500 -10.833600 7.310000
9.401550 0.479745 40.281000 -11.899200 10.760000
19.276300 1.744600 37.045800 -11.011200 8.020000
6.496600 0.484742 41.286500 -11.988000 14.860000
19.472400 1.893070 37.422700 -11.011200 7.540000
-24.658700 1.893070 34.228400 -9.679200 14.310000
19.671100 1.912380 37.804600 -11.011200 10.300000
-24.910300 1.912380 34.577700 -9.679200 8.760000
19.867000 2.064820 38.181000 -11.011200 9.840000
-25.165300 1.798560 34.931600 -9.679200 10.590000
-25.417000 1.816550 35.281000 -9.679200 7.010000
9.645900 2.343690 42.816200 -11.899200 5.530000
10.071700 2.503730 43.152200 -11.899200 15.590000
9.833360 2.528040 43.648300 -11.899200 10.420000
19.569000 1.906470 41.227000 -11.100000 10.980000
19.753600 1.924460 41.615900 -11.100000 9.010000
19.938200 1.942450 42.004800 -11.100000 9.040000
19.731000 1.831940 43.058100 -11.188800 10.060000
19.907900 1.996400 43.444100 -11.188800 6.420000
20.087200 2.014390 43.835500 -11.188800 8.070000
-22.153200 -0.904158 45.757600 -10.744800 8.450000
-20.998100 -0.911821 46.771700 -10.833600 7.300000
-21.498600 -3.236230 46.915400 -10.833600 9.640000
-21.965300 -2.659490 47.211400 -10.833600 7.720000
19.755400 1.259900 48.700300 -11.366400 6.550000
-21.114900 -3.452420 48.019000 -10.922400 12.250000
19.917300 1.270230 49.099500 -11.366400 8.940000
-21.707200 -0.122937 48.351400 -10.922400 9.010000
20.079200 1.280560 49.498700 -11.366400 7.920000
-21.883800 0.000000 48.744600 -10.922400 12.450000
-8.669920 2.581030 53.097500 -11.899200 11.820000
-8.740540 2.433940 53.529900 -11.899200 6.520000
10.431800 -1.160320 54.586100 -11.988000 9.380000
10.512700 -1.169320 55.009300 -11.988000 6.960000
20.349000 1.342520 52.173000 -11.455200 7.320000
10.908000 -2.181680 55.341000 -11.988000 6.940000
20.505500 1.352850 52.574300 -11.455200 9.570000
-18.763400 -2.945220 54.527400 -11.277600 6.210000
-20.796900 -2.967200 54.245800 -11.188800 10.890000
20.397700 1.529040 54.456600 -11.544000 7.030000
-21.272800 -2.627110 54.541800 -11.188800 5.460000
20.548800 1.540370 54.859900 -11.544000 9.050000
20.699900 1.551700 55.263300 -11.544000 10.590000
-15.863800 -12.250400 60.541600 -11.632800 8.130000
20.815400 2.733810 62.040900 -11.632800 9.250000
11.500000 0.764593 64.912500 -11.988000 8.250000
20.952400 2.751800 62.449100 -11.632800 5.810000
10.314200 0.769591 65.547600 -11.988000 8.200000
21.089300 2.769780 62.857200 -11.632800 7.470000
10.381200 0.774588 65.973200 -11.988000 10.740000
-12.490100 -5.776490 65.356500 -11.810400 8.310000
20.881000 1.974710 63.864400 -11.721600 9.420000
21.014900 1.987370 64.273800 -11.632800 6.400000
21.148700 2.000030 64.683200 -11.632800 7.470000
-18.253400 1.642010 66.016400 -11.544000 7.110000
-18.367100 1.812200 66.427700 -11.544000 7.860000
21.178000 0.160918 66.063200 -11.632800 7.860000
21.309500 0.161917 66.473500 -11.721600 8.010000
21.178400 1.264290 67.859200 -11.721600 7.930000
21.306800 1.271950 68.270500 -11.721600 9.530000
21.435100 1.279610 68.681700 -11.721600 7.080000
21.288400 1.520120 69.624400 -11.721600 9.780000
21.414400 1.529110 70.036300 -11.721600 13.490000
21.540400 1.538100 70.448300 -11.721600 13.890000
22.075600 1.547100 70.733900 -11.721600 13.860000
-28.015700 1.556090 69.063500 -11.100000 11.480000
21.239600 1.959440 71.429000 -11.721600 6.370000
-28.177600 1.565090 69.462700 -11.100000 7.350000
21.362400 1.970770 71.841900 -11.721600 6.080000
-28.339600 1.574080 69.861900 -11.100000 9.230000
-28.499500 1.817570 70.256200 -11.100000 12.000000
21.738200 0.176910 73.105600 -11.721600 6.180000
21.861000 0.177909 73.518600 -11.721600 11.380000
18.432500 0.234880 99.569500 -11.988000 11.180000
18.510400 0.864882 99.989800 -11.988000 12.620000
18.588800 0.868547 100.413000 -11.988000 8.910000
18.667600 0.555048 100.839000 -11.988000 9.370000
34.497300 1.209360 98.398800 -11.544000 11.440000
34.641700 0.566709 98.810600 -11.544000 5.550000
34.784300 0.569041 99.217300 -11.544000 10.000000
20.187600 2.851340 135.065000 -12.076800 6.190000
20.249800 3.284010 135.482000 -12.076800 6.190000
-8.762710 0.820911 151.421000 -12.076800 13.010000
-7.909680 0.823243 151.900000 -12.076800 14.110000
-7.932090 0.825575 152.330000 -12.076800 10.860000
-7.953760 2.247110 152.746000 -12.076800 5.040000
-8.861460 2.253440 153.128000 -12.076800 7.060000
-8.886350 2.259770 153.558000 -12.076800 9.420000
-6.929610 0.846565 156.261000 -12.076800 7.470000
-6.948700 0.848897 156.691000 -12.076800 7.310000
-6.967790 0.851229 157.122000 -12.076800 6.910000
-6.986730 1.341300 157.549000 -12.076800 6.630000
5.743440 0.015992 3.813850 -2.220000 8.030000
6.102400 0.016991 4.052210 -2.575200 9.410000
6.461360 -0.017991 4.290580 -3.019200 6.060000
6.815250 -0.316427 4.525570 -6.660000 5.430000
6.654220 -0.316427 4.759180 -7.015200 7.750000
4.659710 0.808932 6.682920 -9.590400 5.700000
5.095710 -0.657622 6.374160 -9.146400 4.100000
5.754880 -0.692234 6.377460 -8.791200 4.490000
5.643430 -0.692234 6.476300 -8.880000 4.600000
5.595640 3.213990 9.680700 -10.300800 5.100000
4.644090 -1.498060 10.561500 -10.833600 5.210000
5.431550 3.333030 10.244900 -10.567200 12.540000
4.900360 -1.553550 10.915200 -10.833600 6.160000
5.112840 -0.560193 11.388500 -10.744800 10.940000
5.815750 -0.557554 12.012500 -10.567200 6.560000
6.005430 -0.447693 12.404300 -10.656000 8.840000
5.910720 -0.362440 12.452400 -10.744800 11.330000
6.095430 -0.373767 12.841600 -10.744800 6.230000
7.242270 -0.268183 13.226100 -10.389600 7.490000
7.236970 1.389430 13.650300 -10.478400 5.650000
7.248090 -0.189899 14.681400 -10.656000 8.520000
7.863750 -0.189899 14.361100 -10.656000 6.350000
6.297800 1.311000 15.525200 -10.922400 6.290000
-8.050840 1.291460 15.185400 -10.389600 5.980000
7.487850 1.344610 15.466200 -10.744800 6.430000
6.749500 1.269260 16.277400 -10.922400 6.090000
6.567610 -0.923129 16.838800 -11.100000 8.930000
7.865900 1.300220 16.247100 -10.744800 7.200000
6.723980 -0.945108 17.239700 -11.100000 8.210000
7.288410 0.224880 17.967200 -11.011200 9.250000
7.591710 0.229878 18.308500 -10.922400 7.180000
7.732210 1.626750 18.647300 -10.922400 8.190000
8.043270 1.661360 18.982600 -10.922400 5.970000
18.009900 0.781437 12.568700 -6.926400 4.410000
7.803360 1.516920 19.560500 -11.100000 4.460000
18.087700 1.570290 13.853900 -7.459200 3.570000
18.432800 1.528120 14.118200 -7.459200 4.240000
18.606600 1.556420 14.595800 -7.548000 3.850000
18.416700 1.726210 18.674600 -8.613600 11.410000
18.154400 1.615220 20.118400 -8.968800 12.500000
18.442600 1.640860 20.437800 -8.968800 8.200000
-7.573350 1.615220 26.018800 -11.188800 8.900000
18.730800 1.666500 20.757100 -8.968800 13.750000
19.018900 1.692140 21.076400 -8.968800 8.710000
18.542500 1.985090 22.039300 -9.235200 11.420000
18.819200 2.014720 22.368200 -9.235200 12.530000
18.920500 2.044340 22.843700 -9.235200 6.590000
19.198700 1.980900 23.179600 -9.235200 17.680000
18.393800 1.701560 23.844900 -9.590400 9.070000
18.656600 1.725870 24.185500 -9.590400 5.710000
18.922600 1.654370 24.530300 -9.590400 9.540000
19.182100 1.774490 24.866800 -9.590400 5.260000
18.406000 1.897250 25.968800 -9.768000 14.290000
18.658000 1.823100 26.324400 -9.768000 14.380000
-7.001870 1.330940 31.079900 -11.455200 10.080000
18.906800 1.847410 26.675400 -9.768000 11.050000
9.028770 0.849469 31.019000 -11.366400 7.110000
19.155600 1.871720 27.026400 -9.768000 16.140000
9.149160 0.860796 31.432600 -11.366400 5.860000
9.270720 0.692597 31.850300 -11.366400 16.290000
19.018000 1.526040 28.191900 -9.945600 6.290000
9.391120 0.701592 32.263900 -11.366400 11.680000
19.035400 1.651860 28.692200 -10.034400 13.790000
9.068760 0.894774 32.798700 -11.455200 17.820000
19.268000 1.861170 29.042900 -10.034400 9.940000
8.024840 -1.119230 33.506200 -11.455200 17.690000
8.125150 -1.133220 33.925100 -11.455200 10.870000
19.040200 2.238400 30.192300 -10.212000 12.580000
9.416370 0.081958 34.055900 -11.544000 7.390000
19.269600 2.265360 30.556100 -10.212000 12.690000
7.388890 0.193567 34.992600 -11.544000 9.750000
19.499000 2.292330 30.919800 -10.212000 8.090000
7.750730 0.083957 35.355900 -11.544000 8.950000
7.843000 0.084957 35.776800 -11.544000 9.250000
9.966920 -2.577650 36.047000 -11.455200 6.220000
8.100620 -2.607280 36.952000 -11.455200 9.910000
19.354100 1.030690 34.087100 -10.478400 9.890000
19.566800 1.042020 34.461700 -10.478400 9.020000
19.779500 1.053340 34.836300 -10.478400 7.590000
19.990400 1.189890 35.207800 -10.478400 6.290000
19.430500 1.961580 35.976700 -10.567200 16.010000
19.635000 1.982230 36.355400 -10.567200 7.460000
19.839500 2.002880 36.734100 -10.567200 10.740000
19.757400 2.023530 37.266200 -10.567200 18.000000
20.251500 1.912380 37.496900 -10.567200 19.710000
19.566700 2.297740 38.322500 -10.656000 17.000000
19.762400 2.320720 38.705700 -10.656000 7.960000
19.960500 2.241880 39.093700 -10.656000 7.690000
19.815400 2.147420 40.137200 -10.656000 10.550000
20.002900 2.307820 40.516900 -10.656000 11.570000
20.193400 2.329800 40.902800 -10.656000 11.740000
20.383900 2.351780 41.288700 -10.656000 10.510000
19.935500 2.086240 41.999200 -10.744800 16.480000
20.117200 2.250660 42.382000 -10.744800 16.440000
19.971500 2.271310 42.926000 -10.833600 11.730000
20.153100 2.291950 43.316300 -10.833600 9.650000
19.748800 2.014390 43.989000 -10.922400 6.050000
19.925100 2.032370 44.381800 -10.922400 16.180000
20.101400 2.050360 44.774500 -10.922400 17.340000
20.272100 2.374550 45.154800 -10.922400 14.150000
19.751800 1.931870 45.875600 -10.922400 13.750000
19.922100 1.948520 46.271100 -10.922400 16.490000
20.092400 1.965180 46.666600 -10.922400 14.830000
20.265000 1.823350 47.067500 -10.922400 9.390000
20.031100 1.790770 51.358000 -11.100000 8.650000
20.185500 1.976580 51.753800 -11.011200 7.450000
20.341900 1.991900 52.155000 -11.011200 8.340000
10.828200 -1.645590 54.935800 -11.544000 6.300000
10.591300 -1.658250 55.420600 -11.632800 8.920000
11.424400 -1.670910 55.694600 -11.544000 5.140000
11.510900 -1.683570 56.116500 -11.544000 8.220000
11.599100 -1.383830 56.546600 -11.544000 6.730000
20.698200 1.734200 55.258600 -11.188800 5.790000
20.849200 1.746860 55.661900 -11.188800 7.130000
21.002100 1.574350 56.070100 -11.188800 8.200000
20.533500 1.784830 57.154100 -11.188800 7.250000
21.011500 1.797490 57.439000 -11.188800 8.120000
21.161300 1.619660 57.848400 -11.188800 8.500000
-3.581670 2.589930 61.892000 -11.632800 11.990000
-3.606550 2.607910 62.321800 -11.632800 13.790000
-3.994590 2.431490 62.737400 -11.632800 11.130000
-17.698700 -1.322230 60.805100 -11.188800 8.850000
-4.021950 2.448140 63.167100 -11.632800 7.080000
-16.991700 -1.331230 61.453500 -11.188800 12.020000
20.615100 1.744240 63.051100 -11.366400 7.270000
21.237400 1.755570 63.298700 -11.277600 7.040000
12.153500 1.755570 65.651000 -11.632800 8.840000
20.884000 1.611030 63.873700 -11.277600 8.930000
12.613600 1.766900 66.002700 -11.632800 6.180000
-29.666400 -0.579031 61.276100 -10.389600 8.910000
12.694500 1.778220 66.425800 -11.632800 7.700000
-14.038200 -4.261040 66.482800 -11.366400 5.180000
-18.369500 1.439160 66.436200 -11.277600 6.800000
-18.484300 1.448160 66.851400 -11.277600 11.510000
-18.597800 1.672990 67.262000 -11.277600 9.770000
20.917800 1.846180 67.024100 -11.366400 5.850000
21.046100 1.857510 67.435300 -11.366400 10.440000
21.694900 2.088640 67.675500 -11.366400 6.950000
21.824300 2.322410 68.079100 -11.366400 7.630000
21.030000 2.336400 68.779100 -11.366400 10.450000
21.159800 1.902810 69.203500 -11.366400 5.600000
21.285700 1.914140 69.615500 -11.366400 13.260000
21.814200 2.151930 69.896400 -11.366400 14.760000
21.538900 1.765930 70.443400 -11.366400 12.810000
21.664800 1.776260 70.855400 -11.366400 11.760000
21.790800 1.786590 71.267300 -11.366400 15.000000
-27.935300 1.574080 70.024500 -10.744800 13.440000
21.915500 1.970770 71.675100 -11.366400 7.170000
-28.094900 1.583080 70.424700 -10.744800 7.450000
-28.252600 1.827890 70.819900 -10.744800 12.080000
22.165500 2.227880 72.492700 -11.366400 11.950000
-28.412200 1.838220 71.220000 -10.744800 5.890000
-28.571800 1.848550 71.620100 -10.744800 4.880000
21.422100 2.727370 73.597400 -11.366400 15.370000
21.546800 2.265850 74.025700 -11.366400 14.400000
21.667200 2.278510 74.439300 -11.366400 8.510000
21.785500 2.532260 74.845700 -11.366400 8.970000
18.667200 0.872212 100.837000 -11.632800 11.860000
18.745700 0.875877 101.261000 -11.632800 6.100000
18.824100 0.879541 101.685000 -11.632800 6.640000
18.902500 0.883206 102.108000 -11.632800 7.460000
20.317200 2.019230 135.932000 -11.632800 5.990000
20.380800 2.025560 136.358000 -11.632800 8.770000
20.443500 2.459620 136.778000 -11.632800 11.910000
20.504600 3.325320 137.186000 -11.632800 10.640000
20.568200 3.335650 137.612000 -11.632800 4.770000
-61.576700 -11.106600 134.376000 -10.478400 7.960000
-62.533700 -11.138900 134.408000 -10.478400 7.590000
-6.776540 1.774060 152.809000 -11.721600 4.390000
-6.795840 1.304650 153.244000 -11.721600 5.710000
-8.021300 1.789050 154.043000 -11.632800 9.270000
-8.043700 1.794050 154.473000 -11.721600 9.170000
-6.967420 1.824030 157.114000 -11.721600 6.380000
-6.075710 1.829030 157.582000 -11.721600 6.060000
-6.092310 1.834020 158.012000 -11.721600 7.360000
-6.108670 2.329400 158.436000 -11.721600 9.810000
5.743450 0.000000 3.813860 -2.664000 6.420000
6.102400 -0.016991 4.052210 -3.019200 5.150000
5.343460 -0.934813 6.132060 -9.146400 6.620000
5.670660 -1.030340 6.407180 -9.057600 7.380000
4.061160 -1.734620 8.388360 -10.567200 3.270000
4.117000 -1.722990 8.848930 -10.656000 6.500000
5.056850 -1.675640 9.363080 -10.478400 5.180000
5.758380 -1.742670 9.450940 -10.300800 6.300000
4.603180 -1.350000 11.538700 -11.011200 6.840000
6.263080 -1.317040 11.231500 -10.567200 7.070000
6.042720 -1.360940 11.835000 -10.744800 8.440000
6.085470 -1.075690 12.326400 -10.744800 11.800000
7.002800 -1.021600 12.333600 -10.567200 11.770000
7.133740 -0.305822 12.792800 -10.567200 9.750000
7.745390 1.567460 14.341100 -10.567200 4.990000
6.203590 1.453440 15.550400 -11.011200 5.940000
8.034170 1.608710 14.672300 -10.567200 5.720000
-7.849570 1.259180 14.805700 -10.300800 5.500000
6.362660 1.490710 15.949100 -11.011200 6.740000
-8.056100 1.131940 15.195300 -10.300800 5.940000
6.170070 0.039980 16.093700 -11.100000 7.720000
6.193750 -0.573607 16.535700 -11.100000 8.630000
-8.080560 1.411840 16.132000 -10.478400 7.880000
7.792210 1.445460 16.748300 -10.833600 7.970000
-7.304950 1.445460 16.966500 -10.744800 5.670000
6.474500 -0.643536 16.887800 -11.188800 7.020000
6.625230 -0.887874 17.280900 -11.188800 5.970000
7.180890 4.951980 17.317700 -11.100000 8.530000
-7.794960 0.989067 17.727100 -10.744800 8.610000
7.277300 -1.093860 17.939800 -11.100000 9.140000
-7.335020 1.011050 18.386500 -10.833600 3.940000
-8.488530 1.011050 17.883200 -10.567200 9.400000
7.439020 -1.118170 18.338400 -11.100000 4.930000
-8.531980 1.033030 18.338300 -10.656000 6.310000
7.347330 -1.142480 18.837900 -11.100000 6.440000
-8.713510 1.055000 18.728500 -10.656000 7.500000
-7.515520 -4.886300 20.064400 -11.011200 7.370000
-7.820330 -4.982110 20.398200 -11.011200 6.360000
18.278700 1.312630 14.338500 -7.636800 9.340000
7.276510 -1.402370 21.145900 -11.277600 9.120000
7.413420 -1.570290 21.543800 -11.277600 9.480000
8.435060 -1.599920 21.626800 -11.100000 7.200000
7.214050 -1.599920 22.064100 -11.366400 9.720000
18.359400 1.309710 16.262700 -8.169600 8.000000
8.463790 -1.629550 22.076600 -11.277600 9.500000
18.681500 1.332690 16.548000 -8.169600 8.310000
18.484000 1.238890 18.034300 -8.613600 6.220000
18.789200 1.340730 18.332000 -8.613600 8.300000
18.916800 1.362710 18.815700 -8.702400 5.940000
-6.988300 1.807320 25.274400 -11.366400 6.160000
-7.251240 1.836950 25.647200 -11.188800 5.100000
-7.371200 1.699020 26.071500 -11.188800 10.780000
18.105200 1.779930 21.859400 -9.412800 9.460000
18.379600 1.806900 22.190600 -9.412800 8.820000
-7.355830 1.604330 27.424800 -11.366400 10.130000
-7.467280 1.628640 27.840300 -11.366400 5.720000
-7.784920 2.285840 28.155500 -11.366400 17.690000
18.396900 1.608420 23.848900 -9.590400 5.900000
18.659800 1.631390 24.189600 -9.590400 7.990000
-6.220650 1.794690 29.460000 -11.544000 7.110000
18.919400 1.750180 24.526200 -9.590400 9.240000
19.182100 1.774490 24.866800 -9.590400 6.250000
18.412400 1.700330 25.977800 -9.856800 6.810000
18.661200 1.723300 26.328900 -9.856800 4.900000
-6.995560 1.897250 31.051900 -11.455200 14.540000
18.906800 1.847410 26.675400 -9.856800 4.570000
8.600300 1.723300 31.104400 -11.544000 14.990000
19.155600 1.871720 27.026400 -9.856800 10.790000
8.909380 0.278521 31.512000 -11.544000 11.420000
18.769400 1.792240 27.823400 -10.034400 16.190000
9.026330 0.384795 31.925600 -11.544000 6.970000
19.010000 1.815210 28.180100 -10.034400 16.340000
9.143180 0.493731 32.338900 -11.544000 7.820000
19.250700 1.838190 28.536800 -10.034400 11.840000
9.070460 0.605326 32.804800 -11.544000 14.240000
19.493700 1.780320 28.897100 -10.034400 7.730000
19.457500 1.817040 32.495700 -10.389600 10.350000
7.230940 -2.693300 36.685600 -11.544000 10.480000
8.709050 -2.693300 36.363000 -11.544000 10.210000
19.678600 1.837690 32.865000 -10.389600 10.350000
8.695980 -2.636910 37.258000 -11.632800 6.430000
19.350600 1.273130 34.080900 -10.478400 10.380000
19.563200 1.287120 34.455400 -10.478400 7.100000
19.775900 1.301110 34.829900 -10.478400 11.460000
19.152600 1.961580 36.125400 -10.656000 6.320000
6.830080 1.565480 39.893900 -11.721600 10.230000
19.354200 1.982230 36.505700 -10.656000 12.970000
9.280200 2.940960 39.761100 -11.632800 6.550000
19.558600 1.873750 36.891200 -10.656000 6.960000
19.760300 1.893070 37.271600 -10.656000 9.750000
9.175580 2.002880 40.728500 -11.632800 4.990000
9.268750 2.153970 41.142100 -11.632800 10.400000
7.433150 2.044180 41.956700 -11.632800 12.450000
19.815400 2.147420 40.137200 -10.833600 6.240000
20.006000 2.168060 40.523100 -10.833600 6.600000
20.196500 2.188710 40.909100 -10.833600 16.010000
20.383900 2.351780 41.288700 -10.833600 6.900000
19.929600 2.373760 41.986800 -10.922400 5.250000
-6.551170 0.677297 45.633500 -11.721600 13.690000
19.792800 2.105550 42.541900 -10.922400 8.670000
19.974400 2.124870 42.932200 -10.922400 10.300000
20.156000 2.144190 43.322500 -10.922400 11.410000
19.925100 2.032370 44.381800 -10.922400 5.320000
20.101400 2.050360 44.774500 -10.922400 6.250000
20.277800 2.068350 45.167300 -10.922400 16.780000
20.459000 1.777390 45.570900 -10.922400 5.850000
19.919600 2.104320 46.265300 -11.011200 7.320000
20.089900 2.122300 46.660800 -11.011200 13.140000
20.262700 1.981830 47.062100 -11.011200 8.200000
-21.352000 -0.765916 47.560200 -10.656000 9.370000
-8.432090 2.266190 53.586700 -11.632800 11.990000
-8.499010 2.284170 54.012000 -11.632800 5.150000
20.421800 2.131720 51.190800 -11.100000 7.040000
-8.565930 2.302160 54.437300 -11.632800 7.790000
20.581400 2.148370 51.590800 -11.100000 9.360000
20.740900 2.165020 51.990700 -11.100000 7.300000
20.352500 1.670910 53.086500 -11.277600 7.690000
9.161130 -1.846730 56.105800 -11.721600 6.350000
20.506700 1.683570 53.488700 -11.277600 6.680000
8.903610 -1.860720 56.583300 -11.721600 9.900000
8.968580 -2.231640 56.996200 -11.721600 7.160000
-18.204000 -1.721540 55.676700 -11.100000 9.700000
10.581000 -2.248290 57.156900 -11.632800 13.790000
20.271600 1.734200 55.416500 -11.277600 5.920000
20.419600 1.746860 55.821000 -11.277600 11.630000
-3.967690 2.221730 62.314800 -11.721600 5.910000
-3.632290 2.237060 62.766600 -11.721600 5.770000
-15.330800 -0.542384 61.900700 -11.366400 6.850000
-15.794400 -0.546049 62.228700 -11.366400 5.140000
21.160200 2.112550 61.492700 -11.366400 8.750000
21.300300 2.126540 61.900000 -11.366400 9.780000
21.098600 1.949390 62.884900 -11.366400 7.390000
12.155000 1.394190 65.659300 -11.721600 6.630000
21.235600 1.962050 63.293300 -11.366400 6.410000
12.615200 1.403180 66.011100 -11.721600 6.670000
21.374500 1.766900 63.707100 -11.366400 8.900000
12.696800 1.202990 66.438200 -11.721600 11.820000
21.284400 1.800880 65.098200 -11.366400 8.890000
21.418300 1.812200 65.507600 -11.366400 13.060000
-18.485400 1.233640 66.855400 -11.277600 8.830000
-18.988700 1.241300 67.162000 -11.366400 6.790000
21.435000 1.683310 66.864800 -11.455200 8.070000
21.566500 1.693640 67.275000 -11.455200 8.630000
21.699500 1.484140 67.689900 -11.455200 11.170000
21.425000 2.558820 68.649200 -11.455200 11.090000
21.559400 1.902810 69.080100 -11.455200 10.020000
21.689000 1.745280 69.495300 -11.455200 10.260000
21.817400 1.755600 69.906500 -11.455200 9.410000
20.996800 1.538100 70.612200 -11.455200 8.860000
21.119500 1.547100 71.025200 -11.455200 13.900000
21.242300 1.556090 71.438100 -11.455200 8.110000
-27.933300 1.807240 70.019700 -10.922400 12.570000
21.365100 1.565090 71.851000 -11.455200 14.500000
-28.092900 1.817570 70.419800 -10.922400 11.590000
21.069800 1.574080 72.387000 -11.455200 8.590000
-28.252600 1.827890 70.819900 -10.922400 11.780000
21.183700 2.462310 72.778100 -11.455200 10.590000
-28.412200 1.838220 71.220000 -10.922400 6.880000
-15.322300 1.592070 74.697400 -11.455200 14.010000
-28.571800 1.848550 71.620100 -10.922400 5.490000
21.431000 1.601070 73.627900 -11.455200 16.360000
21.549900 1.848550 74.036400 -11.455200 4.990000
21.667200 2.278510 74.439300 -11.455200 14.240000
22.215400 2.773340 74.710600 -11.455200 6.810000
12.689300 4.204860 77.713300 -11.721600 7.120000
12.758600 4.227840 78.138000 -11.721600 10.860000
18.667200 0.872212 100.837000 -11.721600 9.970000
18.745700 0.875877 101.261000 -11.721600 13.970000
20.378600 2.878320 136.343000 -11.721600 10.000000
20.439700 3.635730 136.752000 -11.721600 12.390000
-60.318500 -12.441200 134.355000 -10.567200 9.220000
-61.531100 -12.477500 134.277000 -10.567200 14.080000
-61.710000 -12.513800 134.667000 -10.567200 13.820000
-7.884670 3.986840 151.419000 -11.810400 6.160000
-7.908080 3.175150 151.869000 -11.721600 6.420000
-6.776540 1.774060 152.809000 -11.810400 7.410000
-6.795350 2.253440 153.233000 -11.810400 6.740000
-6.814440 2.259770 153.664000 -11.721600 8.060000
-6.833520 2.266100 154.094000 -11.810400 7.890000
-6.852610 2.272430 154.525000 -11.810400 6.070000
-6.967870 0.364814 157.124000 -11.810400 6.320000
-6.076030 0.853561 157.590000 -11.810400 4.950000
-6.092630 0.855893 158.021000 -11.810400 5.770000
-6.109240 0.858225 158.451000 -11.810400 6.920000
5.572800 -1.070690 8.125240 -9.945600 1.780000
4.922760 -1.519140 9.460730 -10.567200 4.770000
5.265740 -1.519140 9.274210 -10.389600 0.970000
6.060300 -1.579910 9.289390 -10.389600 3.110000
4.619110 -1.916250 10.504700 -10.922400 4.160000
6.177460 -1.113720 9.795690 -10.389600 6.670000
4.790190 -1.987220 10.893800 -10.922400 4.850000
6.169680 -1.154970 10.303900 -10.389600 7.160000
5.370920 -2.058190 11.093700 -10.744800 5.710000
7.967500 -0.532929 11.241300 -9.945600 17.670000
-7.969320 1.918150 11.619400 -9.768000 14.350000
-8.080170 1.007360 12.179300 -9.768000 9.840000
7.349190 3.432880 12.714400 -10.567200 6.840000
-8.025730 1.036990 12.726500 -9.856800 7.190000
-8.904160 1.211410 12.112000 -9.412800 7.180000
7.178090 3.530960 13.290700 -10.656000 7.690000
-8.255040 1.066610 13.090100 -9.856800 6.880000
7.561040 3.629040 13.559100 -10.656000 6.210000
7.178700 0.359791 15.665800 -10.922400 8.370000
7.450870 0.368785 16.014600 -10.922400 6.460000
-8.082480 1.356040 16.135800 -10.478400 7.260000
6.861250 -0.658859 17.198900 -11.188800 10.350000
-8.274920 1.388320 16.520000 -10.478400 8.230000
7.115580 -1.069550 17.541100 -11.188800 10.190000
-7.469590 1.639780 17.348900 -10.833600 5.380000
7.406300 -1.452900 17.861300 -11.188800 9.540000
-7.640870 1.632230 17.746700 -10.833600 5.090000
7.450880 0.000000 18.367700 -11.188800 10.650000
-7.824600 1.179370 18.173400 -10.833600 7.460000
-7.997490 1.079940 18.575000 -10.833600 8.770000
-7.380180 1.661360 19.250100 -11.011200 9.830000
-8.167650 1.102910 18.970200 -10.833600 9.270000
-7.398250 2.036040 20.592700 -11.100000 4.540000
-7.986620 2.075960 20.831900 -11.011200 4.470000
18.020200 1.659180 15.962300 -8.347200 8.460000
18.342000 1.688810 16.247300 -8.347200 8.640000
18.663800 1.718430 16.532300 -8.347200 3.730000
18.989600 1.669610 16.820900 -8.347200 9.950000
-7.733250 0.881396 26.007000 -11.366400 8.040000
-7.702340 0.980627 26.462000 -11.366400 11.000000
19.020700 7.771850 19.662400 -9.146400 14.470000
18.105200 1.779930 21.859400 -9.412800 11.280000
18.379600 1.806900 22.190600 -9.412800 8.060000
-7.461490 1.985090 27.818700 -11.455200 7.010000
18.657400 1.743410 22.526000 -9.412800 4.820000
-7.027460 2.014720 28.374600 -11.455200 8.390000
18.931800 1.769050 22.857300 -9.412800 13.420000
18.393800 1.701560 23.844900 -9.679200 5.470000
18.656600 1.725870 24.185500 -9.679200 14.590000
-5.816680 2.260060 29.510400 -11.632800 5.690000
18.919400 1.750180 24.526200 -9.679200 11.230000
19.178700 1.871610 24.862300 -9.679200 5.350000
-5.993700 1.390830 30.408500 -11.544000 6.390000
18.409300 1.798790 25.973400 -9.945600 5.600000
-6.076950 1.410140 30.830900 -11.544000 12.300000
18.661200 1.723300 26.328900 -9.945600 4.940000
-7.000930 1.429460 31.075700 -11.544000 13.010000
18.906800 1.847410 26.675400 -9.945600 9.280000
8.371330 0.474741 31.210800 -11.544000 7.190000
19.155600 1.871720 27.026400 -9.945600 10.640000
9.025960 0.487401 31.924300 -11.544000 7.070000
9.025960 0.487401 31.924300 -11.544000 15.290000
9.260780 0.394790 32.754800 -11.544000 5.760000
9.378000 0.399787 33.169400 -11.544000 15.360000
19.063300 1.382280 30.229000 -10.212000 15.390000
6.325320 8.463590 34.168300 -11.632800 18.630000
19.293000 1.398940 30.593200 -10.212000 17.430000
19.091900 0.939765 34.237200 -10.567200 6.370000
19.301700 0.950092 34.613500 -10.567200 7.940000
19.511500 0.960419 34.989700 -10.567200 6.200000
19.155400 1.835120 36.130600 -10.656000 7.340000
9.732340 1.315100 39.296000 -11.632800 6.970000
19.637800 1.854430 36.360600 -10.656000 12.210000
9.832490 1.708630 39.700400 -11.632800 6.620000
19.842400 1.873750 36.739400 -10.656000 11.550000
9.625200 1.854430 40.188300 -11.632800 7.830000
20.046900 1.893070 37.118200 -10.656000 10.720000
9.490570 1.873750 40.662400 -11.632800 7.730000
19.590300 0.899476 38.368700 -10.744800 11.000000
19.786200 0.908471 38.752400 -10.744800 8.020000
19.983300 0.781561 39.138400 -10.744800 11.660000
19.505500 2.147420 40.288700 -10.922400 9.620000
19.693000 2.168060 40.676100 -10.922400 10.080000
19.883500 2.047600 41.069400 -10.922400 5.520000
20.071000 2.066920 41.456900 -10.922400 4.350000
19.616300 1.798640 42.162500 -11.011200 6.880000
19.795500 1.960430 42.547600 -11.011200 13.610000
19.728500 1.978420 43.052700 -11.011200 7.700000
20.158700 1.996400 43.328300 -11.011200 7.010000
-5.514950 1.405080 47.490100 -11.810400 16.990000
20.445900 2.050360 44.618300 -11.011200 7.440000
-8.809910 2.453260 53.954800 -11.632800 14.980000
20.583700 1.976580 51.596700 -11.277600 15.120000
-8.563560 2.642970 54.422200 -11.721600 10.680000
20.743300 1.991900 51.996700 -11.277600 5.900000
20.902900 2.007220 52.396600 -11.277600 7.780000
20.806400 2.392090 53.345800 -11.277600 9.050000
20.962800 2.410070 53.746900 -11.277600 5.580000
-19.651100 -2.428060 54.697900 -11.100000 7.940000
-20.114800 -2.446040 54.987700 -11.011200 6.990000
-18.771200 -1.551700 55.947900 -11.188800 5.860000
-18.908200 -1.563020 56.356300 -11.188800 9.570000
21.097500 0.739607 60.177800 -11.366400 7.530000
21.160200 2.112550 61.492700 -11.366400 8.430000
20.824600 1.924080 62.068200 -11.366400 5.840000
20.959600 2.140530 62.470600 -11.366400 5.570000
20.747200 1.962050 63.455000 -11.455200 8.280000
20.879000 2.182500 63.858300 -11.455200 7.120000
12.612500 1.974710 65.997000 -11.721600 7.290000
21.010700 2.405600 64.260900 -11.455200 12.400000
12.692200 2.196490 66.413700 -11.721600 11.870000
20.911700 1.218320 65.232400 -11.455200 7.130000
21.040500 1.652330 65.634200 -11.455200 5.430000
-18.484300 1.448160 66.851400 -11.366400 11.270000
-18.600200 1.241300 67.270700 -11.366400 9.300000
-18.192800 1.248960 67.828100 -11.455200 13.460000
21.566500 1.693640 67.275000 -11.455200 9.810000
21.698000 1.703970 67.685200 -11.455200 10.890000
21.829500 1.714300 68.095400 -11.455200 7.970000
21.416700 1.076080 70.044000 -11.544000 7.670000
21.540400 1.538100 70.448300 -11.544000 9.130000
21.666300 1.547100 70.860300 -11.544000 7.420000
21.918300 1.565090 71.684200 -11.544000 11.070000
-27.933300 1.807240 70.019700 -10.922400 9.770000
21.916700 1.796910 71.679300 -11.544000 8.780000
-28.092900 1.817570 70.419800 -10.922400 8.950000
21.487900 1.574080 72.264000 -11.544000 7.440000
-28.252600 1.827890 70.819900 -10.922400 8.580000
21.734800 1.356240 73.094200 -11.544000 11.600000
-28.412200 1.838220 71.220000 -10.922400 15.100000
21.736800 0.884530 73.100900 -11.544000 9.190000
21.858700 1.126720 73.510900 -11.544000 12.460000
21.981500 1.133050 73.923900 -11.544000 13.020000
22.228000 0.904519 74.752900 -11.544000 9.370000
17.813800 1.184370 100.551000 -11.810400 9.080000
17.888900 1.189370 100.975000 -11.810400 11.910000
17.964700 0.875877 101.402000 -11.810400 14.590000
18.039800 0.879541 101.827000 -11.721600 12.860000
20.314900 2.869330 135.917000 -11.810400 5.090000
-60.348900 -11.530100 134.423000 -10.656000 6.840000
-61.531100 -12.477500 134.277000 -10.567200 5.420000
-61.729700 -11.941000 134.710000 -10.567200 6.940000
-6.757880 0.353819 152.388000 -11.810400 7.020000
-7.954590 0.354819 152.762000 -11.810400 4.890000
-7.977000 0.355818 153.192000 -11.810400 6.620000
-6.814440 2.259770 153.664000 -11.810400 5.390000
-6.833520 2.266100 154.094000 -11.810400 5.770000
-6.967790 0.851229 157.122000 -11.810400 5.090000
-6.986730 1.341300 157.549000 -11.810400 4.790000
-7.005970 0.855893 157.983000 -11.810400 4.890000
-49.708200 -22.608400 162.572000 -11.188800 5.370000
5.126580 -1.453150 9.362340 -10.478400 6.280000
5.406530 -1.511270 9.695450 -10.478400 6.780000
5.691900 -1.569400 10.024800 -10.567200 7.300000
6.159770 -1.340540 10.287300 -10.389600 7.050000
5.741560 1.196220 11.034300 -10.656000 6.440000
6.865490 -1.388420 10.348400 -10.212000 4.490000
5.762890 1.237470 11.505000 -10.744800 4.180000
5.954980 1.278720 11.888500 -10.833600 4.680000
6.900510 1.597020 11.325500 -10.478400 10.160000
7.382780 3.581010 13.669700 -10.833600 6.720000
-7.404820 1.718620 14.502700 -10.478400 6.870000
7.249250 3.774580 14.683700 -10.922400 7.300000
-7.714180 1.763850 14.825400 -10.478400 4.920000
7.198060 -2.430630 15.471300 -11.011200 8.410000
-8.179010 0.919096 15.143900 -10.389600 7.810000
7.378020 -2.491390 15.858000 -11.011200 10.440000
-8.138830 1.105710 15.641500 -10.478400 10.250000
6.064780 -0.682815 16.579300 -11.366400 11.400000
6.343420 -0.699469 16.935200 -11.188800 7.170000
7.682950 -2.552160 16.186100 -11.011200 8.130000
8.086080 1.244380 16.143000 -10.833600 8.470000
-8.337340 1.132680 16.023000 -10.478400 6.480000
6.627890 -0.716123 17.287900 -11.188800 9.280000
-8.532380 1.274010 16.397800 -10.478400 6.000000
6.998930 1.639780 17.544000 -11.100000 4.030000
-7.012810 1.128090 17.578800 -10.833600 10.290000
-7.275990 1.153730 17.936600 -10.833600 11.210000
7.444390 -0.827338 18.351700 -11.188800 7.090000
-7.577340 1.240560 18.273800 -10.833600 9.690000
7.481380 1.579920 18.753400 -11.277600 7.070000
-7.885740 1.267520 18.610900 -10.833600 5.940000
-7.088720 1.422150 19.378400 -11.100000 6.700000
-7.697510 1.171850 20.550300 -11.100000 6.680000
-8.009700 1.194820 20.892100 -11.100000 7.070000
17.458000 1.471520 13.968500 -7.725600 9.790000
-8.286690 1.217800 21.246400 -11.100000 4.870000
17.793700 1.499820 14.237100 -7.725600 8.870000
18.129400 1.528120 14.505700 -7.725600 8.920000
7.816940 1.848840 22.296700 -11.455200 8.040000
18.024000 1.584720 15.965600 -8.258400 10.020000
7.959060 1.882460 22.702100 -11.455200 11.550000
18.184700 1.688810 16.423300 -8.347200 9.490000
18.507500 1.641310 16.714900 -8.347200 9.840000
17.879300 -4.729200 17.444200 -8.791200 7.770000
18.182300 -4.809360 17.739900 -8.791200 5.950000
18.485300 -4.889510 18.035600 -8.791200 11.190000
-7.806720 0.949982 25.532100 -11.366400 6.950000
-8.068440 1.866570 25.852600 -11.366400 11.900000
18.435400 1.811110 20.429800 -9.146400 8.680000
18.723500 1.839400 20.749100 -9.146400 5.890000
8.051070 1.896000 27.660100 -11.544000 5.550000
18.483000 1.276980 24.346200 -9.768000 6.300000
18.745600 1.199090 24.692100 -9.768000 6.590000
-7.241200 1.330940 31.025000 -11.544000 5.170000
18.863600 1.723300 26.184300 -9.945600 7.220000
-7.339060 1.348920 31.444200 -11.544000 7.780000
19.115100 1.746280 26.533400 -9.945600 4.510000
8.908290 0.582339 31.508100 -11.632800 8.010000
9.026330 0.384795 31.925600 -11.632800 8.340000
9.143180 0.493731 32.338900 -11.632800 8.650000
9.260400 0.500061 32.753500 -11.632800 11.390000
18.826100 1.693160 29.852800 -10.300800 8.920000
19.055700 1.713800 30.216800 -10.300800 5.250000
19.285300 1.734450 30.580900 -10.300800 7.090000
9.755630 -9.352930 34.505100 -11.632800 8.990000
19.216900 2.461970 32.093900 -10.478400 5.890000
7.494350 -9.461680 35.492000 -11.721600 8.060000
7.580500 -9.570440 35.900000 -11.721600 6.210000
19.692700 1.126600 32.888500 -10.478400 10.000000
19.139800 1.139260 33.709600 -10.567200 8.590000
19.352400 1.151910 34.084200 -10.567200 6.720000
19.569300 0.827518 34.466100 -10.567200 10.380000
19.782000 0.836513 34.840700 -10.567200 9.580000
19.155400 1.835120 36.130600 -10.744800 5.970000
19.357000 1.854430 36.510900 -10.744800 10.320000
19.558600 1.873750 36.891200 -10.744800 11.250000
9.496840 1.098650 40.689300 -11.721600 8.400000
19.760300 1.893070 37.271600 -10.744800 7.270000
9.594750 1.109970 41.108800 -11.721600 10.840000
19.086100 1.912380 38.103300 -10.833600 8.930000
19.278800 1.931700 38.488200 -10.833600 8.730000
6.940920 1.265840 42.508500 -11.810400 16.540000
19.471600 1.951020 38.873100 -10.833600 10.490000
19.664400 1.970340 39.258000 -10.833600 12.440000
19.508300 2.008970 40.294500 -10.922400 7.670000
19.695900 2.028290 40.682000 -10.922400 14.420000
19.883500 2.047600 41.069400 -10.922400 6.160000
19.616300 1.798640 42.162500 -11.011200 15.670000
19.795500 1.960430 42.547600 -11.011200 12.590000
19.977100 1.978420 42.938000 -11.011200 6.250000
20.156000 2.144190 43.322500 -11.011200 11.590000
19.927600 1.881910 44.387300 -11.100000 7.340000
-5.333080 1.881910 48.362200 -11.810400 14.380000
20.103900 1.898560 44.780100 -11.100000 12.640000
-21.510200 -2.757290 46.940700 -10.744800 9.470000
-21.689400 -2.780260 47.331900 -10.744800 13.190000
-22.166100 -1.544320 47.643100 -10.744800 7.060000
-23.085600 -1.556980 47.683400 -10.656000 6.130000
-13.416800 2.703450 51.203100 -11.810400 7.920000
-8.499010 2.284170 54.012000 -11.721600 5.570000
-8.880460 2.302160 54.386900 -11.721600 7.120000
20.585900 1.804760 51.602100 -11.277600 8.660000
-8.949840 2.320140 54.811800 -11.721600 7.150000
20.745500 1.818750 52.002100 -11.277600 8.050000
-8.699780 2.338130 55.287900 -11.721600 7.980000
-18.773800 -2.231640 54.557700 -11.188800 10.720000
-19.243600 -0.854534 54.889700 -11.188800 8.920000
-18.628800 -2.083830 55.523600 -11.188800 5.780000
-18.336100 -1.916690 56.080700 -11.277600 8.920000
-18.134400 -2.665750 56.568800 -11.277600 9.530000
-18.265800 -2.685070 56.978700 -11.277600 9.280000
20.382900 1.095720 58.139500 -11.366400 7.840000
-16.629200 -1.340220 61.998700 -11.455200 7.490000
-16.740800 -1.349210 62.414800 -11.455200 7.330000
21.168000 1.157020 61.515400 -11.455200 8.930000
21.305400 1.569720 61.914800 -11.455200 6.830000
21.442500 1.936730 62.313200 -11.455200 8.910000
12.693400 1.987370 66.420100 -11.721600 8.040000
-18.481900 1.823530 66.842900 -11.455200 6.460000
-18.596700 1.834850 67.258100 -11.455200 8.320000
21.437800 1.248960 66.873400 -11.544000 6.140000
21.569300 1.256630 67.283700 -11.544000 7.070000
21.700800 1.264290 67.694000 -11.544000 7.970000
21.564600 1.063420 69.096500 -11.544000 11.050000
21.692900 1.069750 69.507800 -11.544000 11.700000
21.821300 1.076080 69.919100 -11.544000 15.200000
20.998000 1.310260 70.616500 -11.544000 14.060000
21.119500 1.547100 71.025200 -11.544000 8.760000
21.242300 1.556090 71.438100 -11.544000 11.280000
21.365100 1.565090 71.851000 -11.544000 10.880000
21.481300 2.448320 72.241600 -11.544000 6.840000
-28.094900 1.583080 70.424700 -11.011200 6.970000
21.609200 1.817570 72.671900 -11.544000 8.900000
-28.661500 1.827890 70.655400 -11.011200 6.070000
21.734800 1.356240 73.094200 -11.544000 9.960000
-28.823400 1.838220 71.054600 -11.011200 15.070000
21.431000 1.601070 73.627900 -11.544000 15.320000
21.551400 1.610060 74.041500 -11.544000 10.730000
21.673100 1.379220 74.459600 -11.544000 8.860000
21.793500 1.386890 74.873300 -11.544000 11.170000
18.667200 0.872212 100.837000 -11.810400 6.370000
18.746100 0.557380 101.263000 -11.810400 7.460000
18.824500 0.559712 101.687000 -11.810400 6.930000
18.115400 0.562044 102.253000 -11.810400 8.000000
20.379800 2.451960 136.352000 -11.899200 6.560000
20.443500 2.459620 136.778000 -11.899200 8.490000
-61.144500 -13.199600 133.433000 -10.656000 7.700000
-61.323300 -13.238100 133.823000 -10.656000 7.940000
-61.466700 -14.189700 134.136000 -10.656000 7.010000
-60.606700 -14.230900 134.997000 -10.656000 6.810000
-7.931670 1.769060 152.322000 -11.899200 6.810000
-7.954080 1.774060 152.752000 -11.899200 7.120000
-7.976490 1.779050 153.183000 -11.899200 5.690000
-7.999310 0.832572 153.621000 -11.899200 10.980000
-8.021720 0.834904 154.051000 -11.899200 11.630000
-8.043950 1.315650 154.478000 -11.899200 8.120000
-6.059110 1.824030 157.151000 -11.899200 6.730000
-6.075900 1.341300 157.587000 -11.899200 7.110000
-6.092500 1.344970 158.017000 -11.899200 4.330000
-6.109100 1.348630 158.448000 -11.899200 7.770000
4.611760 -2.022630 10.488000 -11.011200 5.310000
4.701140 -2.060790 10.918900 -11.011200 7.000000
4.869040 -2.134390 11.308800 -11.011200 6.800000
5.726670 -1.493990 11.005700 -10.744800 4.750000
6.858710 1.493990 10.338200 -10.300800 7.080000
5.216660 -2.207990 11.619700 -11.011200 7.900000
6.104960 -1.436300 11.303700 -10.744800 5.260000
5.898040 -0.959683 11.946800 -11.011200 11.370000
6.375870 -1.484170 11.643800 -10.744800 9.380000
6.089620 -0.948101 12.334900 -11.011200 11.950000
6.927990 1.447560 12.827600 -10.744800 7.200000
-1.235620 1.312240 14.539300 2.397600 13.690000
-1.271960 1.350830 14.966900 2.397600 18.590000
-1.307930 1.437200 15.390200 2.397600 18.830000
-1.340880 1.857160 15.777900 2.397600 14.240000
-2.214520 2.108390 16.086200 2.308800 9.710000
6.222990 -0.597570 15.599000 -11.188800 7.650000
-7.282530 1.763850 15.042100 -10.656000 4.150000
-2.590460 2.163870 16.462600 2.308800 5.210000
6.259060 -0.612892 16.047700 -11.277600 8.090000
-7.930220 1.384470 15.240600 -10.567200 6.250000
6.414790 -0.682815 16.447000 -11.366400 9.770000
-8.135520 1.214750 15.635100 -10.567200 7.460000
6.473750 -0.699469 16.885800 -11.366400 10.520000
-8.337340 1.132680 16.023000 -10.567200 6.270000
6.725970 -0.830632 17.244800 -11.366400 8.300000
8.294660 -0.544311 16.559400 -11.011200 7.110000
-8.785950 1.216840 16.267700 -10.478400 4.050000
7.020000 -0.732777 17.596800 -11.366400 10.410000
7.259610 -1.736780 17.896200 -11.366400 4.780000
7.506100 2.977170 18.102000 -11.366400 7.610000
7.419120 3.041890 18.597300 -11.366400 9.310000
-7.729740 1.704780 18.641400 -11.100000 5.430000
-7.862720 0.713511 20.508700 -11.100000 8.240000
-8.137630 0.727502 20.864200 -11.188800 3.880000
7.101990 -1.886140 21.167600 -11.544000 10.310000
-7.262260 0.547335 21.645300 -11.277600 4.590000
7.238560 -1.922410 21.574700 -11.544000 9.670000
7.548140 -1.815230 21.935300 -11.544000 5.840000
7.687920 -1.848840 22.341500 -11.544000 5.610000
17.857700 1.808050 16.127900 -8.436000 7.470000
7.949060 2.235650 22.673600 -11.455200 10.160000
-7.628870 0.797454 23.332800 -11.366400 9.420000
18.176600 1.840340 16.415900 -8.436000 6.060000
-7.945470 0.811444 23.681700 -11.366400 5.730000
18.495400 1.872620 16.703900 -8.436000 6.330000
-8.267890 0.825434 24.027000 -11.366400 10.500000
18.814300 1.904910 16.991900 -8.436000 8.110000
18.279000 1.937200 18.181200 -8.880000 4.430000
-7.202170 2.076700 24.743600 -11.455200 10.280000
18.583600 1.969480 18.484200 -8.880000 6.850000
-7.487750 0.853415 25.181400 -11.455200 7.510000
-14.213900 1.919370 22.539200 -13.764000 5.650000
-7.610500 0.867406 25.594200 -11.455200 10.620000
18.151000 1.699020 20.114600 -9.235200 6.950000
-14.446300 1.866570 22.907700 -13.852800 11.960000
-7.734660 0.713554 26.011700 -11.455200 8.990000
18.439100 1.725990 20.433900 -9.235200 8.110000
-14.495800 1.896200 23.383700 -13.852800 11.970000
-7.857430 0.724881 26.424600 -11.455200 10.700000
18.723500 1.839400 20.749100 -9.235200 10.420000
18.807700 1.867700 21.250500 -9.324000 12.190000
-6.603800 2.218610 27.572900 -11.632800 14.390000
-14.438600 1.026590 24.979300 -14.119200 8.290000
-14.654100 1.041920 25.352200 -14.208000 6.810000
18.212600 1.608420 23.990000 -9.856800 11.340000
18.472800 1.631390 24.332700 -9.856800 6.140000
18.732900 1.654370 24.675500 -9.856800 7.630000
-6.808870 1.654370 30.223200 -11.721600 8.640000
18.993100 1.677350 25.018200 -9.856800 6.810000
-7.139410 1.677350 30.588800 -11.721600 5.070000
-7.238080 1.626470 31.011600 -11.721600 12.270000
18.666300 1.548620 26.336100 -10.123200 13.680000
18.915200 1.569270 26.687300 -10.123200 10.590000
9.151330 0.481071 31.440100 -11.721600 10.600000
19.164100 1.589910 27.038400 -10.123200 10.720000
9.272120 0.384795 31.855100 -11.721600 8.930000
9.143550 0.389793 32.340200 -11.721600 8.780000
18.797400 1.631210 28.333600 -10.300800 9.430000
9.512090 0.605326 32.679500 -11.721600 13.580000
19.032500 1.758340 28.687800 -10.300800 5.480000
19.264800 1.968950 29.038000 -10.300800 10.650000
18.580300 2.211430 29.972600 -10.478400 11.650000
18.810500 2.127990 30.343900 -10.478400 6.780000
10.452000 -1.161200 34.183600 -11.632800 8.060000
19.037100 2.153630 30.709500 -10.478400 8.610000
8.899830 -1.175190 35.064700 -11.810400 9.650000
10.578000 -1.175190 34.595500 -11.632800 13.290000
19.263700 2.179270 31.075100 -10.478400 9.620000
-12.098400 2.066180 34.508900 -13.941600 13.770000
-12.038700 2.090490 34.985000 -13.941600 7.160000
18.988200 1.796400 32.273700 -10.567200 9.840000
19.203500 1.934170 32.639700 -10.567200 9.660000
19.416100 2.163410 33.001000 -10.567200 9.670000
9.728990 1.690650 39.282500 -11.810400 10.850000
19.155400 1.835120 36.130600 -10.833600 7.000000
9.831170 1.835120 39.695000 -11.810400 7.650000
19.359600 1.726620 36.515800 -10.833600 6.000000
9.934660 1.854430 40.112900 -11.810400 7.810000
19.845000 1.744600 36.744300 -10.833600 10.570000
9.494120 1.486260 40.677600 -11.810400 8.260000
19.379200 1.912380 37.955100 -10.922400 12.530000
19.574900 1.931700 38.338500 -10.922400 12.270000
19.770700 1.951020 38.721900 -10.922400 9.200000
19.664400 1.970340 39.258000 -10.922400 9.580000
19.823400 1.732020 40.153400 -11.011200 15.680000
20.014000 1.748670 40.539400 -11.011200 16.610000
-22.632200 -1.329130 39.154600 -10.212000 8.470000
20.204600 1.765330 40.925500 -11.011200 8.630000
19.748800 2.014390 43.989000 -11.188800 6.490000
19.925100 2.032370 44.381800 -11.188800 12.530000
20.101400 2.050360 44.774500 -11.188800 7.710000
20.275000 2.221460 45.161200 -11.188800 10.100000
-21.176400 -0.599681 47.169000 -10.833600 6.270000
10.672200 2.318040 50.541600 -11.899200 8.450000
-21.352900 -0.604678 47.562100 -10.833600 7.280000
10.761100 2.337360 50.962700 -11.899200 13.220000
-22.159100 -2.031790 47.628000 -10.833600 8.960000
-23.062700 -2.826220 47.636100 -10.656000 13.260000
-20.830200 -2.065100 49.160700 -10.922400 7.730000
-23.250200 -2.849200 48.023400 -10.656000 8.550000
20.401900 1.427110 50.294100 -11.366400 5.250000
-8.743800 1.930610 53.549900 -11.810400 6.330000
-8.814970 1.607620 53.985700 -11.810400 6.010000
-8.883520 1.790770 54.405600 -11.899200 6.990000
20.189500 1.632930 51.764200 -11.366400 7.150000
-8.635830 1.804760 54.881500 -11.899200 6.860000
20.346000 1.645590 52.165500 -11.366400 7.640000
10.589200 -2.007220 55.409400 -11.899200 7.330000
12.170700 -2.198330 55.517900 -11.899200 9.230000
-18.950600 -1.860720 54.053800 -11.277600 8.310000
11.070100 -2.746220 56.163300 -11.899200 7.470000
-19.093100 -1.874720 54.460200 -11.277600 11.210000
11.151600 -2.945220 56.576900 -11.899200 11.390000
11.673800 -2.967200 56.910800 -11.899200 9.390000
11.318100 -2.989180 57.421300 -11.899200 9.010000
-20.401800 -3.033140 55.772400 -11.188800 6.710000
20.565600 1.944670 56.220100 -11.455200 5.850000
21.158000 2.313670 61.486200 -11.544000 11.460000
21.302400 1.924080 61.905900 -11.544000 7.310000
21.235600 1.962050 63.293300 -11.544000 8.420000
12.312600 1.202990 66.510500 -11.899200 7.250000
-18.363800 2.238470 66.415600 -11.544000 8.280000
-18.481900 1.823530 66.842900 -11.544000 9.760000
-18.986300 1.672990 67.153400 -11.544000 7.150000
-19.103500 1.683310 67.567900 -11.544000 6.200000
21.956500 1.475140 67.153900 -11.632800 5.980000
22.088900 1.703970 67.558700 -11.632800 9.690000
21.438200 0.389466 68.691600 -11.632800 7.150000
21.164800 1.063420 69.220000 -11.632800 9.600000
21.288400 1.520120 69.624400 -11.632800 7.080000
21.414400 1.529110 70.036300 -11.632800 8.300000
