VERSION .7
FIELDS x y z velocity SNR
SIZE 4 4 4 4 4
TYPE F F F F F
COUNT 1 1 1 1 1
WIDTH 264
HEIGHT 1
VIEWPOINT 0 0 0 1 0 0 0
POINTS 264
DATA ascii
5.84021146816887 4.75211015798262 0.233720980916312 -1.85657648750073 16.8393096657279
1.97800374130244 7.23471617760935 0.701162942748935 -0.928288243750363 14.1729175117436
5.40653135888898 5.66611523605256 -0.486918710242317 -2.01129119479245 11.2390356709306
6.01673042361284 5.01896066346856 0.426053871462026 -2.01129119479245 11.2390356709306
5.81608468897418 4.73247848657562 -2.312863873651 -1.85657648750073 11.8675409066413
5.7035534572001 7.97442338672933 -2.18139582188558 -4.02258238958491 34.6211075230899
5.84925072183315 8.01491760729307 -1.55813987277541 -3.86786768229318 14.3400572588156
5.84882840629418 8.17753955987561 -2.49058920288945 -4.02258238958491 10.3556451410123
5.89199410101991 8.2378916768687 -2.16922285412952 -3.86786768229318 7.92925900810046
-2.34727522569924 10.167586924026 -2.23495688001223 4.02258238958491 16.5380208753284
-2.36199932309023 10.2313666369721 -1.90385215704746 4.17729709687663 24.7611135243412
-2.36529961339481 10.2456623566129 -1.82107597630626 4.33201180416836 8.61424021044305
-2.94254557412849 10.4317565131136 -1.78942626014051 4.02258238958491 39.243018464693
-2.42420628225168 10.50082573475 -2.13026935731013 4.17729709687663 59.4017754348723
-2.43486724908289 10.5470053671015 -1.87463703443292 4.33201180416836 20.4183149479877
-3.43926802605165 10.5378921458455 -2.19113419609042 4.02258238958491 25.1952938813338
-3.02259382644772 10.7155393319207 -1.92819809255957 4.02258238958491 25.1952938813338
-3.04944713189397 10.8107382462384 -1.22703514981064 4.17729709687663 33.9118077295548
-2.49346931888744 10.8008493271715 -2.19113419609042 4.17729709687663 33.9118077295548
-2.50443488477097 10.8483483775901 -1.92819809255957 4.33201180416836 12.3757682958611
5.23589225638881 9.95771411844193 -1.0517444141234 4.79615592604354 5.15510582359021
-3.54539452147419 10.8630629537349 -2.07183911208105 4.02258238958491 6.44528447873993
-2.5837937951332 11.1921038138805 -1.71151926650174 4.17729709687663 5.5435554303823
-5.23781770047461 13.7135422405328 3.38895422328652 3.403723560418 5.03720192414597
-5.91844777950013 13.1237630756902 -4.44069863740992 3.55843826770973 5.4445440982571
-5.52344529419455 13.4419406800444 -3.9732566755773 3.55843826770973 5.4445440982571
-5.37959008352093 13.7407891813947 3.03837275191205 3.55843826770973 5.4445440982571
-4.78956315246186 13.5377149245498 4.55755912786808 3.55843826770973 5.4445440982571
-4.36583177107985 13.7559050011043 4.32383814695177 3.55843826770973 5.4445440982571
4.14194296230652 13.8249671952514 4.32383814695177 3.55843826770973 5.4445440982571
4.12712163126197 14.1919913655821 2.9215122614539 3.71315297500145 5.21855586812166
-5.36588068836318 14.0488340155213 3.22096726825292 3.403723560418 27.8926515339418
-5.36588068836318 14.0488340155213 3.22096726825292 3.55843826770973 24.0395884895789
4.24772810308944 14.6067225413835 2.26660659617798 3.71315297500145 14.1926710375159
4.68839041434943 14.3651940325072 2.86308201622482 3.71315297500145 14.1926710375159
5.04739611942305 14.2664805956063 2.74378693221545 3.71315297500145 14.1926710375159
5.76603879207511 13.7037197600117 3.93673777230912 3.71315297500145 14.1926710375159
-5.44236437159414 13.9011300707626 3.69814760429039 3.86786768229318 5.36327404750405
-4.24814689176136 14.1794544139509 4.17532794032786 3.86786768229318 5.36327404750405
4.52479153477426 14.2567569631206 3.57885252028102 3.86786768229318 5.36327404750405
5.01593194781776 14.177547018165 3.22096726825292 3.86786768229318 5.36327404750405
4.2388229383281 15.0272502773167 1.58248580828753 3.403723560418 65.261590891229
4.94733606113062 14.7489512498336 2.06940451852984 3.403723560418 65.261590891229
4.93049505746627 14.6987450097532 2.43459355121158 3.55843826770973 64.4184240984916
-5.41301600888684 14.1722427032585 4.01707935949911 3.71315297500145 33.5817312600662
4.46240800777391 14.0601983424392 5.35610581266548 3.71315297500145 33.5817312600662
5.53069026994959 14.1267360239517 4.01707935949911 3.71315297500145 33.5817312600662
4.59888912083366 14.4902243544654 3.89534968193853 3.86786768229318 12.9444616615628
5.64836453101235 14.080098851831 4.01707935949911 3.86786768229318 12.9444616615628
5.04628278235323 15.0439302748303 2.11079260890044 3.403723560418 42.3259908584329
4.44102661250846 14.8232478790528 4.09742094668909 3.55843826770973 47.8485492762533
5.05616058809811 15.073377895446 1.86246406667686 3.55843826770973 47.8485492762533
4.84240657335983 15.2575015008847 -0 3.71315297500145 61.5498916937553
6.04807014492304 14.7186757153641 1.73829979556507 3.71315297500145 61.5498916937553
4.34522653099002 15.4044666509658 0.24832854222358 3.86786768229318 21.960983519794
4.62727697854786 14.5796690913167 4.71824230224804 3.86786768229318 21.960983519794
5.71581446374099 14.5995885052319 3.22827104890656 3.86786768229318 21.960983519794
6.25448920433378 14.1892512013168 3.9732566755773 3.86786768229318 21.960983519794
3.6695995391661 15.895439905102 -0.506395458652009 3.403723560418 16.0217230524272
4.17461939843063 15.7657628416768 -0.632994323315011 3.403723560418 16.0217230524272
5.29005102703347 15.3523339589863 1.64578524061903 3.403723560418 16.0217230524272
3.66738892113061 15.8858642700058 -0.759593187978013 3.55843826770973 21.521261152919
4.932005790486 15.5398115814346 0.759593187978013 3.55843826770973 21.521261152919
5.43572089987811 15.3640817773001 0.886192052641014 3.55843826770973 21.521261152919
4.42976044594881 15.7041518030679 0.379796593989008 3.71315297500145 27.4074735845218
4.93720719093185 15.5562002043037 -0.126598864663002 3.71315297500145 27.4074735845218
6.16121338042754 14.9940228183033 1.89898296994503 3.71315297500145 27.4074735845218
4.18923438286484 14.8514515603902 5.31715231584609 3.86786768229318 12.5193164440602
5.86287246971289 14.9752106299893 2.78517502258605 3.86786768229318 12.5193164440602
4.22918453782094 15.9718321775723 1.93550187321321 3.09429414583454 5.59038949580942
3.6125020571368 16.236219474327 -0.258066916428427 3.403723560418 28.113862539558
4.12111334142729 16.0836078277891 -1.03226766571371 3.403723560418 28.113862539558
4.8938220929449 15.8655766127051 1.03226766571371 3.403723560418 28.113862539558
5.71335536061888 15.338888713065 2.96776953892692 3.403723560418 28.113862539558
4.12708277083933 16.106904920993 -0.516133832856856 3.55843826770973 37.7426824171208
4.88849882418478 15.8483187870752 1.29033458214214 3.55843826770973 37.7426824171208
5.40896126062331 15.6974250758552 1.03226766571371 3.55843826770973 37.7426824171208
5.58843372137388 15.0035062624231 4.51617103749748 3.55843826770973 37.7426824171208
6.12597522350314 15.2706745885844 2.45163570607006 3.55843826770973 37.7426824171208
5.27746502663723 15.7331285845147 1.16130112392792 3.71315297500145 10.3998652225104
4.48075409069864 15.4080322917567 4.38713757928327 3.86786768229318 5.52940048719065
5.12628428826781 15.7068976682009 1.93550187321321 3.86786768229318 5.52940048719065
4.15604656551303 16.2199428979041 2.62936103530851 3.24900885312627 9.44259056647588
5.20129971806871 15.9367443979492 2.49789298354308 3.24900885312627 9.44259056647588
5.25808924758457 16.1107471021637 0.26293610353085 3.403723560418 47.5631245013187
5.77832631074691 15.9141929300751 0.788808310592552 3.403723560418 47.5631245013187
5.78180935348718 15.9237856410387 0.525872207061702 3.55843826770973 78.9374143691591
5.3861348182549 16.0570939345726 0.657340258827127 3.71315297500145 13.3198168888066
5.90965190871843 15.8658944244219 0.788808310592552 3.71315297500145 13.3198168888066
6.95918161529578 14.7536397809978 4.60138181178989 4.79615592604354 5.12271045377098
8.03029076873219 15.2721514972787 0.535610581266548 -4.95087063333527 9.43899119079246
3.0114636516324 16.6093719335098 3.6153714235492 2.93957943854282 8.74375776975169
5.87396581654774 16.1775954215925 1.33902645316637 3.403723560418 28.1080888004859
5.74376658444411 16.2347738485068 1.20512380784973 3.55843826770973 45.0637210827921
6.15488757460926 16.1145949643276 0.669513226583185 3.71315297500145 6.04560559547561
6.65360088418646 15.0946961861583 5.0883005220322 4.79615592604354 8.3010776573151
7.07169274393981 14.9921661990638 4.82049523139893 4.79615592604354 8.3010776573151
2.44207488473551 16.3894383933323 5.86250127131749 2.93957943854282 9.08720517358501
3.1995313421296 16.8866457180988 3.68110544943191 2.93957943854282 9.08720517358501
5.97279561099168 16.4497843447233 1.63604686641418 3.403723560418 9.42909623747541
5.85120337627176 16.5384442697692 1.09069791094279 3.55843826770973 14.4134684969038
-10.4967040905484 14.0957863779338 -0.272674477735696 4.79615592604354 6.3399898181057
-10.6802867224138 14.342315339706 -0.555087329676241 4.79615592604354 5.70711449871412
5.95020216993153 21.0943411671406 1.5337939372633 2.93957943854282 5.88469926674742
5.95020216993153 21.0943411671406 1.5337939372633 3.09429414583454 20.2317079660179
5.95020216993153 21.0943411671406 1.5337939372633 3.24900885312627 8.21188984413332
5.86578278667775 21.4545972461997 1.38284913708818 2.93957943854282 10.6124935196521
5.86843928993996 21.4643136318291 1.20999299495215 3.09429414583454 67.1592143053718
5.87074062043057 21.4727309429711 1.03713685281613 3.24900885312627 17.5296499422785
5.95342710804227 21.7751637731537 1.0517444141234 3.09429414583454 33.7855614928458
-10.3068286454968 20.460571442571 0.35545065847689 3.71315297500145 5.81116095354029
-11.0682992245693 22.4544439532545 1.94767484096926 3.55843826770973 5.43214032808395
-11.2130952728873 22.7481941207953 1.77481869883324 3.403723560418 6.86389293999807
-10.057003405197 23.3491245364444 0.197202077648137 3.403723560418 6.86389293999807
-11.1995282077114 22.7206703885198 2.16922285412952 3.55843826770973 8.89574523583733
16.4535335001305 25.9687039059972 -6.32994323315011 -4.64144121875182 165.208842946244
16.4535335001305 25.9687039059972 -6.32994323315011 -4.48672651146009 40.3361662574642
-7.11086318373594 30.801807446314 -6.7706046659194 4.79615592604354 7.5095324829678
-5.82997636241067 30.7697393304458 8.02442034479337 4.79615592604354 7.5095324829678
-3.37103502041693 30.8593204861881 9.02747288789254 4.79615592604354 7.5095324829678
0.50001527198712 32.2276057817084 -2.50763135774793 4.79615592604354 7.5095324829678
2.75008399592917 32.1139475572337 -2.50763135774793 4.79615592604354 7.5095324829678
14.7075319210473 28.5748212253286 -3.5106839008471 4.79615592604354 7.5095324829678
25.1979857299584 19.9897782998724 3.2599207650723 4.79615592604354 7.5095324829678
-7.0669669197751 30.6116639665144 -8.86192052641015 4.79615592604354 38.3906898848991
2.78509123591027 32.522742586964 -0.253197729326004 4.79615592604354 38.3906898848991
16.4578524061903 28.1902238699244 -0 4.79615592604354 38.3906898848991
16.3584998813742 28.6055514332411 -0.51126464575443 4.79615592604354 88.7067499387519
16.2562592571156 29.024024715583 -0.516133832856853 4.79615592604354 35.8774106395589
-5.8773425515242 33.9365848382979 2.41024761569947 4.64144121875182 5.12610724370402
14.5714271350042 31.5897348564143 1.8916791892914 4.64144121875182 11.374936549646
16.2124418467191 30.8331136635797 0.540479768368969 4.64144121875182 11.374936549646
14.1289886751279 39.9356297782103 0.986010388240693 3.86786768229318 7.65278243101882
14.2336478504992 40.2314492580489 0.993314168894327 3.86786768229318 6.06452959042055
-15.3360936387883 41.1734644128694 0.68168619433924 3.71315297500145 23.9888888299371
-4.42442398827287 43.6537121155525 2.38590168018735 3.71315297500145 23.9888888299371
14.2998984457878 41.4999430813494 2.04505858301773 3.71315297500145 23.9888888299371
-4.42615904274384 43.6708310825822 2.04505858301773 3.86786768229318 17.9395350621784
13.9707829449155 41.6495653479977 1.02252929150887 3.86786768229318 17.9395350621784
14.4068158959826 41.8102297672521 1.71638845360416 3.55843826770973 6.1990135607132
15.4456371647797 41.4675605872471 0.686555381441663 3.55843826770973 6.1990135607132
16.8185826905379 40.9299592568154 0.686555381441663 3.55843826770973 6.1990135607132
14.0726916390215 41.953374578406 0.686555381441663 3.71315297500145 81.0927479044186
14.0739619185291 41.9571615236024 0.343277690720832 3.86786768229318 58.779610561083
14.1737772512846 42.2547300450464 0.345712284272043 3.71315297500145 43.3385073557132
15.1948580764085 41.8484332605679 2.07427370563227 3.71315297500145 43.3385073557132
16.581705023137 41.3344508088656 1.72856142136022 3.71315297500145 43.3385073557132
14.1737772512846 42.2547300450464 -0.345712284272043 3.86786768229318 30.9200857667987
15.1948580764085 41.8484332605679 2.07427370563227 3.86786768229318 30.9200857667987
16.5762088106275 41.3207499906872 2.07427370563227 3.86786768229318 30.9200857667987
-14.8226599537518 43.0170568502249 -1.05904819477704 3.55843826770973 12.3266535592977
-5.29269164302804 45.1806761894639 -1.41206425970272 3.55843826770973 12.3266535592977
-3.50286883556721 45.0236283920258 5.64825703881087 3.55843826770973 12.3266535592977
-14.8106091045659 42.9820839056833 -2.11809638955407 3.71315297500145 10.6566907216399
-5.28742976620522 45.1357585617397 -2.47111245447975 3.71315297500145 10.6566907216399
-3.51483507952027 45.1774348136423 4.23619277910815 3.71315297500145 10.6566907216399
-3.50237062429657 45.0172247040309 7.8199144864916 3.55843826770973 69.4975013130378
13.8609074887715 43.6730814750282 0.710901316953779 3.55843826770973 69.4975013130378
-5.29554839212571 45.2050626197798 5.33175987715336 3.71315297500145 59.1194641064277
-3.50237062429657 45.0172247040309 7.8199144864916 3.71315297500145 59.1194641064277
13.8521461857016 43.6454762765151 1.77725329238445 3.71315297500145 59.1194641064277
17.2987914142773 42.0986025283131 5.33175987715336 3.71315297500145 59.1194641064277
13.9571049435958 43.9761813467815 0.357885252028101 3.55843826770973 113.007584213684
13.9537454047387 43.9655960792338 1.07365575608431 3.71315297500145 140.004602878472
13.9470238993023 43.9444178948474 1.78942626014051 3.86786768229318 10.299515010457
12.6051230854645 44.6870138568161 -1.44127938231726 3.55843826770973 23.822588828131
14.0524739775932 44.2766710221753 -0 3.55843826770973 23.822588828131
15.0965129339977 43.8118095637459 3.24287861021383 3.55843826770973 23.822588828131
16.5247765615938 43.2648164467902 3.60319845579314 3.55843826770973 23.822588828131
14.0507829338232 44.2713428650971 0.720639691158625 3.71315297500145 51.7218139247771
15.0965129339977 43.8118095637459 3.24287861021383 3.71315297500145 51.7218139247771
16.5247765615938 43.2648164467902 3.60319845579314 3.71315297500145 51.7218139247771
14.2795623548555 47.6622886686229 3.87100374642641 3.403723560418 7.63665852530958
16.6453161096336 47.0480369812871 -0 3.403723560418 7.63665852530958
14.2704839605731 47.6319868261586 4.25810412106905 3.55843826770973 10.3327012323817
16.6453161096336 47.0480369812871 -0 3.55843826770973 10.3327012323817
-18.2995973140513 47.9116141686724 4.39200676638569 3.24900885312627 7.1722980917666
13.5716177179179 49.6393410234391 1.1978200271961 3.24900885312627 7.1722980917666
16.3697145719062 48.8012375168141 -0.399273342398698 3.24900885312627 7.1722980917666
13.5650802830123 49.6154298016939 1.9963667119935 3.403723560418 20.8951987718251
16.3702070383467 48.8027056530865 -0 3.403723560418 20.8951987718251
16.4700253739463 49.1002831265809 -0 3.24900885312627 11.1795427957228
16.4680434073656 49.0943745066453 0.803415871899819 3.403723560418 37.3279482660152
14.0085066925565 49.6622149930007 4.41878729544902 3.55843826770973 8.79661765599928
16.4680434073656 49.0943745066453 0.803415871899819 3.55843826770973 8.79661765599928
14.4960754969208 49.8478592752838 4.44556782451235 3.403723560418 9.68460416319127
16.5653569203998 49.3844846269115 1.21242758850337 3.403723560418 9.68460416319127
4.03026888882348 51.8024902696501 6.91181109188967 2.47543531666763 11.7478983633782
5.67493061119365 51.9497725200271 4.06577123052334 2.47543531666763 11.7478983633782
6.48563498422131 51.8547995963332 4.06577123052334 2.47543531666763 11.7478983633782
4.03815790632417 51.9038906386056 6.09865684578501 2.63015002395936 7.60384754816539
5.25424581217604 51.8411740549794 5.69207972273268 2.63015002395936 7.60384754816539
6.48563498422131 51.8547995963332 4.06577123052334 2.63015002395936 7.60384754816539
4.0584963060365 52.1653073783471 6.54418746565673 2.47543531666763 6.12712682924997
5.29776253100318 52.2705330677975 4.499128882639 2.47543531666763 6.12712682924997
4.06927002079498 52.3037857948845 5.31715231584609 2.63015002395936 5.36002537397483
5.29406883701535 52.2340891251702 4.90814059924254 2.63015002395936 5.36002537397483
-24.7528410269152 51.3287398504426 3.98786423688457 3.09429414583454 5.74299416793068
-20.2439868214048 53.0023731767082 6.64644039480762 3.09429414583454 5.74299416793068
-18.3370692137829 53.2162750341008 9.74811257905117 3.09429414583454 5.74299416793068
-10.5714167238991 55.7943491924191 6.20334436848711 3.09429414583454 5.74299416793068
13.6297834277726 55.0201164280437 7.08953642112812 3.09429414583454 5.74299416793068
16.3767884581522 54.6624048804974 2.65857615792304 3.09429414583454 5.74299416793068
16.4444158745332 54.888131507222 4.00977557884547 3.09429414583454 11.2963722119716
13.6761696118875 55.2073661568587 8.01955115769094 3.24900885312627 23.2687077839147
16.4444158745332 54.888131507222 4.00977557884547 3.24900885312627 23.2687077839147
16.5247765615938 55.1563592140038 4.47965213422931 3.24900885312627 8.07657967930168
13.2650950237388 57.4598177634452 6.44193453650584 3.09429414583454 8.43463524067837
13.2759934428436 57.5070259571711 5.98179635532685 3.24900885312627 5.07204152667448
13.3352807116951 57.7638379632518 6.47601884622281 3.09429414583454 8.15464568443167
13.3235030322432 57.7128211168766 6.93859162095301 3.24900885312627 5.67052154491813
13.5959626252223 61.1064103650131 7.82965286069644 2.93957943854282 5.06791064919718
13.6424081569242 61.3151576084436 5.87223964552233 3.09429414583454 11.0557347278588
13.7285746522289 61.7024288423348 4.91787897344739 2.93957943854282 13.7483393902818
16.2285123938618 61.288192588532 -0.491787897344738 2.93957943854282 13.7483393902818
13.7364667237276 61.7378993840627 4.42609107610266 3.09429414583454 34.1634983059567
16.2270476501846 61.2826608743242 -0.983575794689475 3.09429414583454 34.1634983059567
13.7435242093825 61.7696189192261 3.93430317875792 3.24900885312627 6.14958314207906
16.2270476501846 61.2826608743242 -0.983575794689475 3.24900885312627 6.14958314207906
16.3093421995664 61.5934524040152 -0 2.93957943854282 6.30285228937972
13.7965378930816 62.0078864108612 4.94222490895951 3.09429414583454 15.2043422742254
16.3073795692449 61.586040383603 -0.988444981791898 3.09429414583454 15.2043422742254
13.5798172466566 63.4041709437695 7.59593187978013 2.93957943854282 7.51970601112559
16.6929426754911 63.0421483334349 3.03837275191205 2.93957943854282 7.51970601112559
13.591821502156 63.4602188164257 7.08953642112813 3.09429414583454 9.08722830166086
16.6984775937225 63.0630513667073 2.53197729326004 3.09429414583454 9.08722830166086
5.71013415658493 3.83783979265603 -0.589171639393202 2.80318620974616 10.2214517641661
2.19382714468106 6.5402166353074 2.12783476375892 2.595542786802 8.36980557738487
5.96968570915698 4.01228705595857 -0.61595216845653 2.69936449827408 22.1367403654589
5.96968570915698 4.01228705595857 -0.61595216845653 2.80318620974616 12.2223878541532
6.07601424165328 4.451251622235 -0.116860490458155 2.595542786802 6.78970542547895
6.2428136274092 4.19585913402348 -0.409011716603545 2.69936449827408 6.06237208234564
5.15039101630309 8.64227247846995 -3.55937577187133 0.5191085573604 5.34052385997701
-2.64674255153514 10.3295312924517 -2.64153400306457 1.66114738355328 32.2965044480669
-2.64141323863267 10.3087324035074 -2.72674477735697 1.76496909502536 26.2627672378929
-2.73277445242154 10.6652908894097 -2.54171566746489 1.66114738355328 49.5998476334355
-2.29699442865371 10.7246677010402 -2.71700640315212 1.86879080649744 5.668990667201
-2.20145461716847 10.6917069076592 3.96351830137245 1.76496909502536 16.2567078547694
-3.74243755468749 11.1569192728375 -1.94280565386684 1.66114738355328 16.8761312691637
-2.46125497296457 11.4916002334619 -2.03532020881288 1.76496909502536 7.92982825742652
-3.30628189189592 11.721255216307 -1.23433893046427 1.66114738355328 11.4734082473742
-2.52938815474065 11.8097140803427 -1.99393211844228 1.66114738355328 11.4734082473742
-2.54124140115636 11.8650568915404 -1.61413552445328 1.76496909502536 12.1288706784067
-3.74039946786899 11.460556687125 -3.50581471374468 1.66114738355328 5.32882942515594
-3.50317711756416 12.0464245657265 -0.486918710242316 1.66114738355328 5.32882942515594
-3.09785105462245 12.090087639811 -1.36337238867849 1.66114738355328 5.32882942515594
-11.5733523927546 5.61280500618262 -0.3992733423987 1.66114738355328 6.56155942275326
-9.83911419846397 8.20746878265712 -1.1978200271961 1.66114738355328 6.56155942275326
-9.85790637051105 8.22314460085819 -0.898365020397074 1.76496909502536 7.50861397724628
-1.87121877734375 12.5582655402656 -2.09618504759317 1.76496909502536 7.50861397724628
-3.25788851508637 12.7146712264798 -1.22703514981064 1.66114738355328 12.7995433499823
-3.25541601663598 12.705021723509 -1.32928807896152 1.76496909502536 12.1362928153197
-3.44803056101729 13.0217456748963 -0.837500181616785 1.66114738355328 5.90621440575811
-3.44625995066647 13.0150588322858 -0.942187704318882 1.76496909502536 6.41820209496708
-1.96249774209222 13.1708638593029 -2.19843797674406 1.76496909502536 6.41820209496708
4.17763685386541 15.7771584881369 -0.126598864663002 -0.31146513441624 6.97805752155661
4.25605410742806 16.0733071197533 -0.516133832856856 -0.31146513441624 6.94043431573448
-7.77791276121274 20.3639647833495 -5.95988501336595 0.62293026883248 7.52994187587986
-7.81103629138518 20.4506881013707 -5.60930354199148 0.726751980304561 5.05376608889122
-42.9192113773332 15.7828716929928 -16.603928019263 -1.86879080649744 5.44906378979398
-14.1482395360137 45.8680299427173 -7.92460200919369 -1.86879080649744 5.44906378979398
-12.5666842819837 45.9637118855559 -9.81141201138267 -1.86879080649744 5.44906378979398
-43.9551177663786 18.3197537334596 -11.3938978196702 -1.86879080649744 5.10465819943279
-14.2395185007622 46.1639527165413 -7.97572847376914 -1.86879080649744 5.10465819943279
