VERSION .7
FIELDS x y z velocity intensity
SIZE 4 4 4 4 4
TYPE F F F F F
COUNT 1 1 1 1 1
WIDTH 977
HEIGHT 1
VIEWPOINT 0 0 0 1 0 0 0
POINTS 977
DATA ascii
6.741710 -1.999800 32.866300 -10.656000 8.520000
6.839520 0.500061 33.343200 -10.656000 7.350000
7.121670 0.293180 33.727100 -10.656000 8.580000
18.561500 2.153630 30.999300 -9.501600 6.080000
18.782500 2.179270 31.368300 -9.501600 5.800000
19.006800 2.090490 31.743000 -9.501600 7.990000
-7.034510 0.985385 36.809200 -10.567200 9.370000
19.224400 2.230550 32.106400 -9.501600 8.640000
-7.115370 0.996711 37.232300 -10.567200 8.220000
18.663700 1.482210 33.469400 -9.590400 6.880000
8.299130 1.379010 37.857500 -10.656000 6.550000
18.873400 1.498860 33.845400 -9.590400 12.260000
8.088290 2.212030 38.304800 -10.656000 12.870000
19.083100 1.515520 34.221500 -9.590400 4.570000
7.654120 2.236340 38.832500 -10.656000 9.120000
-16.391500 2.044070 36.510900 -11.011200 8.750000
7.737310 2.260650 39.254600 -10.656000 9.840000
18.746500 2.044070 35.359500 -9.679200 11.460000
-16.851700 2.066050 36.774700 -11.011200 10.640000
18.948100 2.066050 35.739700 -9.679200 13.570000
-17.012800 2.814680 37.126200 -11.011200 7.480000
19.149700 2.088030 36.119900 -9.679200 11.400000
-17.418800 2.461290 37.439400 -10.922400 6.400000
19.351300 2.110010 36.500100 -9.679200 4.630000
-17.600300 2.486930 37.829400 -10.922400 7.620000
18.890600 2.023530 37.713000 -9.856800 10.140000
19.080400 2.175950 38.092000 -9.856800 11.220000
19.273100 2.197930 38.476800 -9.856800 6.150000
-26.889500 1.532230 33.635700 -8.258400 6.470000
-7.011340 1.043040 42.939700 -10.567200 6.840000
-26.895700 1.547550 34.180300 -8.347200 6.330000
-27.427200 1.562870 34.308400 -8.347200 12.260000
19.320700 1.989650 39.907100 -9.856800 5.330000
-27.696100 1.578200 34.644700 -8.347200 6.190000
19.508300 2.008970 40.294500 -9.856800 11.780000
19.695900 2.028290 40.682000 -9.856800 7.850000
19.238300 1.848600 43.751200 -10.034400 6.610000
19.411600 1.865250 44.145400 -10.034400 13.730000
19.584900 1.881910 44.539600 -10.034400 7.020000
19.746700 2.240770 45.863800 -10.034400 10.840000
-6.193300 2.571570 49.967300 -10.656000 7.100000
19.917000 2.260090 46.259100 -10.034400 8.260000
19.817200 2.279410 46.769900 -10.123200 7.990000
19.785900 2.318040 47.716500 -10.123200 10.030000
-11.742500 2.158270 50.310800 -12.343200 8.340000
19.950800 2.337360 48.114100 -10.123200 5.380000
-11.841800 2.015140 50.736300 -12.343200 13.950000
20.115700 2.356680 48.511800 -10.123200 10.290000
-11.939700 2.031790 51.155600 -12.343200 4.980000
-11.639700 2.048450 51.666200 -12.432000 14.060000
-13.531700 2.230220 51.641600 -12.343200 9.970000
-13.239200 2.248200 52.161600 -12.343200 11.050000
9.880170 1.301210 53.371000 -10.656000 17.250000
10.271200 0.803895 53.745700 -10.656000 15.160000
10.352800 0.469089 54.172800 -10.656000 14.670000
20.021500 2.472580 51.333400 -10.212000 14.840000
20.180600 2.320140 51.741400 -10.212000 5.420000
9.771270 -0.649655 55.154400 -10.656000 6.110000
20.337100 2.338130 52.142500 -10.212000 5.490000
20.493500 2.356110 52.543600 -10.212000 7.310000
20.391900 2.068510 54.440900 -10.212000 7.340000
-32.761400 1.540370 48.565000 2.752800 5.800000
20.277200 1.049740 55.431600 -10.300800 14.570000
20.424000 1.241280 55.832900 -10.300800 6.050000
20.572000 1.250270 56.237500 -10.300800 11.090000
20.720000 1.259270 56.642100 -10.300800 8.670000
20.230800 2.175770 57.705500 -10.300800 10.880000
20.373300 2.191090 58.111900 -10.300800 6.950000
20.515700 2.206410 58.518300 -10.300800 7.140000
20.658200 2.221730 58.924700 -10.300800 8.810000
20.455000 2.431490 59.443500 -10.300800 6.370000
20.592600 2.643880 59.843200 -10.300800 7.640000
20.732700 2.661870 60.250300 -10.300800 5.390000
20.872700 2.679860 60.657300 -10.300800 12.410000
-23.323000 -1.538740 59.798300 -9.945600 17.140000
21.017900 2.298340 61.079100 -10.389600 17.020000
-23.479600 -1.549060 60.199600 -9.945600 11.960000
21.155500 2.514760 61.479200 -10.389600 7.240000
21.298100 2.328990 61.893400 -10.300800 14.500000
21.438200 2.344310 62.300600 -10.300800 18.820000
20.647400 1.412180 64.408000 -10.389600 9.860000
21.030800 2.664650 65.604000 -10.389600 19.660000
-9.458600 1.662660 68.707000 -10.656000 17.090000
21.162200 2.681300 66.014000 -10.389600 10.350000
-9.916820 1.672990 69.077500 -10.656000 8.440000
21.293700 2.697950 66.424000 -10.389600 9.360000
-9.978030 1.683310 69.504000 -10.656000 7.620000
21.044300 2.075980 67.429500 -10.389600 11.770000
21.172600 2.088640 67.840700 -10.389600 11.290000
21.302800 1.880160 68.257700 -10.389600 6.640000
21.431100 1.891490 68.668900 -10.389600 8.440000
21.159800 1.902810 69.203500 -10.389600 6.370000
21.281800 2.364380 69.602800 -10.389600 7.550000
21.407800 2.378370 70.014700 -10.389600 7.410000
21.533700 2.392360 70.426500 -10.389600 11.070000
21.813700 1.709010 78.893000 -10.478400 8.210000
21.928500 1.718000 79.308200 -10.478400 5.430000
22.046700 0.959490 79.735400 -10.478400 6.420000
-16.164900 -0.969484 82.011100 -10.567200 6.460000
-16.248200 -0.974482 82.433800 -10.567200 4.410000
21.731800 1.524810 82.935600 -10.567200 6.350000
21.841000 1.532470 83.352400 -10.567200 6.470000
21.950200 1.540130 83.769100 -10.567200 10.020000
22.059400 1.547800 84.185900 -10.567200 8.820000
-11.416200 -3.979310 87.938200 -10.656000 6.820000
-11.471600 -3.998620 88.365100 -10.656000 5.880000
-18.870100 1.624420 89.365800 -10.567200 5.440000
-15.413100 1.624420 90.026500 -10.567200 4.510000
23.316300 1.978850 91.864500 -10.567200 11.780000
23.422300 1.987840 92.282100 -10.567200 5.440000
23.528300 1.996840 92.699700 -10.567200 5.300000
23.636800 1.411560 93.127500 -10.567200 8.800000
-26.850600 1.708710 92.247200 -10.300800 9.690000
23.200500 1.716370 93.676100 -10.567200 9.090000
-26.969400 2.014830 92.655300 -10.300800 10.810000
23.304100 1.724030 94.094300 -10.567200 10.810000
-27.089800 2.023820 93.069000 -10.300800 8.560000
23.408900 1.430550 94.517200 -10.567200 5.950000
22.877900 2.050810 95.522300 -10.567200 5.670000
22.978200 2.059800 95.941300 -10.567200 10.060000
22.518300 2.605040 96.479700 -10.567200 14.360000
-56.815300 -15.147100 101.886000 -9.235200 14.080000
19.289900 0.671655 122.589000 -10.744800 5.920000
19.356900 0.673987 123.015000 -10.744800 10.880000
19.423400 1.062780 123.438000 -10.744800 7.290000
-54.354400 -14.809400 116.827000 -9.590400 10.930000
-54.806200 -12.900300 117.798000 -9.590400 12.080000
-54.708600 -10.764200 121.860000 -9.679200 5.460000
-54.809600 -12.869700 122.084000 -9.679200 6.520000
-53.041200 -14.156000 123.193000 -9.679200 5.540000
-54.161600 -14.201200 123.173000 -9.679200 6.830000
22.655200 1.355960 157.809000 -10.744800 5.520000
22.715700 1.854010 158.231000 -10.744800 6.410000
-59.578600 -10.436900 155.402000 -9.945600 5.130000
-4.489180 2.633230 179.179000 -10.744800 5.350000
5.000930 -0.596055 3.320800 -5.328000 3.440000
6.477840 0.798446 5.627610 -7.104000 7.590000
5.855450 -0.454261 7.441370 -8.347200 9.610000
6.376430 -1.082410 6.930810 -7.903200 7.920000
5.986640 -0.444291 7.885730 -8.436000 13.430000
6.596150 -1.131620 7.309740 -7.992000 9.680000
5.881640 -0.416351 9.015530 -8.880000 12.770000
6.108260 -0.735762 9.362910 -8.880000 11.170000
6.457250 1.426670 9.572120 -8.791200 7.630000
6.779590 1.377620 9.884750 -8.791200 6.670000
6.986300 0.299485 10.356400 -8.880000 7.240000
6.857890 0.474991 11.453300 -9.057600 5.480000
-9.091060 1.404840 10.271800 -7.814400 7.470000
6.431050 1.277510 12.130200 -9.324000 3.170000
-8.031890 1.532710 13.182300 -8.791200 6.420000
-8.255000 1.575290 13.548500 -8.791200 8.430000
14.065200 1.703010 9.815800 -6.304800 7.760000
6.701310 0.632853 14.926700 -9.590400 7.160000
-9.053870 1.103640 14.114600 -8.702400 9.730000
14.299500 1.745590 10.227200 -6.393600 6.830000
6.991650 0.857191 15.257600 -9.590400 9.370000
-9.174170 1.131940 14.547600 -8.702400 9.190000
7.261260 0.879170 15.607100 -9.590400 9.170000
5.986240 -0.377780 17.074900 -9.945600 7.270000
14.247100 1.814960 12.377100 -7.104000 7.310000
5.892780 -0.329481 17.563600 -9.945600 12.380000
6.030130 -0.278515 17.972900 -9.945600 13.830000
7.868700 -1.639780 17.171500 -9.590400 11.680000
6.164590 -0.629569 18.373700 -9.945600 12.380000
7.775880 -1.677050 17.683700 -9.590400 10.440000
7.198670 -0.643559 18.456800 -9.856800 12.240000
7.948670 -1.714310 18.076700 -9.590400 9.720000
7.073340 1.876350 18.883900 -9.945600 12.180000
5.063400 2.043620 19.949400 -10.212000 9.630000
7.372260 1.916270 19.229500 -9.945600 10.140000
7.521370 2.086190 19.618400 -9.945600 4.680000
7.789930 1.956190 19.526800 -9.768000 8.900000
-8.497990 0.310164 19.326000 -9.501600 8.760000
5.554170 2.128770 20.707600 -10.034400 6.360000
6.691240 1.578830 20.872800 -10.034400 3.860000
6.822440 1.609790 21.282100 -10.034400 5.750000
-8.452510 1.094360 21.187700 -9.590400 5.770000
-8.446570 1.043120 21.656300 -9.590400 7.410000
17.669500 6.755430 16.332900 -7.636800 4.800000
7.497320 0.284849 23.387300 -10.034400 7.110000
17.978400 1.826490 17.882300 -7.636800 5.540000
7.628850 0.289846 23.797600 -10.034400 9.330000
18.279000 1.937200 18.181200 -7.636800 12.190000
7.760380 0.294843 24.207900 -10.034400 13.270000
7.892160 0.219885 24.619000 -10.034400 17.880000
6.428530 -2.839660 25.328000 -10.212000 12.670000
5.358790 1.589580 26.124500 -10.212000 18.900000
5.598580 1.615220 26.514000 -10.212000 7.050000
6.781470 -0.810137 26.718500 -10.212000 15.530000
6.882490 -1.342140 27.116500 -10.300800 9.400000
-7.689830 0.937358 27.811500 -10.034400 8.490000
-7.804600 0.951348 28.226600 -10.034400 6.500000
7.922700 -0.436762 28.653800 -10.212000 6.490000
7.250530 -0.443092 29.275200 -10.212000 6.890000
4.810080 -2.228940 30.568500 -10.389600 8.250000
4.637870 -2.259900 31.029700 -10.300800 7.380000
18.201800 1.995680 26.104900 -8.791200 5.740000
4.703400 -2.094090 31.468200 -10.300800 5.000000
18.444100 2.122390 26.452400 -8.791200 6.170000
6.481180 -2.022650 31.596300 -10.300800 8.330000
18.690100 2.150690 26.805100 -8.791200 8.330000
18.321500 1.589910 27.616300 -8.880000 8.010000
18.556600 1.714380 27.970600 -8.880000 8.050000
-6.485680 2.207290 32.904500 -10.212000 10.580000
18.794600 1.736360 28.329200 -8.880000 9.170000
-6.568830 2.235580 33.326400 -10.212000 6.430000
19.032500 1.758340 28.687800 -8.880000 9.140000
-6.456790 2.263880 33.786100 -10.212000 14.420000
19.043600 1.861170 29.190600 -8.968800 8.790000
-6.537500 2.292180 34.208500 -10.212000 16.710000
7.097970 -0.846821 34.603200 -10.300800 11.570000
18.587600 1.713800 30.507000 -9.146400 14.390000
7.186580 0.082958 35.035100 -10.300800 13.290000
18.811600 1.734450 30.874500 -9.146400 6.280000
7.273170 0.083957 35.457200 -10.300800 11.040000
7.567030 0.084957 35.836200 -10.300800 10.980000
8.488900 -0.091953 38.723100 -10.300800 9.040000
8.279220 -0.092953 39.209000 -10.300800 6.370000
8.367960 0.344487 39.629300 -10.300800 6.380000
8.456980 0.348152 40.050900 -10.300800 8.310000
-24.846600 -1.427020 36.226700 -8.436000 6.630000
19.442200 1.698710 39.381200 -9.590400 7.070000
19.017500 1.715370 40.065200 -9.590400 6.780000
19.197200 2.008970 40.443700 -9.590400 7.480000
19.381700 2.028290 40.832600 -9.590400 7.320000
19.566300 2.047600 41.221500 -9.590400 6.950000
19.753600 1.924460 41.615900 -9.590400 7.130000
19.364500 2.230010 42.258200 -9.679200 4.950000
19.540800 2.395740 42.643000 -9.679200 16.380000
19.720000 2.417720 43.034200 -9.679200 7.790000
19.899300 2.439700 43.425400 -9.679200 19.040000
19.403800 2.312600 44.127700 -9.679200 8.090000
19.577000 2.333250 44.521700 -9.679200 10.970000
19.750300 2.353900 44.915700 -9.679200 12.570000
19.573700 2.374550 45.461900 -9.679200 17.070000
19.743900 2.395200 45.857200 -9.679200 16.970000
19.646400 2.415840 46.366800 -9.768000 12.220000
19.824600 1.808030 46.787300 -9.768000 6.340000
19.992600 1.823350 47.183800 -9.768000 20.390000
20.115700 2.356680 48.511800 -9.768000 5.740000
20.280500 2.375990 48.909400 -9.768000 9.680000
20.445400 2.395310 49.307000 -9.768000 6.250000
-11.342100 1.884640 51.738600 -11.632800 8.300000
-11.434400 1.899960 52.159200 -11.632800 5.720000
-12.234700 1.915290 52.419600 -11.632800 5.200000
-12.332600 1.930610 52.838900 -11.632800 9.420000
10.353100 0.298513 54.174000 -10.300800 10.120000
10.433700 0.472753 54.596100 -10.300800 6.230000
10.514900 0.129934 55.021100 -10.300800 7.970000
7.977400 -11.530200 55.568100 -10.300800 7.640000
11.080000 -0.867194 57.977700 -10.300800 11.980000
11.156200 -1.930680 58.376400 -10.389600 7.790000
8.849220 -1.944670 59.205800 -10.389600 5.820000
20.244000 1.574350 56.348300 -9.945600 5.550000
20.389600 1.585680 56.753600 -9.945600 7.020000
20.535300 1.597000 57.159000 -9.945600 5.860000
20.680900 1.608330 57.564400 -9.945600 5.690000
20.952100 3.165010 58.319300 -9.945600 9.010000
21.097600 3.186990 58.724300 -9.945600 13.860000
21.243100 3.208970 59.129300 -9.945600 7.170000
18.060900 1.149350 62.049700 -9.146400 9.430000
20.541600 2.697840 61.224600 -10.034400 8.280000
18.179000 1.559390 62.455300 -9.146400 9.320000
20.678500 2.715830 61.632700 -10.034400 8.760000
21.305400 1.569720 61.914800 -9.057600 7.000000
20.937300 3.719130 62.404000 -10.034400 6.620000
21.070300 3.948320 62.800600 -10.034400 7.800000
21.211000 3.767750 63.219700 -10.034400 13.110000
21.365900 2.598030 63.681500 -10.034400 6.140000
21.008200 2.614680 64.253500 -10.034400 6.040000
21.142100 2.631340 64.662800 -10.034400 6.370000
21.278300 2.436250 65.079500 -10.034400 12.300000
21.412100 2.451570 65.488800 -10.034400 15.400000
21.425100 2.714610 66.834000 -10.123200 14.210000
21.300900 2.101290 68.251800 -10.123200 11.520000
21.431100 1.891490 68.668900 -10.123200 17.140000
21.557600 2.126610 69.074100 -10.123200 14.590000
21.283900 2.139270 69.609500 -10.123200 6.960000
21.537600 1.936790 70.439300 -10.123200 5.920000
22.074000 1.776260 70.729000 -10.123200 9.540000
21.429500 1.471170 79.895700 -10.212000 12.720000
21.542200 1.221670 80.315900 -10.212000 6.800000
21.652700 1.486500 80.728000 -10.212000 6.760000
21.764400 1.494160 81.144100 -10.212000 8.870000
21.618500 2.242600 82.503400 -10.212000 6.490000
-12.278600 -2.158360 89.191000 -10.300800 6.460000
-12.855100 -2.168690 89.545000 -10.300800 6.190000
-13.496600 -2.965970 90.299600 -10.212000 13.070000
-17.219300 -2.979960 90.102700 -10.212000 9.040000
22.680400 1.924880 89.359200 -10.212000 11.730000
22.786400 1.933870 89.776700 -10.212000 5.950000
22.892400 1.942870 90.194300 -10.212000 5.900000
22.998300 1.951860 90.611900 -10.212000 5.320000
23.208700 2.261630 91.440600 -10.212000 8.650000
22.782000 2.491780 91.986100 -10.212000 8.700000
22.989100 2.514430 92.822300 -10.212000 6.400000
23.094000 2.302940 93.245800 -10.212000 6.690000
23.197500 2.313270 93.664000 -10.212000 6.910000
23.301100 2.323590 94.082100 -10.212000 8.360000
23.407700 1.731690 94.512500 -10.212000 10.530000
23.509800 2.041810 94.925000 -10.212000 9.540000
23.614800 1.747020 95.348900 -10.212000 6.380000
23.083500 0.229883 96.381000 -10.212000 11.770000
23.183900 0.230882 96.800000 -10.212000 10.640000
23.284300 0.231882 97.219100 -10.212000 6.170000
20.136600 1.062780 123.323000 -10.389600 7.180000
19.489800 1.454230 123.859000 -10.389600 8.830000
19.556000 1.848330 124.280000 -10.389600 11.650000
19.622900 1.854660 124.706000 -10.300800 16.240000
-55.419500 -10.917800 116.755000 -9.324000 16.100000
-55.603600 -10.954100 117.143000 -9.324000 11.420000
-55.805600 -10.487300 117.569000 -9.324000 7.980000
-55.365600 -12.622200 119.001000 -9.235200 8.410000
-55.546500 -12.663500 119.390000 -9.235200 7.100000
-55.727500 -12.704700 119.779000 -9.235200 7.530000
-58.712400 -8.938200 156.746000 -9.679200 9.160000
-58.853300 -9.480130 157.123000 -9.679200 6.830000
-60.266300 -18.294900 157.196000 -9.590400 9.060000
-5.445170 2.595250 176.566000 -10.389600 12.570000
-5.458450 2.601580 176.997000 -10.389600 11.720000
-4.511090 1.531870 180.053000 -10.389600 6.090000
-4.521880 1.535530 180.484000 -10.389600 7.060000
5.002440 -0.577486 3.321800 -5.594400 2.650000
5.359760 -0.618735 3.559070 -5.772000 4.130000
6.248540 -1.838160 5.643300 -7.459200 5.460000
6.287430 1.336850 6.967620 -7.992000 6.200000
5.695760 -0.894425 8.585280 -8.880000 8.690000
5.794530 -0.931693 9.033390 -8.968800 7.000000
6.987440 0.607701 8.176380 -8.436000 7.350000
6.077570 1.339440 9.315860 -8.968800 7.000000
6.625400 0.632009 9.012260 -8.702400 7.510000
6.108200 4.328130 8.905850 -9.146400 4.000000
6.754270 1.355220 9.375510 -8.702400 6.130000
6.821850 0.521583 10.456700 -8.968800 5.390000
6.548600 0.579510 11.130500 -9.146400 6.120000
7.057080 0.539568 10.817300 -8.968800 6.180000
6.855330 0.598827 11.449000 -9.057600 5.640000
-8.913020 1.196450 9.877250 -7.725600 6.700000
-9.116980 0.948101 10.301100 -7.814400 7.530000
6.135050 1.574420 12.248000 -9.501600 4.320000
-9.139960 0.802165 10.863600 -7.903200 5.280000
-9.407490 0.846069 10.629300 -7.725600 5.480000
6.428380 1.536210 12.590300 -9.501600 5.290000
-9.797630 0.871707 10.857600 -7.636800 3.330000
6.529300 1.447560 13.035100 -9.501600 4.360000
-8.715750 1.349860 14.304700 -8.791200 8.010000
7.193410 0.999899 15.154700 -9.679200 9.670000
-8.825880 1.384470 14.740000 -8.880000 6.670000
7.376460 1.078740 15.540400 -9.679200 10.720000
-8.937560 1.214750 15.190900 -8.968800 3.670000
7.437880 1.105710 15.986700 -9.679200 9.930000
14.251300 1.756580 12.380700 -7.192800 7.620000
14.328500 1.796500 12.940600 -7.192800 5.200000
7.096280 -1.756580 17.493500 -9.856800 13.930000
14.001400 0.629569 13.399900 -7.548000 5.610000
7.257550 -1.796500 17.891100 -9.856800 12.890000
7.149760 -1.915890 17.922100 -9.679200 9.380000
14.312500 0.643559 13.697600 -7.548000 5.970000
17.080000 -2.726650 11.341700 -6.127200 5.320000
17.435800 -2.783450 11.578000 -6.127200 8.030000
4.813850 -0.799394 20.099300 -10.300800 9.840000
4.914130 -0.816048 20.518100 -10.300800 8.640000
6.808620 1.714380 20.824100 -10.034400 4.710000
6.655120 1.748000 21.324100 -10.123200 3.840000
-8.289350 1.264020 20.778700 -9.679200 5.820000
6.952060 1.711190 21.686400 -10.034400 5.850000
-8.448760 1.288330 21.178300 -9.679200 8.450000
-8.732760 1.312630 21.527700 -9.679200 6.560000
7.628540 0.367133 23.796700 -10.034400 4.710000
7.760070 0.373463 24.206900 -10.123200 16.650000
7.891200 0.459742 24.616000 -10.034400 5.940000
6.305360 -1.726210 25.459000 -10.212000 18.000000
7.451730 -1.672050 25.601000 -10.212000 14.810000
7.376060 -1.384690 26.088700 -10.212000 9.420000
6.717590 -1.294240 28.048000 -10.300800 7.810000
6.819610 -1.132470 28.474000 -10.300800 10.620000
7.141490 -1.241010 28.835000 -10.300800 7.900000
18.013900 1.980900 24.111900 -8.613600 12.260000
7.412980 -1.352190 29.206600 -10.300800 12.010000
18.459200 2.009200 24.314800 -8.613600 9.010000
18.719100 2.037490 24.657300 -8.613600 10.260000
4.987790 -2.133230 30.546800 -10.300800 8.630000
5.057060 -2.162860 30.971100 -10.389600 6.880000
18.398800 2.094090 25.958700 -8.791200 9.660000
4.691930 -3.052430 31.391500 -10.389600 10.100000
18.647500 2.122390 26.309500 -8.791200 11.680000
5.184020 -3.093680 31.748600 -10.389600 10.430000
18.690100 2.150690 26.805100 -8.880000 13.000000
4.711920 -1.179820 32.821800 -10.300800 9.980000
18.551200 1.896030 27.962500 -8.968800 6.410000
7.723100 -1.179820 32.246400 -10.300800 8.660000
18.789100 1.920330 28.321000 -8.968800 7.130000
-6.568830 2.235580 33.326400 -10.212000 7.260000
19.026900 1.944640 28.679500 -8.968800 10.170000
-6.456790 2.263880 33.786100 -10.212000 13.960000
-6.736470 2.184460 34.176900 -10.212000 8.540000
18.590300 1.884150 29.988800 -9.146400 15.470000
-7.086090 2.211430 34.545200 -10.212000 10.750000
18.817100 1.907120 30.354500 -9.146400 6.010000
6.712960 -0.414779 35.126600 -10.389600 7.960000
18.806400 1.930100 30.866100 -9.146400 15.590000
19.030300 1.953080 31.233500 -9.146400 15.810000
8.021570 1.448900 36.591400 -10.300800 11.400000
7.832700 0.344487 39.738600 -10.389600 6.950000
-6.905920 0.981073 40.336800 -10.300800 8.040000
-6.978610 0.991400 40.761400 -10.300800 5.440000
-7.051300 1.001730 41.186000 -10.300800 10.290000
19.056000 1.931700 38.599000 -9.590400 8.020000
19.246600 1.951020 38.985000 -9.590400 7.850000
19.437200 1.970340 39.371000 -9.590400 8.750000
19.197200 2.008970 40.443700 -9.590400 6.720000
19.381700 2.028290 40.832600 -9.590400 13.150000
19.566300 2.047600 41.221500 -9.590400 6.810000
19.750900 2.066920 41.610300 -9.590400 8.710000
19.364500 2.230010 42.258200 -9.679200 8.940000
19.543800 2.250660 42.649500 -9.679200 18.670000
19.723100 2.271310 43.040800 -9.679200 17.460000
19.902400 2.291950 43.432000 -9.679200 11.200000
19.582400 2.032370 44.534000 -9.768000 6.090000
19.753100 2.202140 44.922100 -9.768000 12.330000
19.926400 2.221460 45.316200 -9.768000 7.010000
19.819800 2.122300 46.776100 -9.768000 17.750000
-25.649800 -1.506350 44.375200 -8.968800 13.420000
19.990300 1.981830 47.178400 -9.768000 9.880000
-26.209500 -1.519010 44.547400 -8.880000 11.740000
-26.427900 -1.531670 44.918700 -8.880000 9.440000
-11.343300 1.720820 51.744000 -11.721600 8.810000
-11.435600 1.734810 52.164700 -11.721600 8.640000
-11.830300 1.915290 52.512300 -11.721600 9.760000
-4.633960 0.296181 54.526900 -10.389600 9.950000
-12.333900 1.762790 52.844500 -11.721600 6.260000
10.353100 0.298513 54.174000 -10.389600 6.860000
10.433700 0.472753 54.596100 -10.389600 11.360000
10.832100 0.649655 54.955900 -10.389600 9.150000
12.084900 1.178310 55.126500 -10.389600 5.850000
8.115020 4.824160 56.526800 -10.389600 6.270000
8.505110 4.860430 56.903600 -10.389600 15.080000
20.540600 2.264950 54.837900 -10.034400 10.110000
20.691600 2.281600 55.241100 -10.034400 7.340000
20.181200 1.822810 58.647700 -10.034400 11.940000
20.321300 1.835470 59.055000 -10.034400 6.530000
20.459500 2.042600 59.456500 -10.034400 9.110000
20.737600 2.267700 60.264700 -10.034400 7.470000
20.875300 2.481450 60.664900 -10.034400 7.060000
7.454680 1.149350 64.193400 -10.389600 6.740000
21.015400 2.498100 61.072000 -10.034400 5.560000
21.155500 2.514760 61.479200 -10.034400 9.520000
21.298100 2.328990 61.893400 -10.034400 9.220000
20.957400 2.344310 62.464000 -10.123200 6.680000
21.094400 2.359630 62.872300 -10.123200 11.310000
21.228900 2.581380 63.273300 -10.123200 6.150000
21.365900 2.598030 63.681500 -10.123200 17.910000
20.633900 2.823740 64.365900 -10.123200 19.210000
20.765300 2.841730 64.775900 -10.123200 7.970000
20.896800 2.859710 65.185800 -10.123200 11.820000
21.028200 2.877700 65.595800 -10.123200 14.250000
21.162200 2.681300 66.014000 -10.123200 7.930000
20.781100 2.697950 66.586200 -10.123200 10.700000
20.911800 2.497530 67.004900 -10.123200 5.800000
21.040100 2.512860 67.416000 -10.123200 17.290000
21.170600 2.308420 67.834200 -10.123200 18.600000
20.904100 2.322410 68.367300 -10.123200 8.400000
21.030000 2.336400 68.779100 -10.123200 15.400000
21.153700 2.574150 69.183700 -10.123200 6.060000
21.541100 1.478840 80.311900 -10.212000 7.860000
21.498000 -3.543170 82.043500 -10.212000 6.770000
22.083400 -3.561150 82.333700 -10.212000 5.630000
-12.789500 -3.202360 89.087800 -10.300800 5.560000
-15.260400 -3.217680 89.134900 -10.300800 7.150000
22.678800 2.210000 89.353000 -10.300800 7.530000
22.784800 2.220320 89.770500 -10.300800 7.640000
22.890800 2.230650 90.188000 -10.300800 4.970000
22.472600 2.240980 90.737000 -10.300800 5.490000
23.101400 2.469120 91.017800 -10.300800 8.760000
23.208700 2.261630 91.440600 -10.300800 10.580000
23.314700 2.271960 91.858200 -10.300800 9.280000
24.131100 2.282290 92.092500 -10.212000 5.330000
22.990400 2.292610 92.827700 -10.300800 6.590000
23.094000 2.302940 93.245800 -10.300800 9.800000
23.197500 2.313270 93.664000 -10.300800 13.490000
23.301100 2.323590 94.082100 -10.300800 12.300000
-13.398200 0.835564 97.323700 -10.300800 6.010000
-13.457200 0.534059 97.752700 -10.300800 6.300000
19.424100 0.289852 123.442000 -10.389600 13.060000
19.491000 0.290852 123.867000 -10.389600 13.040000
19.558000 0.291851 124.293000 -10.389600 8.790000
-54.987100 -12.942900 118.187000 -9.324000 6.410000
-54.481600 -12.985500 118.893000 -9.324000 4.770000
-60.143100 -12.624100 156.874000 -9.679200 7.850000
-5.431880 2.588920 176.135000 -10.478400 5.300000
-5.445170 2.595250 176.566000 -10.478400 5.750000
-5.458450 2.601580 176.997000 -10.478400 5.860000
-4.521880 1.535530 180.484000 -10.478400 4.090000
5.335190 -0.344661 3.632330 -6.127200 1.550000
6.327310 -3.299730 6.877420 -8.347200 9.650000
6.733170 -3.413020 7.068550 -8.258400 4.670000
6.758970 -1.664490 9.854690 -8.791200 9.810000
6.420580 0.829589 10.181200 -9.057600 7.730000
6.648440 0.897768 10.542500 -9.057600 7.760000
6.771170 1.396560 10.922800 -9.146400 7.720000
7.081250 1.484170 11.228800 -9.146400 4.390000
-8.841440 1.235050 10.508800 -7.903200 2.780000
6.124030 1.775480 12.226000 -9.590400 5.760000
-8.476410 1.273640 11.345800 -8.347200 6.420000
-9.117740 1.273640 10.837200 -7.903200 4.500000
6.817620 1.672820 12.859300 -9.590400 9.430000
6.322490 1.675680 13.589300 -9.679200 11.230000
-8.331920 1.580450 12.989100 -8.702400 9.510000
6.422230 1.723550 14.015000 -9.679200 4.640000
-8.566030 1.575290 13.354000 -8.702400 6.330000
7.046590 0.899397 14.273200 -9.590400 4.380000
-7.851620 1.145430 13.828600 -9.057600 7.350000
6.810390 0.923705 14.862000 -9.679200 6.560000
-9.162390 1.103640 14.044400 -8.702400 4.160000
6.638040 0.805281 15.417500 -9.856800 4.730000
-8.499730 1.207340 14.446700 -8.968800 4.170000
-9.397320 1.131940 14.404500 -8.702400 5.220000
6.807200 0.879170 15.810400 -9.856800 4.540000
-9.632260 1.160240 14.764600 -8.702400 7.870000
13.718500 1.854300 10.976500 -6.926400 6.790000
7.226350 0.901150 16.096200 -9.768000 4.680000
-8.654710 1.676740 15.805500 -9.146400 7.020000
7.325180 -0.444065 17.013400 -9.945600 10.290000
6.785150 -0.454392 17.698100 -10.034400 3.740000
6.410360 -0.043978 17.843000 -9.856800 7.200000
8.232490 1.595960 17.004300 -9.501600 7.750000
7.497660 -0.043978 17.414100 -9.856800 6.040000
6.012180 -1.704780 19.264000 -10.212000 7.390000
7.773600 0.367793 19.163300 -9.945600 12.210000
5.879890 -1.777320 20.200800 -10.212000 12.630000
7.118760 -1.582040 19.814800 -9.945600 10.530000
5.730450 -1.348430 20.725100 -10.300800 11.580000
6.807370 1.765200 20.820300 -10.123200 9.720000
6.818020 1.799810 21.268300 -10.123200 8.660000
-8.295330 0.935252 20.793700 -9.679200 9.150000
6.945540 1.975190 21.666100 -10.212000 9.070000
-8.454860 0.953237 21.193600 -9.679200 8.920000
7.072650 2.155800 22.062600 -10.212000 8.130000
7.030220 2.195730 22.526000 -10.212000 8.470000
-8.775000 0.915972 21.996100 -9.679200 7.320000
7.497020 0.360803 23.386400 -10.212000 4.900000
7.628540 0.367133 23.796700 -10.212000 8.730000
7.760070 0.373463 24.206900 -10.212000 7.590000
7.891600 0.379793 24.617200 -10.212000 10.320000
4.925210 -1.563950 25.771900 -10.389600 7.920000
6.907470 -1.672050 25.753200 -10.212000 9.930000
5.236620 9.020840 25.528900 -10.300800 7.750000
8.756670 9.161790 24.977200 -10.300800 18.460000
7.208660 0.000000 27.510600 -10.300800 8.470000
7.102420 0.000000 27.983000 -10.300800 4.370000
6.658830 -0.521040 28.529800 -10.389600 8.350000
6.754910 -0.873429 28.941400 -10.389600 10.500000
6.853390 -0.792838 29.363400 -10.389600 5.970000
7.350250 -1.087880 29.677900 -10.389600 8.300000
4.812130 -2.037490 30.581500 -10.389600 4.320000
4.875770 -2.356920 30.986000 -10.389600 4.540000
18.409300 1.798790 25.973400 -8.791200 8.470000
4.942570 -2.389210 31.410500 -10.389600 5.450000
18.658000 1.823100 26.324400 -8.791200 12.200000
5.009360 -2.421490 31.834900 -10.389600 5.070000
18.906800 1.847410 26.675400 -8.791200 11.090000
18.318700 1.692400 27.612100 -8.968800 6.600000
5.668760 -1.091250 33.110700 -10.389600 8.860000
18.338300 1.792240 28.109400 -9.057600 10.560000
18.573400 1.815210 28.469800 -9.057600 10.280000
-6.455440 2.370250 33.779100 -10.300800 7.160000
18.808500 1.838190 28.830200 -9.057600 7.030000
-7.193890 2.399880 34.069100 -10.300800 5.520000
7.860300 0.000000 34.890200 -10.389600 7.260000
7.293010 -0.836513 39.395600 -10.389600 8.920000
8.900080 -0.845508 39.505600 -10.389600 20.210000
-6.904920 1.202550 40.331000 -10.389600 8.230000
-6.663280 1.215210 40.808100 -10.389600 7.930000
19.058600 1.798560 38.604200 -9.679200 5.260000
19.249200 1.816550 38.990200 -9.679200 8.600000
-24.186400 -4.207400 36.456500 -8.613600 9.450000
19.439800 1.834530 39.376300 -9.679200 5.720000
19.630400 1.852520 39.762300 -9.679200 7.250000
19.197200 2.008970 40.443700 -9.768000 8.190000
19.381700 2.028290 40.832600 -9.768000 8.660000
19.566300 2.047600 41.221500 -9.768000 7.750000
19.750900 2.066920 41.610300 -9.768000 8.750000
19.538400 2.504540 42.637800 -9.768000 6.600000
19.720000 2.417720 43.034200 -9.768000 15.300000
19.899300 2.439700 43.425400 -9.768000 13.550000
19.574000 2.483660 44.514800 -9.856800 6.420000
19.747200 2.505640 44.908800 -9.856800 8.900000
19.923500 2.374550 45.309700 -9.856800 10.630000
-26.785800 -0.904158 43.209200 -8.880000 5.510000
19.814300 2.436490 46.763100 -9.856800 10.690000
-26.676200 -0.911821 43.782300 -8.880000 6.640000
19.982300 2.457140 47.159400 -9.856800 11.130000
-26.338000 -0.911821 43.986600 -8.968800 12.790000
-11.247200 2.194240 51.305600 -11.899200 5.460000
-11.339400 2.212230 51.726200 -11.899200 8.810000
-11.430100 2.395310 52.139700 -11.899200 10.290000
-11.522300 2.414630 52.560200 -11.899200 12.710000
10.351600 0.980782 54.166200 -10.389600 8.250000
10.433000 0.816555 54.592100 -10.389600 6.950000
10.514300 0.649655 55.017600 -10.389600 7.520000
-24.597700 0.000000 50.806700 -9.412800 7.330000
20.343500 2.374100 53.063200 -10.034400 5.860000
-25.473700 0.000000 50.855600 -9.412800 6.360000
20.497700 2.392090 53.465200 -10.034400 5.810000
-23.867500 -1.373500 52.085100 -9.501600 11.840000
20.538000 2.446040 54.831100 -10.034400 10.950000
20.513400 2.398180 58.511600 -10.123200 10.520000
20.658200 2.221730 58.924700 -10.123200 13.660000
20.800700 2.237060 59.331000 -10.123200 6.840000
20.943200 2.252380 59.737400 -10.123200 8.620000
20.732700 2.661870 60.250300 -10.123200 13.690000
20.869900 2.878240 60.649200 -10.123200 6.420000
20.541600 2.697840 61.224600 -10.123200 6.910000
20.678500 2.715830 61.632700 -10.123200 9.400000
20.818000 2.531410 62.048600 -10.123200 6.060000
20.957400 2.344310 62.464000 -10.123200 8.910000
21.094400 2.359630 62.872300 -10.123200 8.520000
21.231400 2.374960 63.280500 -10.123200 8.520000
21.368300 2.390280 63.688800 -10.123200 7.330000
20.633900 2.823740 64.365900 -10.123200 7.070000
20.765300 2.841730 64.775900 -10.123200 7.270000
20.896800 2.859710 65.185800 -10.123200 8.100000
21.028200 2.877700 65.595800 -10.123200 15.160000
21.540800 2.895680 65.882400 -10.123200 19.520000
20.778500 2.913670 66.577900 -10.212000 19.300000
-2.705100 1.846180 70.160300 -10.478400 14.390000
20.911800 2.497530 67.004900 -10.123200 9.910000
21.040100 2.512860 67.416000 -10.123200 14.560000
21.851600 2.253190 73.487100 -10.212000 6.820000
21.544800 2.504280 74.018600 -10.212000 8.320000
22.095000 2.518270 74.305700 -10.212000 14.270000
22.217800 2.532260 74.718500 -10.212000 7.610000
22.155300 2.185970 80.128400 -10.300800 5.880000
22.271400 2.003450 80.548300 -10.300800 8.540000
-17.533900 -1.771970 83.037800 -10.212000 5.850000
-18.265700 -1.780960 83.321000 -10.300800 5.870000
23.303300 2.299230 84.280200 -10.300800 16.000000
22.384100 2.117050 85.425100 -10.300800 12.580000
22.989100 2.127380 85.710400 -10.300800 6.050000
23.100700 2.137710 86.126500 -10.300800 5.600000
-12.854400 2.378510 89.539700 -10.389600 5.700000
23.040800 1.897900 87.931500 -10.300800 5.570000
22.678800 2.210000 89.353000 -10.300800 8.830000
22.786400 1.933870 89.776700 -10.300800 10.190000
22.892400 1.942870 90.194300 -10.300800 7.820000
22.999700 1.662730 90.617300 -10.300800 7.680000
23.092600 2.525760 93.240400 -10.300800 6.160000
23.737200 2.537080 93.522900 -10.300800 6.730000
-14.021300 1.144390 97.668100 -10.389600 5.680000
-14.205400 -0.850223 98.950700 -10.389600 10.140000
21.085000 1.835670 123.156000 -10.478400 9.620000
21.157700 1.842000 123.580000 -10.478400 5.900000
20.274000 1.848330 124.165000 -10.478400 13.250000
-54.789100 -13.302100 117.762000 -9.324000 15.390000
-54.970000 -13.346000 118.150000 -9.324000 9.680000
-55.817100 -18.131100 117.593000 -9.324000 7.150000
-55.899400 -19.804600 117.766000 -9.324000 5.230000
-56.082000 -19.869400 118.151000 -9.324000 5.650000
-55.108200 -9.273620 122.750000 -9.412800 6.470000
22.770600 4.213370 158.613000 -10.478400 6.420000
22.831800 4.224690 159.040000 -10.478400 7.490000
22.893000 4.236020 159.466000 -10.478400 5.830000
-4.424620 2.048910 176.602000 -10.567200 4.940000
-4.435410 2.053910 177.032000 -10.567200 8.530000
-4.510770 2.645890 180.040000 -10.478400 7.690000
-4.521880 1.535530 180.484000 -10.478400 8.240000
6.816100 -1.085440 7.701380 -8.169600 6.490000
6.632920 0.998057 8.429420 -8.613600 10.570000
7.100100 -1.130670 8.022270 -8.169600 5.480000
6.128990 1.614200 9.238290 -9.057600 6.900000
6.290590 1.676290 9.642380 -9.057600 4.070000
6.500220 0.792359 10.133500 -9.146400 7.810000
6.732370 0.820657 10.495400 -9.057600 9.170000
6.970500 0.659378 10.866700 -9.057600 7.780000
7.124880 1.629320 13.192200 -9.501600 3.730000
-8.128100 1.628160 13.111700 -8.880000 2.520000
6.911280 1.624350 14.275300 -9.679200 4.450000
-8.353880 1.673390 13.476000 -8.880000 6.620000
6.367590 1.315240 15.027900 -9.856800 4.170000
-8.143490 1.819310 14.088600 -8.968800 6.840000
7.310000 0.999899 15.098900 -9.768000 3.550000
-8.468990 1.867180 14.394500 -8.968800 6.850000
7.496020 1.078740 15.483100 -9.679200 7.880000
-9.164310 1.384470 14.532000 -8.791200 6.450000
6.950120 1.799950 16.142300 -9.856800 3.490000
7.119640 1.843850 16.536100 -9.768000 6.450000
-7.906390 1.830740 16.656800 -9.412800 6.360000
6.884170 -0.732777 17.650400 -10.034400 9.510000
-7.958660 1.873320 17.106000 -9.412800 4.570000
6.936160 -0.749431 18.092000 -10.123200 12.790000
6.952500 -0.168579 18.561300 -10.123200 12.720000
8.836420 -1.897460 17.641000 -9.501600 4.720000
-9.251610 1.668510 17.450300 -9.235200 10.800000
5.105080 -2.125660 19.482700 -10.300800 8.430000
8.644490 -1.938700 18.211800 -9.590400 4.300000
5.211980 -2.234490 19.890600 -10.300800 11.230000
5.046210 -2.281040 20.374900 -10.300800 9.080000
6.937250 1.937920 21.217500 -10.212000 4.050000
6.945540 1.975190 21.666100 -10.212000 8.790000
-8.275170 1.711190 21.216800 -9.768000 4.420000
7.076590 2.012460 22.074900 -10.212000 2.770000
-8.601490 1.599920 21.561100 -9.768000 5.180000
6.907300 1.903640 22.590500 -10.212000 6.110000
-8.775000 0.915972 21.996100 -9.768000 5.300000
6.409930 1.938250 23.182600 -10.300800 6.720000
7.629600 0.721529 23.335100 -10.212000 4.600000
7.628160 0.444417 23.795500 -10.212000 4.880000
7.760070 0.373463 24.206900 -10.212000 3.370000
7.891600 0.379793 24.617200 -10.212000 10.250000
8.142150 -2.111310 24.902700 -10.300800 18.310000
6.663970 1.782810 26.255600 -10.389600 7.530000
5.326970 1.321490 27.025900 -10.389600 4.300000
4.507670 1.428650 27.606400 -10.389600 5.180000
7.199270 1.450630 27.474800 -10.300800 8.170000
8.461680 1.450630 27.112600 -10.300800 6.290000
6.720100 -1.026590 28.058500 -10.389600 5.780000
6.820400 -1.041920 28.477300 -10.389600 7.810000
-7.423190 -0.951348 28.329300 -10.212000 7.690000
6.530330 -1.057240 28.986800 -10.389600 8.270000
-7.532350 -0.965339 28.745900 -10.212000 7.680000
6.851430 -1.072560 29.355000 -10.389600 5.570000
4.926500 -1.182440 30.171500 -10.478400 5.520000
5.220740 -2.324630 30.493900 -10.478400 8.160000
6.722570 -1.968710 30.665800 -10.389600 9.050000
8.161600 0.487401 32.156100 -10.389600 8.490000
18.547900 1.999800 27.957500 -9.057600 6.200000
18.785700 2.025440 28.315900 -9.057600 7.790000
7.112660 -1.758340 33.684400 -10.389600 6.290000
19.019900 2.157490 28.668900 -9.057600 5.420000
7.207840 -1.025330 34.135100 -10.389600 5.950000
6.832290 -0.519050 34.663100 -10.478400 5.230000
7.186580 -0.082958 35.035100 -10.478400 5.970000
7.954980 -0.083957 35.310500 -10.389600 8.370000
6.978610 -0.991400 40.761400 -10.478400 7.290000
19.273700 1.873750 37.040900 -9.590400 7.530000
-22.919900 -4.214960 35.731100 -8.702400 11.280000
19.053300 2.064820 38.593500 -9.679200 6.530000
-23.151400 -4.257540 36.092000 -8.702400 14.200000
19.243800 2.085470 38.979400 -9.679200 12.710000
-23.663200 -4.300110 36.271600 -8.702400 7.520000
19.434400 2.106120 39.365300 -9.679200 9.530000
-26.825100 1.698710 34.774800 -8.258400 6.560000
19.624900 2.126770 39.751300 -9.679200 9.540000
-27.088100 1.715370 35.115800 -8.258400 15.970000
19.194400 2.147420 40.437900 -9.768000 10.110000
-27.080100 1.593520 35.670500 -8.347200 18.780000
19.379000 2.168060 40.826700 -9.768000 8.520000
-27.062100 1.608840 36.223200 -8.258400 13.340000
19.563500 2.188710 41.215500 -9.768000 9.990000
19.748100 2.209360 41.604400 -9.768000 15.730000
-6.039740 2.250660 46.523700 -10.478400 8.380000
19.540800 2.395740 42.643000 -9.856800 13.940000
19.723100 2.271310 43.040800 -9.856800 13.320000
19.902400 2.291950 43.432000 -9.856800 6.890000
19.579800 2.182820 44.528000 -9.856800 6.780000
19.753100 2.202140 44.922100 -9.856800 6.600000
19.923500 2.374550 45.309700 -9.856800 13.060000
19.743800 2.194240 48.671900 -9.945600 9.990000
-11.636700 2.375990 51.652800 -11.988000 7.670000
20.067500 2.230220 49.469800 -10.034400 6.050000
-11.827500 2.248200 52.499800 -11.988000 8.910000
-12.329600 2.266190 52.826300 -12.076800 11.800000
10.352100 0.810225 54.168900 -10.478400 5.620000
10.433000 0.816555 54.592100 -10.478400 6.510000
10.514300 0.649655 55.017600 -10.478400 10.100000
10.595100 0.654652 55.440800 -10.478400 11.240000
-23.691100 -1.011430 51.700100 -9.501600 7.540000
-23.869200 -1.196300 52.088700 -9.590400 14.860000
20.570600 1.435460 56.233600 -10.123200 5.240000
20.868000 1.268260 57.046600 -10.123200 14.290000
20.683500 1.277260 57.571800 -10.123200 8.670000
26.419800 -0.905173 55.660000 -9.768000 6.050000
20.513400 2.398180 58.511600 -10.123200 7.550000
20.655800 2.414830 58.917900 -10.123200 5.780000
20.798300 2.431490 59.324200 -10.123200 6.880000
20.943200 2.252380 59.737400 -10.123200 7.810000
20.737600 2.267700 60.264700 -10.212000 7.450000
18.173700 1.134030 61.118300 -9.146400 7.530000
20.863700 3.274910 60.631200 -10.123200 6.820000
18.297400 0.943152 61.534400 -9.146400 8.580000
21.003800 3.296890 61.038100 -10.123200 8.250000
21.143800 3.318870 61.445100 -10.123200 6.710000
21.290100 2.936190 61.870300 -10.123200 9.870000
20.955000 2.548070 62.456800 -10.212000 6.990000
21.092000 2.564720 62.865100 -10.212000 13.850000
21.231400 2.374960 63.280500 -10.212000 13.440000
21.368300 2.390280 63.688800 -10.212000 8.540000
21.010700 2.405600 64.260900 -10.212000 8.100000
20.767900 2.631340 64.783900 -10.212000 14.690000
21.273200 2.859710 65.063900 -10.212000 18.760000
-4.380900 0.159918 68.804500 -10.567200 13.890000
20.524500 2.664650 65.764100 -10.212000 8.830000
20.657400 2.252460 66.189700 -10.212000 7.410000
-9.092010 2.512860 70.035200 -10.478400 7.480000
21.422100 2.727370 73.597400 -10.300800 17.010000
21.542500 2.742690 74.010800 -10.300800 14.310000
21.662800 2.758010 74.424300 -10.300800 8.360000
21.780700 3.014380 74.829200 -10.300800 14.950000
21.990300 0.721957 81.986300 -10.300800 13.030000
21.732800 1.259650 82.939800 -10.300800 16.380000
21.723800 2.321880 85.590100 -10.300800 5.990000
21.829700 2.333210 86.007600 -10.389600 14.870000
21.929400 3.171720 86.400400 -10.389600 5.870000
22.254900 2.168690 87.682800 -10.389600 7.510000
22.362400 1.897900 88.106500 -10.389600 6.900000
22.680400 1.924880 89.359200 -10.389600 13.300000
22.784800 2.220320 89.770500 -10.389600 14.470000
22.890800 2.230650 90.188000 -10.389600 11.350000
22.376200 2.005830 93.427500 -10.389600 9.740000
22.476500 2.014830 93.846500 -10.389600 9.930000
22.575300 2.323590 94.258900 -10.389600 7.120000
-26.366000 2.848140 93.255100 -10.123200 6.660000
-26.485500 2.559730 93.677600 -10.123200 5.660000
-26.602700 2.571060 94.092100 -10.123200 5.850000
21.086500 1.062780 123.164000 -10.478400 9.750000
21.159200 1.066440 123.589000 -10.478400 6.260000
21.231300 1.459220 124.010000 -10.478400 4.660000
20.343500 1.854660 124.590000 -10.567200 8.990000
-54.810300 -19.739900 117.807000 -9.324000 9.220000
-54.990000 -19.804600 118.194000 -9.324000 5.480000
-55.169800 -19.869400 118.580000 -9.324000 5.830000
22.774900 2.850400 158.643000 -10.567200 4.740000
22.834700 3.355050 159.060000 -10.567200 6.360000
22.896000 3.364040 159.486000 -10.567200 6.060000
-58.582600 -22.210800 156.400000 -9.768000 5.440000
-59.939100 -22.267600 156.343000 -9.679200 5.540000
-58.952300 -20.766000 157.387000 -9.679200 5.510000
-59.102300 -20.818800 157.788000 -9.679200 7.980000
-4.522050 0.000000 180.490000 -10.567200 13.280000
-4.532840 0.000000 180.921000 -10.567200 12.140000
-2.264870 1.053280 9.144810 2.397600 6.530000
-2.423050 1.101160 9.546640 2.397600 8.430000
6.245270 -0.291143 7.689850 -8.524800 11.710000
-2.528400 1.149040 9.961710 2.397600 7.060000
6.516810 -0.303802 8.024190 -8.524800 10.370000
-3.405360 1.196910 10.149800 2.397600 6.410000
6.513530 0.091619 8.579760 -8.791200 7.290000
6.932260 -0.316460 8.239560 -8.436000 7.060000
-3.185630 0.770332 10.713300 2.397600 6.020000
-3.306680 0.871738 11.120400 2.397600 8.360000
6.631000 1.303450 9.994990 -9.146400 5.690000
-3.116110 0.941229 11.617800 2.486400 6.600000
6.463890 1.350000 10.608900 -9.412800 7.000000
6.899270 0.637398 10.399300 -9.146400 7.920000
-3.320040 0.974845 12.007500 2.486400 9.390000
6.717400 0.659378 11.024900 -9.412800 6.920000
7.137170 0.659378 10.757900 -9.146400 7.520000
-2.491810 1.038350 12.642000 2.486400 7.880000
-8.329240 1.628160 12.984900 -8.880000 3.480000
-8.457500 1.673390 13.411200 -8.880000 6.310000
6.984870 1.668250 14.715400 -9.856800 5.450000
-8.791980 1.718620 13.706300 -8.880000 5.850000
7.182890 1.349860 15.132600 -9.856800 4.760000
-9.162390 1.103640 14.044400 -8.880000 9.970000
-9.509950 1.078740 14.334500 -8.791200 11.310000
-9.976700 0.996629 14.546200 -8.702400 9.150000
6.104520 -1.244380 16.991700 -10.212000 4.890000
7.502390 1.788170 16.372100 -9.945600 6.070000
-8.191940 1.732460 16.044300 -9.412800 6.330000
7.551600 1.830740 16.820700 -9.945600 6.110000
-8.384450 1.830740 16.421400 -9.412800 9.130000
5.530640 -1.303640 18.088100 -10.300800 5.170000
7.749990 -1.186620 17.262600 -10.034400 8.880000
-8.579440 1.873320 16.803300 -9.501600 9.840000
6.546740 -1.033980 18.222600 -10.123200 4.260000
6.681330 1.546310 18.597200 -10.212000 11.350000
6.846710 0.297504 19.057500 -10.300800 10.930000
6.534240 -2.409290 19.475500 -10.389600 8.380000
7.514810 0.303834 19.267300 -10.212000 6.850000
5.984690 -2.216110 20.126500 -10.389600 8.690000
5.709990 -2.261340 20.651100 -10.478400 10.150000
7.088660 -2.261340 20.219400 -10.300800 5.170000
7.117750 2.103700 20.684600 -10.300800 7.230000
6.931370 2.144950 21.199500 -10.300800 4.440000
-7.547510 1.937920 21.008200 -9.945600 7.170000
7.078920 1.640750 21.650800 -10.300800 6.440000
-7.821790 1.781610 21.382400 -9.945600 7.550000
7.212480 1.671710 22.059300 -10.300800 9.590000
-8.887560 1.743480 21.433600 -9.856800 4.230000
-9.052140 1.775760 21.830500 -9.856800 9.340000
-8.743570 1.808050 22.417800 -9.945600 5.260000
7.315740 0.512702 23.440900 -10.389600 4.300000
7.627700 0.521696 23.794000 -10.389600 9.950000
7.759210 0.530691 24.204300 -10.389600 16.920000
7.890730 0.539686 24.614500 -10.389600 18.300000
6.451080 -1.807320 25.416800 -10.478400 15.170000
7.185300 -3.162190 25.986800 -10.478400 8.620000
6.942630 -3.212380 26.495400 -10.478400 4.880000
-13.584100 1.896200 23.924900 -13.497600 5.300000
-8.547700 0.671260 26.663900 -10.123200 8.060000
-13.799300 1.839400 24.303800 -13.497600 6.330000
-8.679200 0.681588 27.074100 -10.123200 8.410000
-14.011600 1.867700 24.677700 -13.497600 7.350000
6.655670 -1.041920 28.516300 -10.567200 5.080000
6.753550 -1.057240 28.935600 -10.567200 9.830000
4.920510 1.914770 30.134800 -10.567200 5.380000
5.209840 -3.065430 30.430200 -10.567200 6.840000
5.282200 -3.108000 30.852900 -10.656000 5.890000
5.555240 -1.626470 31.356800 -10.567200 5.770000
6.069530 -4.224640 32.786600 -10.567200 8.230000
5.740170 -1.315670 33.527800 -10.567200 6.880000
7.116610 -1.332320 33.703100 -10.567200 4.240000
7.207150 -1.133220 34.131900 -10.567200 7.840000
7.297450 -0.928753 34.559500 -10.567200 6.730000
18.612800 0.737571 30.025000 -9.412800 5.310000
7.655840 -0.940080 34.923000 -10.567200 7.490000
18.839800 0.746565 30.391100 -9.412800 10.030000
18.942500 2.256180 32.771300 -9.501600 7.000000
19.157700 2.281820 33.143700 -9.501600 6.700000
18.806100 2.090940 34.344300 -9.590400 5.690000
8.709610 1.042020 38.660200 -10.567200 6.610000
19.012700 2.113920 34.721700 -9.590400 6.710000
7.292080 1.053340 39.390600 -10.567200 5.280000
19.219400 2.136900 35.099100 -9.590400 6.550000
7.603120 0.093952 39.784500 -10.567200 7.640000
-16.165100 2.182850 37.545200 -11.011200 7.550000
18.868400 2.182850 36.262000 -9.768000 8.050000
-16.627200 2.205830 37.813300 -10.922400 6.840000
7.764890 0.095951 40.631000 -10.567200 6.930000
19.067100 2.205830 36.643700 -9.679200 5.240000
-16.800400 2.228810 38.207200 -10.922400 7.600000
19.268000 2.131990 37.029900 -9.679200 8.700000
19.466600 2.153970 37.411600 -9.679200 8.440000
-22.643900 -4.214960 35.906700 -8.880000 7.520000
19.048100 2.297740 38.582900 -9.856800 12.930000
19.238600 2.320720 38.968700 -9.856800 12.600000
19.429000 2.343690 39.354500 -9.856800 5.480000
-26.825100 1.698710 34.774800 -8.347200 6.700000
19.619500 2.366670 39.740400 -9.856800 6.250000
-27.088100 1.715370 35.115800 -8.347200 6.220000
19.513300 1.732020 40.304900 -9.856800 9.390000
-27.354200 1.593520 35.460800 -8.347200 8.010000
9.346520 0.664638 44.263600 -10.567200 6.230000
19.386800 1.748670 40.843100 -9.856800 14.670000
-27.343400 1.468990 36.017300 -8.347200 10.010000
9.435540 0.670967 44.685200 -10.567200 8.390000
19.571400 1.765330 41.232100 -9.856800 5.890000
19.756000 1.781980 41.621100 -9.856800 13.040000
19.553900 1.670130 42.671500 -9.945600 6.440000
19.731000 1.831940 43.058100 -9.945600 13.250000
19.910400 1.848600 43.449500 -9.945600 9.040000
19.417400 1.443060 45.098900 -10.034400 9.600000
19.587800 1.455720 45.494500 -10.034400 10.980000
19.453300 2.436490 46.914500 -10.034400 7.080000
19.618200 2.457140 47.312000 -10.034400 6.620000
19.955900 2.015140 48.126600 -10.123200 8.230000
19.743800 2.194240 48.671900 -10.123200 6.510000
19.905600 2.212230 49.070800 -10.123200 8.220000
-12.333900 2.212230 51.498100 -12.254400 5.330000
20.067500 2.230220 49.469800 -10.123200 5.360000
-12.835600 2.065100 51.825900 -12.254400 5.050000
-12.536100 2.081750 52.342000 -12.254400 7.500000
-12.636300 2.098410 52.760700 -12.254400 8.490000
20.245100 3.087120 50.747900 -10.123200 6.360000
10.039700 0.298513 54.232900 -10.656000 6.600000
10.117900 0.472753 54.655400 -10.656000 8.850000
10.514800 0.303177 55.020500 -10.656000 8.590000
20.246600 1.250270 56.355400 -10.212000 13.180000
20.392200 1.259270 56.760900 -10.212000 9.380000
20.537900 1.268260 57.166300 -10.212000 16.290000
20.683500 1.277260 57.571800 -10.212000 11.780000
20.513400 2.398180 58.511600 -10.300800 7.180000
20.655800 2.414830 58.917900 -10.300800 9.670000
20.795700 2.625900 59.316800 -10.300800 8.320000
20.938100 2.643880 59.723100 -10.300800 11.820000
20.723700 3.252930 60.224300 -10.300800 6.690000
20.863700 3.274910 60.631200 -10.300800 8.850000
21.003800 3.296890 61.038100 -10.300800 9.820000
21.143800 3.318870 61.445100 -10.300800 7.260000
20.806500 3.340850 62.014200 -10.300800 15.000000
20.955000 2.548070 62.456800 -10.300800 14.690000
21.228900 2.581380 63.273300 -10.300800 7.290000
20.874400 2.598030 63.844300 -10.300800 10.000000
21.136600 3.052090 64.646100 -10.300800 7.590000
21.270400 3.071410 65.055200 -10.300800 6.280000
21.404100 3.090720 65.464400 -10.300800 14.180000
-9.630410 2.731260 69.955000 -10.656000 18.440000
