VERSION .7
FIELDS x y z velocity intensity
SIZE 4 4 4 4 4
TYPE F F F F F
COUNT 1 1 1 1 1
WIDTH 976
HEIGHT 1
VIEWPOINT 0 0 0 1 0 0 0
POINTS 976
DATA ascii
-8.557260 1.018750 12.898500 -9.057600 6.790000
-2.700770 0.970870 15.244600 2.664000 4.150000
-8.794960 1.047050 13.256700 -9.057600 8.500000
7.088190 0.246865 15.235100 -10.212000 9.870000
7.269570 0.306494 15.625000 -10.212000 15.590000
4.540520 -2.220640 16.928400 -10.656000 5.610000
7.451310 0.314157 16.015600 -10.212000 16.820000
-7.782570 1.745590 15.764000 -9.768000 5.700000
4.550940 -2.274810 17.367900 -10.744800 6.520000
7.538090 0.321819 16.450000 -10.212000 13.620000
-8.065600 1.788170 16.102100 -9.768000 5.580000
-8.904030 1.523420 15.682100 -9.501600 5.070000
6.617150 -1.274010 17.259900 -10.478400 8.720000
-8.190670 0.988028 16.590600 -9.768000 7.400000
-9.116030 1.559690 16.055500 -9.501600 4.190000
6.771040 -1.303640 17.661300 -10.478400 4.800000
-8.378230 1.128090 16.970500 -9.856800 6.490000
-8.868250 1.011010 16.727200 -9.679200 5.950000
6.926370 -1.273430 18.066400 -10.478400 6.720000
-1.782780 5.701520 18.447400 -7.192800 4.950000
-7.569090 1.546310 18.253900 -10.123200 6.500000
-7.897060 0.657549 18.637600 -10.123200 5.520000
-1.860230 6.014760 19.248800 -7.192800 7.600000
7.087180 -1.485960 19.374200 -10.567200 6.490000
-8.466680 0.671540 18.858900 -10.034400 7.040000
7.387050 -1.516920 19.721500 -10.478400 4.440000
-8.640090 0.881295 19.245200 -10.034400 8.160000
7.107990 -1.614330 20.274600 -10.567200 9.260000
-7.967590 1.348430 19.972100 -10.212000 6.240000
6.542200 -0.849356 20.962300 -10.656000 9.700000
-8.128480 1.307560 20.375400 -10.212000 7.550000
5.675300 -0.866010 21.658800 -10.744800 9.410000
-8.128960 1.264020 20.842000 -10.300800 8.110000
4.247690 -3.080670 22.226700 -10.833600 8.690000
-7.235150 2.045550 21.564500 -10.389600 6.540000
6.144360 -3.138800 22.222100 -10.833600 4.890000
-7.200070 2.155800 22.021300 -10.389600 8.230000
6.125100 1.629550 22.836200 -10.744800 5.280000
-7.203630 2.195730 22.471200 -10.389600 8.500000
-7.166180 1.613020 23.437200 -10.478400 4.910000
-7.746740 1.795540 23.693300 -10.478400 9.410000
6.773270 0.609298 24.496600 -10.744800 5.570000
5.181710 -1.857450 25.261200 -10.833600 5.520000
-6.867780 2.076700 24.838500 -10.567200 9.550000
7.032650 -0.062968 26.219900 -10.833600 6.530000
7.349360 -0.063967 26.580200 -10.833600 12.310000
7.620030 -0.151589 26.951600 -10.833600 10.430000
7.578940 -0.153921 27.410500 -10.833600 12.450000
8.349690 5.078380 28.080100 -10.744800 6.700000
7.920260 5.151980 28.644900 -10.833600 4.650000
-7.752090 0.804164 29.584500 -10.656000 4.650000
7.863460 0.359809 30.009600 -10.833600 5.280000
-7.861270 0.815491 30.001200 -10.656000 5.050000
7.972680 0.364806 30.426400 -10.833600 7.530000
-7.970460 0.826817 30.417900 -10.656000 10.520000
6.828030 -0.073962 31.146900 -10.922400 7.750000
18.205300 1.897250 26.109800 -9.324000 10.350000
7.102660 -0.074962 31.527200 -10.922400 9.360000
18.451300 1.922880 26.462700 -9.324000 7.210000
7.872320 -0.379798 31.785800 -10.833600 8.710000
18.697300 1.948520 26.815500 -9.324000 9.710000
-14.676900 1.282360 29.728900 -13.941600 14.030000
7.819350 1.610560 32.648300 -10.833600 6.540000
-16.795200 1.315670 29.580200 -10.922400 13.650000
-17.007700 1.332320 29.954600 -10.922400 10.060000
-18.146500 0.846821 30.306200 -10.833600 5.040000
18.587600 1.713800 30.507000 -9.679200 6.990000
-7.271100 0.867475 35.447100 -10.833600 4.900000
18.811600 1.734450 30.874500 -9.679200 5.390000
-7.358980 0.538040 35.875600 -10.833600 7.100000
19.035500 1.755100 31.242100 -9.679200 9.830000
7.655250 0.544370 36.254000 -10.922400 9.080000
19.259500 1.775750 31.609600 -9.679200 13.400000
9.009230 0.985385 36.376300 -10.833600 7.990000
18.746500 1.448900 32.432100 -9.856800 12.580000
9.111130 1.231160 36.787700 -10.833600 7.240000
18.961900 1.465550 32.804900 -9.856800 7.340000
19.175000 1.600720 33.173600 -9.856800 9.390000
19.390500 1.618700 33.546300 -9.856800 13.540000
18.792200 2.575170 34.319000 -9.945600 5.550000
19.002500 2.481110 34.703000 -9.945600 13.250000
19.209100 2.508080 35.080200 -9.945600 5.980000
19.415600 2.535050 35.457400 -9.945600 8.420000
18.873600 1.961580 36.271900 -10.034400 11.320000
19.069400 2.110010 36.648100 -10.034400 16.720000
19.268000 2.131990 37.029900 -10.034400 17.070000
19.466600 2.153970 37.411600 -10.034400 12.790000
19.276100 2.064820 38.482700 -10.123200 7.530000
19.468800 2.085470 38.867500 -10.123200 14.180000
-12.948900 2.219910 41.490600 -13.142400 15.630000
19.661600 2.106120 39.252300 -10.123200 12.570000
-13.077100 2.241880 41.901400 -13.142400 10.570000
-13.209300 1.989650 42.324700 -13.231200 13.130000
19.191500 2.285840 40.431700 -10.212000 7.120000
-13.337500 2.008970 42.735600 -13.231200 11.310000
19.376000 2.307820 40.820500 -10.212000 12.180000
19.560500 2.329800 41.209200 -10.212000 9.390000
19.750900 2.066920 41.610300 -10.212000 7.200000
8.730000 1.654810 45.681100 -10.922400 12.000000
9.702580 0.689957 45.949800 -10.922400 6.450000
9.791990 0.549708 46.373300 -10.922400 7.140000
10.241400 0.554705 46.717300 -10.922400 6.290000
19.746100 2.163510 43.983100 -10.300800 11.940000
19.922400 2.182820 44.375800 -10.300800 16.020000
19.753100 2.202140 44.922100 -10.300800 7.680000
20.275000 2.221460 45.161200 -10.300800 14.820000
9.374420 2.086330 49.053100 -10.922400 8.490000
9.455230 2.104320 49.476000 -10.922400 16.430000
19.654300 1.948520 46.385500 -10.389600 10.840000
8.192030 1.061380 50.170700 -11.011200 13.600000
19.822300 1.965180 46.781900 -10.389600 10.940000
7.967830 1.347820 50.636300 -11.011200 7.870000
19.990300 1.981830 47.178400 -10.389600 8.980000
8.099420 1.854000 51.472600 -10.922400 6.940000
19.592300 1.370480 48.298300 -10.389600 12.240000
19.754200 1.381800 48.697500 -10.389600 6.540000
19.916100 1.393130 49.096700 -10.389600 11.060000
20.070000 2.065100 49.475900 -10.389600 7.110000
7.038140 2.453260 54.214300 -11.011200 6.900000
19.867700 2.284170 50.939200 -10.478400 10.830000
6.777580 2.472580 54.681300 -11.011200 11.070000
20.026700 2.131720 51.346700 -10.478400 7.270000
20.189400 2.356110 52.661200 -10.478400 5.850000
20.343500 2.374100 53.063200 -10.478400 10.190000
-23.056300 -1.860720 52.434200 -10.034400 7.810000
-22.819400 -2.053190 53.000300 -10.123200 8.320000
20.398900 1.394160 54.459700 -10.567200 9.020000
20.550000 1.404480 54.863100 -10.567200 7.610000
18.639900 0.498407 55.556700 -9.501600 7.600000
20.701100 1.414810 55.266500 -10.567200 7.800000
20.852200 1.425140 55.670000 -10.567200 14.970000
20.238200 2.129800 56.332100 -10.567200 14.080000
-4.287910 3.961790 60.042900 -11.011200 7.690000
20.381400 2.331560 56.730800 -10.567200 8.340000
-4.318540 3.990090 60.471700 -11.100000 8.180000
20.527000 2.348220 57.136100 -10.567200 9.640000
-4.349170 4.018390 60.900600 -11.100000 7.250000
20.672600 2.364870 57.541300 -10.567200 15.150000
20.658200 2.221730 58.924700 -10.567200 4.420000
20.739800 2.070580 60.271000 -10.656000 6.330000
20.879900 2.084570 60.678200 -10.656000 5.840000
21.020100 2.098560 61.085500 -10.656000 6.000000
-31.043200 0.000000 56.692200 -9.590400 6.780000
21.162200 1.911420 61.498600 -10.656000 10.860000
-30.919700 0.000000 57.249800 -9.679200 14.140000
-30.431300 0.152922 58.484000 -9.679200 12.750000
-18.899300 -2.564720 63.558600 -10.478400 6.030000
-20.515900 1.403180 63.997700 -10.478400 5.370000
-20.649700 0.993791 64.415100 -10.478400 7.160000
-19.771900 -0.804572 66.492900 -10.567200 7.020000
-18.012100 -2.308420 68.740300 -10.656000 7.940000
-18.121300 -2.322410 69.156900 -10.656000 5.500000
-18.232200 -2.113950 69.580200 -10.656000 8.510000
-19.689500 -1.734950 69.640500 -10.567200 9.040000
-19.401400 -1.745280 70.168400 -10.567200 7.470000
21.542700 1.082410 70.456100 -10.744800 6.930000
21.363600 1.796910 71.846100 -10.744800 10.140000
21.487900 1.574080 72.264000 -10.744800 9.490000
21.613100 1.114060 72.684900 -10.744800 7.360000
21.435600 0.177909 73.643800 -10.744800 6.020000
21.556100 0.178909 74.057500 -10.744800 11.010000
21.447500 1.889860 75.858400 -10.744800 11.050000
21.564700 1.900180 76.272900 -10.744800 6.280000
21.457900 3.114300 77.606200 -10.833600 5.580000
22.025900 2.880590 77.904100 -10.833600 6.230000
22.140500 3.147610 78.309500 -10.833600 7.640000
-11.796900 -4.948220 82.173900 -10.922400 6.750000
22.765900 2.106720 84.878300 -10.833600 5.410000
22.880500 1.570780 85.305300 -10.833600 6.310000
22.993200 1.303960 85.725800 -10.833600 7.700000
-27.224600 1.586110 84.925200 -10.478400 7.270000
22.708400 2.632950 86.662800 -10.833600 5.500000
-27.356200 1.593770 85.335400 -10.478400 6.550000
-27.487700 1.601430 85.745700 -10.478400 9.710000
19.777100 1.359280 115.516000 -11.011200 8.230000
19.849800 1.364270 115.941000 -11.011200 5.750000
19.920700 2.099490 116.355000 -11.011200 6.330000
-55.169100 -11.385600 113.952000 -9.856800 5.590000
-55.356100 -11.424200 114.338000 -9.856800 5.060000
-55.494400 -12.644900 114.624000 -9.768000 6.030000
31.093200 1.684100 141.835000 -10.922400 6.600000
31.185500 1.689100 142.256000 -10.922400 6.210000
31.277700 1.694100 142.677000 -10.922400 9.890000
22.482600 2.234450 150.420000 -11.011200 9.390000
21.674000 2.240780 150.974000 -11.011200 5.060000
22.610000 2.247110 151.273000 -11.011200 6.630000
-60.232800 -12.538500 148.484000 -10.123200 7.430000
-60.394300 -12.572100 148.882000 -10.123200 6.940000
-60.555800 -12.605800 149.280000 -10.123200 8.500000
-6.490720 1.953960 168.345000 -11.100000 9.320000
-6.507320 1.958960 168.776000 -11.100000 6.160000
-6.523920 1.963960 169.207000 -11.100000 5.590000
-5.299630 0.398796 171.847000 -11.100000 8.580000
-5.312920 0.399796 172.278000 -11.100000 7.260000
-5.326210 0.000000 172.709000 -11.100000 6.530000
-47.563000 -12.083500 177.329000 -10.567200 7.530000
6.581620 1.306520 7.293640 -8.258400 10.290000
6.867780 1.363320 7.610760 -8.258400 2.780000
6.364180 1.305030 9.127450 -9.057600 8.830000
5.894500 -0.597412 9.508630 -9.412800 7.280000
6.608950 1.355220 9.478510 -9.057600 6.450000
5.658200 -0.620389 10.146800 -9.590400 4.860000
6.045660 -0.593440 9.922440 -9.324000 4.570000
7.004430 1.405420 9.722750 -8.968800 10.390000
5.725310 -0.643367 10.600800 -9.679200 5.950000
7.216540 -0.637398 10.181700 -8.968800 3.710000
-8.773780 1.396560 9.390300 -7.814400 12.170000
5.930500 -0.637398 10.980700 -9.679200 7.910000
6.665420 -0.106278 10.569500 -9.235200 5.010000
-8.351910 1.356800 9.773030 -8.080800 10.690000
5.448970 -0.499621 11.711800 -9.945600 10.230000
5.723710 -0.516275 12.058400 -9.945600 8.600000
-8.134510 1.235050 11.065100 -8.524800 8.300000
-8.575470 1.235050 10.726900 -8.258400 7.960000
4.974480 -1.648540 12.754100 -10.034400 5.940000
-8.563610 1.273640 11.280200 -8.436000 6.200000
5.412870 -1.579920 13.053900 -9.945600 8.300000
-8.831720 1.142920 11.633300 -8.436000 9.270000
6.720660 -1.627800 12.916000 -9.768000 6.390000
13.212600 1.624350 8.773660 -5.505600 9.290000
6.826620 1.443720 13.370300 -9.768000 8.610000
-8.339480 1.437200 13.000900 -8.968800 4.340000
13.569700 1.668250 9.010780 -5.505600 2.670000
7.127450 1.484970 13.697800 -9.768000 7.870000
-8.364150 1.477130 13.492500 -9.057600 3.760000
6.275910 1.526210 14.576400 -9.945600 5.090000
-7.857420 0.683453 14.349500 -9.324000 5.430000
-8.590210 1.517050 13.857200 -9.057600 3.010000
6.447420 1.517050 14.974800 -10.034400 3.490000
-8.177470 0.701439 14.664500 -9.324000 6.400000
-8.925610 1.556970 14.153500 -9.057600 7.250000
6.617090 1.556970 15.368800 -10.034400 4.850000
-8.358350 1.596890 14.988900 -9.324000 8.440000
6.601700 0.146590 15.920900 -10.123200 8.790000
-7.590380 1.756050 15.374700 -9.590400 5.290000
-8.680310 1.745590 15.288100 -9.324000 8.570000
7.359510 0.150255 16.060300 -9.945600 5.810000
-7.321480 1.799950 15.977300 -9.679200 7.990000
7.411750 0.209888 16.509200 -10.034400 6.600000
-7.519800 1.300220 16.410100 -9.679200 9.510000
7.457730 0.214886 16.960200 -10.034400 6.080000
7.457730 0.214886 16.960200 -10.034400 15.880000
7.631160 0.219883 17.354600 -10.034400 16.930000
4.864750 1.362900 19.166800 -10.478400 7.970000
4.857220 1.392520 19.611800 -10.567200 5.660000
7.495630 -0.970467 18.789100 -10.212000 6.620000
5.083180 -0.927217 20.027400 -10.478400 6.930000
17.629800 1.414930 12.303500 -6.571200 7.180000
5.189080 -0.946534 20.444600 -10.478400 6.950000
-7.547610 1.125890 19.686800 -10.034400 4.580000
-8.486820 1.125890 19.300600 -9.856800 7.720000
17.836100 1.443220 12.756600 -6.571200 5.530000
6.570430 -0.965851 20.495900 -10.389600 9.430000
-7.817630 1.148870 20.043700 -9.945600 5.710000
7.702720 -0.849356 20.564200 -10.212000 8.080000
-8.131320 1.171850 20.382600 -9.945600 6.220000
7.691920 -0.866010 21.027300 -10.212000 9.900000
6.081660 -0.882664 21.995300 -10.478400 9.760000
7.839840 -0.882664 21.431700 -10.212000 7.550000
7.225760 -0.899318 22.099900 -10.478400 11.210000
7.362530 -0.622944 22.518200 -10.389600 5.690000
5.156010 -1.584720 23.519800 -10.656000 7.030000
7.672880 -0.634270 22.869200 -10.389600 9.530000
6.604930 -3.218060 23.887800 -10.478400 6.130000
17.950200 1.378640 18.555800 -7.992000 7.570000
18.249400 1.401620 18.865100 -7.992000 4.540000
7.618590 -3.465110 24.916800 -10.389600 5.240000
18.548600 1.424600 19.174300 -7.992000 7.270000
7.447070 -1.919370 25.585000 -10.478400 4.130000
17.784300 2.034050 20.408900 -8.347200 6.730000
5.802770 -1.615220 26.470000 -10.567200 8.840000
18.074600 1.896200 20.742100 -8.347200 9.260000
18.360900 1.839400 21.070600 -8.347200 8.930000
6.366050 -0.064967 27.275400 -10.656000 10.180000
18.643400 1.867700 21.394800 -8.347200 4.550000
6.250340 -0.065966 27.744000 -10.656000 6.410000
6.345040 -0.066966 28.164300 -10.656000 6.920000
18.340500 1.941740 24.947800 -8.968800 8.410000
18.595200 1.968710 25.294300 -8.880000 5.600000
-8.146630 0.753877 30.373100 -10.478400 6.770000
18.849900 1.995680 25.640800 -8.880000 9.710000
-7.245440 0.764204 31.043100 -10.478400 8.660000
19.104700 2.022650 25.987300 -8.968800 7.790000
-7.525100 0.774531 31.419600 -10.567200 6.760000
9.144340 1.366910 31.416100 -10.567200 9.250000
7.540830 -0.384795 32.308700 -10.567200 12.740000
7.638760 -0.389793 32.728300 -10.567200 5.680000
18.789000 1.953080 31.379300 -9.501600 6.800000
19.231100 1.999030 32.117600 -9.501600 10.400000
-26.647200 1.363680 27.546200 -7.548000 5.580000
18.698100 1.934170 32.931800 -9.590400 9.650000
-27.213700 1.379010 27.594900 -7.548000 6.310000
-27.516100 1.394330 27.901500 -7.548000 9.100000
19.123100 1.978130 33.680300 -9.590400 4.910000
-27.815300 1.532170 28.204800 -7.548000 8.090000
19.067000 2.212030 34.192500 -9.590400 9.030000
19.807100 2.236340 34.267000 -9.590400 9.620000
19.018500 2.044070 35.213900 -9.679200 6.390000
19.223000 2.066050 35.592600 -9.679200 10.430000
19.427500 2.088030 35.971200 -9.679200 13.350000
19.635000 1.982230 36.355400 -9.679200 17.700000
19.555800 2.002880 36.885900 -9.679200 15.720000
19.754400 2.153970 37.260500 -9.768000 19.620000
19.956000 2.175950 37.640700 -9.768000 17.110000
19.442200 1.698710 39.381200 -9.856800 11.950000
19.630400 1.852520 39.762300 -9.856800 6.650000
19.818300 2.008970 40.143000 -9.856800 10.960000
19.069000 1.888490 40.986200 -9.945600 5.780000
19.569000 1.906470 41.227000 -9.945600 7.240000
19.753600 1.924460 41.615900 -9.945600 7.130000
19.938200 1.942450 42.004800 -9.945600 9.860000
20.122800 1.960430 42.393800 -9.945600 10.700000
19.398500 1.831940 43.208900 -10.034400 11.710000
10.241400 0.554705 46.717300 -10.656000 8.330000
19.910400 1.848600 43.449500 -10.034400 6.390000
9.970030 0.559702 47.216400 -10.656000 7.200000
20.087200 2.014390 43.835500 -10.034400 6.840000
10.059000 0.564700 47.638000 -10.656000 7.310000
20.263900 2.182820 44.221000 -10.034400 15.860000
10.148100 0.569697 48.059600 -10.656000 8.620000
19.753100 2.202140 44.922100 -10.034400 7.470000
19.926400 2.221460 45.316200 -10.034400 6.590000
11.612100 -3.591070 48.484100 -10.656000 16.210000
20.102300 2.086330 45.716300 -10.034400 7.150000
8.108450 -3.155330 49.658800 -10.656000 8.970000
20.275600 2.104320 46.110400 -10.034400 10.350000
7.673290 -12.185300 48.764500 -10.656000 14.710000
8.684400 -12.288600 49.019500 -10.744800 14.440000
19.791000 1.998480 47.728800 -10.123200 9.800000
19.958200 1.854000 48.132100 -10.123200 8.670000
19.917300 1.270230 49.099500 -10.123200 7.020000
20.080600 1.115350 49.502100 -10.123200 15.670000
20.242500 1.124350 49.901300 -10.123200 6.860000
20.404500 1.133340 50.300600 -10.123200 12.410000
20.346100 2.198330 53.069800 -10.300800 6.610000
20.500200 2.214990 53.471800 -10.300800 6.140000
20.654400 2.231640 53.873900 -10.300800 6.950000
20.808500 2.248290 54.275900 -10.300800 5.460000
20.962600 2.264950 54.678000 -10.300800 6.630000
20.267600 2.099150 55.405300 -10.300800 9.600000
20.415500 2.114480 55.809700 -10.300800 8.530000
20.561100 2.314910 56.207700 -10.300800 8.210000
20.711400 2.145120 56.618600 -10.300800 9.440000
20.088300 2.160440 57.299100 -10.389600 6.530000
20.226000 2.553960 57.691700 -10.389600 10.800000
20.368400 2.571940 58.098000 -10.389600 15.360000
20.513400 2.398180 58.511600 -10.389600 15.280000
-9.838660 2.448140 62.525600 -10.656000 10.520000
-9.421200 2.267700 63.032700 -10.656000 10.670000
-9.484850 2.283020 63.458600 -10.656000 18.050000
21.298400 2.266450 66.438600 -10.389600 9.510000
21.431900 2.063320 66.855100 -10.389600 12.970000
21.563400 2.075980 67.265300 -10.389600 16.400000
21.694900 2.088640 67.675500 -10.389600 8.200000
21.735900 1.120390 73.097900 -10.478400 7.730000
21.434900 0.652327 73.641300 -10.478400 8.220000
-17.321400 -2.560250 76.886100 -10.478400 12.620000
-17.991600 0.974482 82.070900 -10.567200 5.620000
-17.447600 0.979479 82.628700 -10.567200 6.380000
21.619800 2.044760 82.508200 -10.567200 6.080000
22.209500 1.789960 82.803600 -10.567200 9.030000
22.321100 1.798950 83.219700 -10.567200 7.610000
22.658400 1.284970 84.477300 -10.567200 5.320000
22.770900 1.019460 84.896900 -10.567200 6.390000
21.837000 0.480420 86.036100 -10.567200 7.210000
21.942500 0.758604 86.451900 -10.567200 7.270000
22.048500 0.762269 86.869500 -10.567200 5.230000
21.649600 0.765934 87.413800 -10.567200 9.420000
22.254900 2.168690 87.682800 -10.567200 5.730000
22.360900 2.179010 88.100300 -10.567200 11.110000
22.465600 2.401170 88.512700 -10.567200 11.460000
22.783500 2.435150 89.765300 -10.567200 12.480000
-54.600300 -17.179900 110.596000 -9.590400 6.280000
-54.789200 -17.239400 110.978000 -9.590400 8.740000
-54.978100 -17.298800 111.361000 -9.590400 11.400000
-56.346700 -19.217100 110.358000 -9.412800 9.790000
-56.540300 -19.283200 110.737000 -9.412800 5.930000
-56.734000 -19.349200 111.116000 -9.412800 8.530000
21.736100 1.774060 151.407000 -10.744800 10.600000
21.796400 2.253440 151.827000 -10.744800 8.620000
21.855200 3.211130 152.237000 -10.744800 6.520000
-60.190500 -13.900900 148.380000 -9.856800 7.060000
-59.490900 -13.938100 149.124000 -9.856800 8.100000
-59.650000 -13.975400 149.523000 -9.945600 7.260000
-59.809000 -14.012700 149.922000 -9.945600 5.130000
-61.990100 -14.049900 149.498000 -9.768000 5.980000
-5.219600 1.963960 169.252000 -10.744800 5.500000
-6.540520 1.968950 169.637000 -10.744800 5.540000
-5.246170 1.973950 170.113000 -10.833600 4.590000
-4.327620 1.469570 172.730000 -10.744800 6.580000
-4.338420 1.473230 173.161000 -10.744800 5.670000
-4.349070 2.013930 173.587000 -10.744800 7.120000
-4.359860 2.018930 174.017000 -10.833600 6.890000
6.544340 1.299890 7.901310 -8.702400 2.940000
6.786980 0.383057 8.356850 -8.613600 8.700000
7.059200 0.363751 8.692040 -8.613600 9.110000
6.329500 -0.536854 9.228510 -9.057600 5.630000
7.138210 -0.578151 9.709830 -8.880000 5.950000
5.728470 -0.503597 10.606600 -9.679200 6.370000
7.211780 -0.782090 10.175000 -8.968800 10.970000
7.211780 -0.782090 10.175000 -9.057600 6.540000
4.979450 -1.720000 12.275200 -10.123200 12.680000
5.140070 -1.775480 12.671200 -10.123200 8.350000
5.225080 -1.830970 13.097600 -10.123200 9.910000
-8.764730 0.430386 11.731800 -8.524800 9.900000
-9.307700 1.312240 11.237700 -8.258400 5.560000
5.461330 -1.886450 13.463100 -10.123200 4.150000
-9.021660 0.489664 12.075700 -8.524800 7.640000
6.826620 1.443720 13.370300 -9.856800 3.800000
6.730590 1.437200 13.902100 -9.856800 3.870000
-8.368800 1.378910 13.500000 -9.057600 5.790000
6.501750 1.477130 14.482200 -10.034400 6.700000
-8.701590 1.416170 13.798200 -9.057600 5.960000
6.677480 1.517050 14.873600 -10.034400 6.210000
-8.721400 1.207340 14.314000 -9.146400 6.380000
6.880830 -0.402756 15.326600 -10.034400 5.010000
-8.031740 1.660440 14.667800 -9.412800 4.460000
-8.952320 1.025540 14.693000 -9.146400 4.270000
6.477170 -0.413083 15.967300 -10.123200 6.630000
-8.237680 1.703010 15.043900 -9.412800 4.350000
-9.059780 1.051180 15.130600 -9.235200 3.960000
7.235510 -0.150255 16.116600 -10.123200 5.310000
7.411750 0.209888 16.509200 -10.123200 11.550000
7.457420 0.272185 16.959500 -10.123200 17.130000
7.630850 0.278515 17.353900 -10.123200 18.130000
6.531500 -1.677050 18.180200 -10.389600 5.900000
7.095580 -0.045976 18.507800 -10.300800 7.860000
-7.559570 1.836430 18.231000 -9.945600 6.400000
-8.116950 1.876350 18.459400 -9.856800 3.430000
4.799390 -1.788850 20.039000 -10.656000 5.340000
-8.295920 1.741050 18.866400 -9.856800 8.250000
4.899380 -1.826120 20.456500 -10.567200 7.020000
6.989020 -1.680770 20.310500 -10.389600 9.530000
7.265160 -0.849356 20.722800 -10.389600 4.070000
7.282420 -1.073710 21.163100 -10.389600 9.270000
-7.409240 0.727502 21.133800 -10.123200 7.380000
7.423540 -1.023800 21.573200 -10.389600 7.900000
-7.427090 0.741492 21.583500 -10.034400 9.110000
7.393970 -1.043120 22.037900 -10.389600 8.860000
-7.566430 0.827404 21.988500 -10.034400 9.260000
4.110240 -3.162580 24.007500 -10.656000 8.680000
18.185700 1.564180 17.071800 -7.725600 9.410000
5.673960 -1.197600 24.310100 -10.656000 6.300000
5.581020 -1.218250 24.773000 -10.656000 8.440000
18.108400 1.259540 19.010400 -8.080800 7.060000
4.656390 -1.115110 26.283200 -10.656000 9.500000
6.164810 -1.133090 26.413200 -10.656000 8.230000
18.099300 1.236290 20.770400 -8.524800 7.320000
7.343890 -1.065860 26.560400 -10.567200 6.850000
7.096370 -0.822796 27.082100 -10.656000 7.260000
6.835870 -0.505716 27.601000 -10.656000 7.110000
7.854080 -0.334822 27.779400 -10.656000 7.100000
6.561500 -0.334822 28.112800 -10.656000 7.100000
-7.971720 -0.158585 28.195500 -10.478400 9.220000
18.109700 8.830180 21.864700 -8.880000 7.130000
18.372100 8.958160 22.181600 -8.791200 9.200000
8.191100 0.374801 31.260000 -10.567200 7.890000
6.493480 0.374801 31.656200 -10.567200 6.900000
8.483740 -0.177242 31.629900 -10.567200 6.220000
18.575700 1.622630 31.023100 -9.501600 5.760000
18.796900 1.641950 31.392400 -9.501600 8.110000
19.018000 1.661260 31.761700 -9.501600 9.660000
18.990900 1.680580 32.278400 -9.590400 6.630000
18.443800 1.934170 33.074900 -9.679200 7.890000
18.910600 1.956150 33.306000 -9.679200 13.980000
-26.946600 1.379010 27.855800 -7.636800 6.420000
-27.248900 1.273130 28.168200 -7.636800 7.980000
19.335600 2.000110 34.054500 -9.679200 15.270000
19.548100 2.022090 34.428700 -9.679200 12.100000
19.219400 2.136900 35.099100 -9.768000 10.080000
19.428400 2.066050 35.480900 -9.768000 8.400000
19.635100 2.088030 35.858300 -9.768000 17.840000
-8.080650 1.001730 40.996500 -10.656000 12.390000
19.271000 2.002880 37.035600 -9.856800 17.770000
-6.176840 1.001730 41.326200 -10.656000 12.390000
19.466600 2.153970 37.411600 -9.856800 8.270000
19.665300 2.175950 37.793400 -9.856800 10.040000
19.863900 2.197930 38.175100 -9.856800 7.870000
19.429000 2.343690 39.354500 -9.945600 11.330000
19.621900 2.263860 39.745200 -9.945600 5.250000
19.500100 2.389650 40.277700 -9.945600 6.410000
19.569000 1.906470 41.227000 -9.945600 20.290000
19.432200 1.924460 41.766900 -9.945600 15.700000
19.938200 1.942450 42.004800 -9.945600 5.530000
20.122800 1.960430 42.393800 -9.945600 5.180000
19.393500 2.124870 43.197700 -10.034400 11.560000
9.610650 0.406788 46.852600 -10.744800 7.170000
19.572400 1.996400 43.596200 -10.034400 5.710000
9.696930 0.559702 47.273300 -10.744800 10.430000
19.748800 2.014390 43.989000 -10.034400 14.700000
9.783110 0.715277 47.693400 -10.656000 11.080000
19.925100 2.032370 44.381800 -10.034400 17.450000
9.869690 0.721606 48.115500 -10.656000 9.520000
19.408900 2.050360 45.079100 -10.034400 15.680000
19.573700 2.374550 45.461900 -10.034400 8.750000
19.743900 2.395200 45.857200 -10.034400 9.060000
19.914100 2.415840 46.252500 -10.034400 13.020000
-24.407800 -1.650870 44.574300 -9.324000 16.140000
19.987800 2.140290 47.172500 -10.123200 8.450000
-24.620500 -1.228920 44.962900 -9.412800 10.870000
20.155800 2.158270 47.568900 -10.123200 7.330000
20.323700 2.176260 47.965300 -10.123200 15.030000
20.084700 0.289185 49.512200 -10.212000 7.220000
20.246700 0.291517 49.911500 -10.212000 6.900000
19.936500 2.198330 53.225000 -10.300800 12.530000
20.087500 2.214990 53.628200 -10.300800 11.160000
20.238500 2.231640 54.031500 -10.300800 5.550000
20.389600 2.248290 54.434700 -10.300800 6.530000
20.540600 2.264950 54.837900 -10.300800 9.420000
20.267600 2.099150 55.405300 -10.389600 9.960000
20.415500 2.114480 55.809700 -10.389600 14.500000
20.563400 2.129800 56.214200 -10.389600 14.400000
20.711400 2.145120 56.618600 -10.389600 9.270000
-9.357540 2.252380 62.606800 -10.744800 7.520000
21.684100 2.050660 66.320800 -10.478400 10.140000
21.431900 2.063320 66.855100 -10.478400 6.430000
21.565200 1.857510 67.271100 -10.478400 5.560000
21.698000 1.703970 67.685200 -10.478400 6.690000
-18.234800 -1.724620 69.590200 -10.478400 6.280000
-18.343000 -1.902810 70.002900 -10.478400 6.490000
-17.721900 -1.869200 75.929800 -10.478400 7.500000
21.800600 1.673030 77.107300 -10.567200 12.140000
-15.451800 -0.459430 83.467900 -10.656000 7.770000
22.213500 0.729286 82.818700 -10.567200 6.640000
22.965300 0.999469 83.057700 -10.567200 5.930000
22.061400 1.009460 84.193500 -10.567200 12.710000
22.170600 1.014460 84.610300 -10.567200 10.770000
22.279800 1.019460 85.027100 -10.567200 8.010000
21.933800 2.620290 86.417700 -10.656000 10.790000
22.710300 2.355860 86.670200 -10.567200 4.840000
22.822400 1.879910 87.098000 -10.567200 8.980000
22.933000 1.609100 87.520000 -10.567200 8.280000
23.042200 1.616760 87.936700 -10.567200 6.590000
23.151400 1.624420 88.353500 -10.567200 9.640000
22.673400 2.993950 89.331500 -10.567200 10.840000
-55.041600 -19.283200 111.490000 -9.412800 6.260000
-55.230100 -19.349200 111.872000 -9.412800 8.700000
21.734100 2.720140 151.393000 -10.744800 5.020000
21.795300 2.727800 151.820000 -10.744800 6.230000
21.857600 2.259770 152.254000 -10.833600 5.420000
-59.597600 -10.086300 149.392000 -9.945600 5.150000
-59.732600 -11.110600 149.730000 -9.945600 9.420000
-60.758700 -11.140200 149.781000 -9.945600 9.240000
-5.219770 1.440250 169.257000 -10.833600 5.140000
-5.233050 1.443910 169.688000 -10.833600 4.110000
-5.326020 1.469570 172.703000 -10.833600 9.640000
-5.339300 1.473230 173.133000 -10.833600 10.470000
-5.352420 2.013930 173.559000 -10.833600 6.490000
-5.365870 1.480560 173.995000 -10.833600 4.620000
-49.079200 -15.987800 177.503000 -10.300800 7.500000
-49.193600 -16.025100 177.917000 -10.300800 6.520000
-49.333600 -14.917600 178.423000 -10.300800 4.350000
-48.068200 -14.952300 179.213000 -10.300800 4.420000
6.393020 1.458380 7.996940 -8.702400 7.320000
6.591310 1.458380 7.834310 -8.524800 5.730000
6.378580 0.742981 8.106190 -8.702400 9.640000
6.853760 0.773938 8.274890 -8.524800 8.920000
7.012260 1.339440 8.634250 -8.702400 9.410000
6.518620 -1.072470 9.048400 -9.057600 6.100000
7.281960 1.390950 8.966340 -8.702400 7.210000
6.944740 -1.154970 9.798250 -9.057600 8.550000
7.116420 -1.157750 10.206300 -9.146400 11.850000
5.540290 -0.419712 11.672000 -9.945600 10.140000
6.804190 0.579510 10.976100 -9.412800 11.190000
7.458980 0.848956 10.523800 -9.146400 11.490000
5.631840 -0.433703 12.104900 -10.034400 8.640000
6.943370 0.598827 11.395800 -9.501600 11.470000
7.167350 0.618144 11.763400 -9.501600 9.720000
-9.290240 1.492480 10.661300 -8.080800 5.230000
5.234480 -1.623620 13.121100 -10.123200 8.100000
-9.571770 1.537710 10.984400 -8.080800 3.080000
5.473070 -1.627800 13.492100 -10.123200 7.460000
6.341330 1.211410 13.629800 -10.034400 5.170000
6.522510 1.246020 14.019200 -9.945600 6.660000
-8.024140 1.675870 13.169600 -9.146400 5.010000
6.501750 1.477130 14.482200 -10.034400 5.350000
-7.721990 1.673390 13.847700 -9.412800 7.180000
6.566300 1.416170 14.932900 -10.034400 5.970000
-8.040070 1.718620 14.160400 -9.412800 7.410000
-8.797550 1.617860 13.715000 -9.057600 5.590000
6.620770 1.453440 15.377400 -10.123200 7.070000
-7.599690 1.763850 14.884400 -9.501600 6.790000
-8.920310 1.660440 14.145100 -9.057600 6.360000
6.913260 1.450870 15.722000 -10.123200 7.500000
-8.229740 1.862070 15.029400 -9.412800 4.950000
7.111230 0.095617 16.172200 -10.123200 12.860000
-8.435480 1.908630 15.405200 -9.412800 5.000000
7.284520 0.153920 16.566300 -10.123200 18.050000
-7.514920 1.453690 16.399500 -9.768000 6.860000
7.457960 0.157585 16.960700 -10.123200 19.200000
-8.398460 1.488300 16.448800 -9.590400 5.540000
7.631400 0.161249 17.355200 -10.123200 16.180000
-8.101190 1.595960 17.067200 -9.768000 8.910000
5.613090 -2.734460 18.357800 -10.478400 8.010000
-8.295140 1.333270 17.475800 -9.768000 8.050000
-8.486060 1.118170 17.878000 -9.768000 8.490000
-8.148640 1.788850 18.926000 -9.945600 12.120000
-8.318400 1.826120 19.320300 -9.945600 10.290000
4.826210 -0.849356 21.422600 -10.656000 5.980000
-7.502640 7.524710 19.236100 -10.123200 8.980000
5.511120 -0.467728 21.713400 -10.656000 8.450000
5.478430 -1.499820 22.120100 -10.656000 8.240000
6.190060 -1.384480 22.387400 -10.567200 9.020000
4.551930 -2.760640 23.093800 -10.656000 6.250000
4.658190 -1.435750 23.632900 -10.656000 7.640000
4.919430 -1.972870 23.982600 -10.744800 7.680000
7.168960 -1.461390 23.446300 -10.567200 7.790000
5.659200 -2.161530 24.246900 -10.656000 8.990000
5.232740 -2.198790 24.781400 -10.656000 5.220000
17.797100 1.618120 18.683500 -8.169600 5.450000
18.090100 1.726210 18.991200 -8.169600 6.780000
6.466360 0.060969 25.477000 -10.656000 6.120000
18.382800 1.836950 19.298500 -8.169600 5.050000
5.367130 -0.557675 26.165200 -10.656000 9.690000
18.679300 1.866570 19.609700 -8.169600 9.490000
8.632000 -0.713554 25.727900 -10.478400 13.700000
9.860840 -0.713554 25.282400 -10.300800 10.290000
18.074600 1.896200 20.742100 -8.436000 13.130000
18.357000 1.925830 21.066200 -8.436000 9.630000
-8.465320 1.187050 27.124300 -10.389600 5.230000
7.848740 1.115820 27.760500 -10.567200 6.140000
18.097200 8.268530 21.510000 -8.791200 12.890000
7.802890 1.132470 28.220400 -10.567200 5.710000
18.531000 8.390120 21.684200 -8.791200 12.020000
-7.696700 1.149130 28.695600 -10.478400 5.930000
18.833500 8.332570 22.038100 -8.791200 5.420000
8.190220 1.887800 28.968300 -10.567200 6.870000
19.102500 8.451610 22.352900 -8.791200 8.920000
8.307220 1.914770 29.382100 -10.567200 6.430000
18.791300 1.868240 31.383100 -9.590400 4.820000
19.012400 1.890220 31.752300 -9.590400 9.550000
19.239200 1.680580 32.131000 -9.590400 8.160000
18.910600 1.956150 33.306000 -9.679200 9.290000
19.123100 1.978130 33.680300 -9.679200 8.480000
19.335600 2.000110 34.054500 -9.679200 13.810000
19.282100 2.022090 34.578400 -9.679200 15.850000
19.013000 2.260650 35.203700 -9.768000 13.260000
19.217400 2.284960 35.582200 -9.768000 7.120000
19.421800 2.309260 35.960700 -9.768000 8.540000
-6.979510 0.735587 40.766700 -10.656000 13.430000
19.629600 2.205830 36.345400 -9.768000 6.510000
-7.052220 0.743249 41.191400 -10.656000 16.070000
18.694900 2.131990 37.322500 -9.945600 14.320000
19.373400 2.175950 37.943800 -9.945600 6.090000
-5.870690 1.931700 42.644500 -10.744800 7.440000
19.569100 2.197930 38.327100 -9.945600 11.440000
19.130400 2.106120 39.514000 -10.034400 14.600000
19.317900 2.126770 39.901400 -10.034400 9.240000
19.508300 2.008970 40.294500 -10.034400 8.520000
19.248000 2.047600 41.371000 -10.034400 16.560000
19.429600 2.066920 41.761300 -10.034400 6.400000
19.611200 2.086240 42.151600 -10.034400 17.780000
19.792800 2.105550 42.541900 -10.034400 9.830000
9.881320 0.406788 46.796300 -10.744800 5.950000
19.561600 2.550490 43.572200 -10.123200 7.840000
9.970340 0.410453 47.217900 -10.744800 7.970000
19.737900 2.573470 43.964700 -10.123200 6.110000
10.059000 0.564700 47.638000 -10.744800 12.330000
10.148100 0.569697 48.059600 -10.744800 6.270000
19.403500 2.353900 45.066500 -10.212000 15.010000
10.610400 0.574694 48.400800 -10.744800 12.920000
19.573700 2.374550 45.461900 -10.212000 17.990000
11.760400 18.594900 44.881600 -10.744800 11.330000
19.743900 2.395200 45.857200 -10.212000 16.420000
9.403410 18.755200 45.842300 -10.744800 7.810000
19.911100 2.571570 46.245400 -10.212000 7.570000
9.935840 -2.703450 51.990800 -10.744800 9.170000
19.917300 1.270230 49.099500 -10.300800 9.510000
20.079200 1.280560 49.498700 -10.300800 15.500000
20.242500 1.124350 49.901300 -10.300800 10.020000
20.419300 2.302160 51.184500 -10.300800 13.640000
20.180600 2.320140 51.741400 -10.300800 9.070000
20.334300 2.511210 52.135500 -10.300800 8.320000
20.183800 2.704920 52.646600 -10.300800 15.460000
19.940800 1.846730 53.236700 -10.389600 6.710000
20.089800 2.037870 53.634400 -10.300800 16.790000
20.240800 2.053190 54.037700 -10.300800 7.250000
20.391900 2.068510 54.440900 -10.300800 13.670000
20.542900 2.083830 54.844200 -10.300800 6.930000
20.845000 2.114480 55.650700 -10.300800 6.120000
20.555000 1.349210 61.264600 -10.478400 6.870000
20.692000 1.358210 61.673100 -10.478400 11.720000
20.826400 1.721590 62.073600 -10.478400 11.730000
-3.470550 2.581380 66.649300 -10.833600 11.930000
21.233600 2.168510 63.287200 -10.478400 15.970000
21.370600 2.182500 63.695500 -10.478400 15.810000
21.300400 2.050660 66.445000 -10.478400 6.130000
21.431900 2.063320 66.855100 -10.478400 7.730000
21.563400 2.075980 67.265300 -10.478400 8.860000
21.694900 2.088640 67.675500 -10.478400 6.600000
-16.747600 0.000000 71.755400 -10.478400 9.070000
-16.572900 -0.174911 73.563600 -10.478400 8.920000
20.308300 2.106680 77.503200 -10.567200 9.880000
22.101200 0.989474 82.400000 -10.567200 6.340000
22.211900 1.259650 82.812800 -10.567200 5.340000
22.964300 1.265980 83.054400 -10.567200 7.160000
22.545600 1.547800 84.057000 -10.656000 7.330000
22.657300 1.555460 84.473100 -10.656000 5.010000
22.767500 1.834930 84.884100 -10.656000 5.100000
22.990700 1.852920 85.716300 -10.656000 5.290000
23.102300 1.861920 86.132400 -10.656000 5.120000
23.215300 1.593770 86.553700 -10.656000 9.590000
22.823800 1.601430 87.103200 -10.656000 11.560000
22.256500 1.888900 87.688900 -10.656000 9.470000
22.362400 1.897900 88.106500 -10.656000 8.130000
22.468400 1.906890 88.524000 -10.656000 10.290000
22.787700 1.647410 89.782100 -10.656000 11.390000
-56.086900 -17.179900 109.849000 -9.501600 11.780000
-55.429800 -17.239400 110.660000 -9.590400 9.300000
-56.399700 -18.450300 110.462000 -9.412800 5.530000
31.370000 1.699100 143.098000 -10.744800 5.640000
31.462300 1.704090 143.519000 -10.744800 5.930000
31.554500 1.709090 143.940000 -10.744800 11.490000
21.735200 2.247110 151.401000 -10.833600 12.560000
21.797300 1.779050 151.833000 -10.833600 9.030000
21.858500 1.784050 152.260000 -10.833600 6.660000
-6.523920 1.963960 169.207000 -10.833600 7.780000
-6.540730 1.443910 169.642000 -10.833600 5.010000
-6.557120 1.973950 170.068000 -10.833600 6.650000
-4.327720 0.935186 172.734000 -10.833600 5.180000
-5.339420 0.937518 173.137000 -10.833600 4.860000
-5.352700 0.939850 173.568000 -10.833600 7.930000
-49.052600 -11.542600 177.407000 -10.389600 6.650000
-47.795300 -11.569500 178.195000 -10.389600 9.590000
-48.129500 -11.650400 179.441000 -10.300800 9.970000
6.236900 0.589684 7.679540 -8.702400 3.200000
6.384920 0.583393 8.114250 -8.791200 7.840000
6.652090 0.574435 8.453780 -8.791200 8.220000
7.200830 -0.904024 9.638450 -8.968800 8.190000
6.075960 2.172460 10.701200 -9.768000 9.540000
6.891910 -0.859217 10.388300 -9.235200 9.560000
7.458010 -0.936311 9.982680 -8.968800 9.160000
6.199970 2.247370 11.118300 -9.856800 8.990000
6.810300 0.189896 10.985900 -9.412800 10.800000
4.508050 -2.113220 12.858600 -10.389600 5.890000
6.900380 0.031984 11.938000 -9.679200 9.130000
4.648920 -2.179260 13.260400 -10.389600 7.030000
7.116020 0.032983 12.311000 -9.679200 9.060000
-8.959750 0.461684 11.032200 -8.347200 7.410000
5.376700 -2.021170 13.477600 -10.300800 5.740000
6.729440 1.447560 12.932900 -9.945600 4.850000
-8.765490 0.385093 11.732800 -8.524800 6.150000
6.330750 1.490140 13.607100 -10.034400 4.400000
-9.023300 0.396419 12.077900 -8.524800 4.190000
6.430620 1.532710 14.033300 -10.034400 4.820000
6.609250 1.575290 14.423100 -10.034400 4.160000
-8.698930 0.850163 13.334000 -8.968800 6.140000
-7.761020 1.176390 14.370000 -9.412800 5.690000
-8.399800 0.873141 14.028400 -9.235200 6.290000
-8.934040 0.873141 13.694300 -8.968800 6.610000
-8.050380 1.207340 14.701900 -9.412800 7.200000
-8.715750 1.349860 14.304700 -9.235200 6.940000
7.153360 1.490710 15.610500 -10.123200 4.800000
-8.256800 1.238300 15.078800 -9.412800 7.660000
7.284000 0.265855 16.565100 -10.123200 16.400000
7.457420 0.272185 16.959500 -10.123200 18.180000
-8.051350 1.388320 16.630100 -9.768000 5.650000
7.764380 0.278515 17.294600 -10.123200 15.140000
-8.107190 1.420610 17.079900 -9.768000 5.730000
-8.863470 1.186620 16.718200 -9.590400 6.450000
-8.932870 1.213590 17.167500 -9.501600 7.380000
-8.472130 1.592140 17.848700 -9.768000 5.300000
-7.875700 1.626750 18.587200 -9.945600 5.720000
6.913810 -3.106610 19.244300 -10.389600 8.180000
-8.488240 6.395300 18.244300 -9.945600 5.860000
7.281380 -0.632920 20.267400 -10.389600 9.100000
-8.553720 6.525810 18.666400 -9.945600 9.260000
7.422740 -0.985168 20.660900 -10.389600 10.760000
-8.707470 6.785750 19.001900 -9.945600 4.960000
4.625790 -0.866010 21.907000 -10.656000 9.140000
7.551420 1.799810 21.019100 -10.389600 9.610000
-7.404640 1.073710 21.120700 -10.212000 9.140000
6.798760 -0.882664 21.784400 -10.567200 7.920000
7.396730 -0.827404 22.046100 -10.478400 9.270000
4.559280 -2.414570 23.131100 -10.744800 8.940000
7.360420 -0.842726 22.511800 -10.478400 7.530000
4.642180 -2.458470 23.551700 -10.744800 6.700000
4.725070 -2.502370 23.972300 -10.744800 8.900000
4.823640 1.564180 24.472300 -10.744800 5.320000
17.797100 1.618120 18.683500 -8.169600 9.870000
18.093700 1.645090 18.994900 -8.169600 10.200000
18.390300 1.672050 19.306300 -8.169600 11.590000
-7.311270 0.873429 28.805900 -10.567200 7.930000
19.040100 2.211430 29.682700 -9.412800 7.960000
18.791300 1.868240 31.383100 -9.501600 9.370000
19.012400 1.890220 31.752300 -9.501600 6.650000
19.236400 1.796400 32.126400 -9.501600 8.360000
18.734200 2.508080 35.336100 -9.856800 5.110000
18.935600 2.535050 35.716100 -9.856800 12.370000
19.137000 2.562020 36.096000 -9.856800 7.170000
19.342100 2.461290 36.482900 -9.856800 10.850000
18.982000 2.131990 37.177300 -9.945600 7.890000
19.177700 2.153970 37.560600 -9.945600 4.920000
19.373400 2.175950 37.943800 -9.945600 12.050000
19.569100 2.197930 38.327100 -9.945600 16.350000
-5.657470 0.781561 43.579200 -10.744800 15.980000
19.439800 1.834530 39.376300 -9.945600 11.170000
-7.741140 0.789223 43.695300 -10.744800 14.810000
19.630400 1.852520 39.762300 -9.945600 20.470000
19.248000 2.047600 41.371000 -10.034400 7.410000
19.429600 2.066920 41.761300 -10.034400 6.020000
19.611200 2.086240 42.151600 -10.034400 5.900000
19.795500 1.960430 42.547600 -10.034400 11.260000
19.703100 3.112840 42.997200 -10.123200 6.570000
9.608900 0.998419 46.844100 -10.744800 14.250000
19.882200 3.141140 43.388100 -10.123200 16.920000
9.696050 0.858184 47.269000 -10.744800 12.170000
20.061300 3.169440 43.779000 -10.123200 15.480000
9.782620 0.865847 47.691000 -10.744800 8.090000
12.723000 1.025400 47.435300 -10.744800 7.120000
7.040200 1.034400 49.039900 -10.744800 5.820000
6.811760 -1.931870 49.480400 -10.744800 8.910000
7.446980 -1.948520 49.824200 -10.833600 8.890000
9.252310 -1.336500 49.979400 -10.744800 6.780000
8.941980 -1.347820 50.473400 -10.833600 10.290000
19.916100 1.393130 49.096700 -10.300800 10.110000
20.079200 1.280560 49.498700 -10.300800 7.640000
20.241100 1.290890 49.897900 -10.300800 7.260000
20.404500 1.133340 50.300600 -10.300800 7.270000
20.029000 1.961250 51.352600 -10.300800 6.000000
20.185500 1.976580 51.753800 -10.300800 8.260000
20.341900 1.991900 52.155000 -10.300800 9.310000
20.496100 2.181680 52.550100 -10.300800 10.050000
20.649000 2.588480 53.860000 -10.300800 8.220000
18.362500 1.205300 54.729700 -9.412800 7.240000
20.803100 2.607800 54.261900 -10.300800 11.640000
18.500600 1.034420 55.141500 -9.412800 15.760000
-4.642500 1.958660 60.115200 -10.833600 14.780000
-5.141030 2.348220 60.493400 -10.833600 19.350000
20.529400 2.160440 57.142600 -10.389600 19.260000
21.027800 1.149350 61.108000 -10.478400 7.460000
21.166700 1.358210 61.511700 -10.478400 6.560000
21.305400 1.569720 61.914800 -10.478400 8.360000
21.445600 1.580040 62.322200 -10.478400 11.760000
21.231400 2.374960 63.280500 -10.478400 9.240000
-21.732200 0.000000 63.155000 -10.212000 6.730000
21.368300 2.390280 63.688800 -10.478400 7.580000
-21.872400 0.000000 63.562400 -10.212000 10.840000
-11.403100 3.241770 66.604500 -10.922400 13.930000
-11.475700 3.262420 67.028700 -10.922400 12.860000
-20.913600 -0.794577 65.238300 -10.300800 7.840000
20.792100 1.457150 66.621400 -10.567200 8.270000
20.919000 1.683310 67.028000 -10.478400 8.090000
21.047300 1.693640 67.439200 -10.478400 6.390000
21.178400 1.264290 67.859200 -10.478400 10.910000
-7.293550 1.583080 75.470300 -10.833600 9.480000
-7.334480 1.827890 75.893800 -10.833600 7.050000
21.785500 2.532260 74.845700 -10.567200 12.790000
21.901000 3.031030 75.242600 -10.567200 12.040000
21.696100 2.140660 78.467700 -10.567200 8.230000
21.815000 1.455850 78.897700 -10.567200 7.870000
22.387900 1.463510 79.184900 -10.567200 8.210000
-14.243100 -3.003170 83.192500 -10.656000 8.130000
-14.315700 -3.018490 83.617000 -10.656000 7.370000
22.060500 1.278640 84.190100 -10.656000 10.630000
22.169700 1.284970 84.606900 -10.656000 7.950000
22.277800 1.563120 85.019400 -10.656000 6.780000
21.837000 0.480420 86.036100 -10.656000 10.290000
21.943000 0.482752 86.453800 -10.656000 11.170000
22.048500 0.762269 86.869500 -10.656000 11.320000
22.683800 1.069430 89.372600 -10.656000 6.680000
31.279400 0.790593 142.685000 -10.744800 4.910000
31.371600 0.792926 143.106000 -10.744800 5.680000
31.463900 0.795258 143.526000 -10.744800 6.810000
30.445800 0.797590 144.186000 -10.744800 5.240000
21.735200 2.247110 151.401000 -10.833600 6.190000
21.797300 1.779050 151.833000 -10.833600 5.210000
-5.232670 2.493970 169.676000 -10.922400 5.590000
-5.326200 -0.400795 172.708000 -10.922400 5.600000
-5.339480 0.401795 173.139000 -10.922400 7.340000
-5.352760 0.402794 173.570000 -10.922400 8.740000
-47.795300 -11.569500 178.195000 -10.389600 6.880000
-47.887200 -12.740100 178.538000 -10.389600 4.650000
6.116630 0.620278 7.773290 -8.968800 1.960000
6.229780 0.894425 8.206010 -9.057600 7.370000
6.576550 0.806768 7.940200 -8.702400 2.230000
6.489360 0.931693 8.547920 -9.057600 9.150000
6.850570 0.840383 8.271040 -8.702400 5.170000
6.680210 0.968960 8.941590 -9.057600 7.510000
-2.028090 1.175900 10.955400 2.664000 10.210000
6.197890 -0.593440 9.828070 -9.590400 5.240000
-2.096620 1.640670 11.325600 2.664000 14.060000
6.029990 -0.615419 10.432100 -9.679200 6.020000
-2.083690 1.701440 11.761500 2.664000 14.250000
6.662790 -0.367094 10.565300 -9.501600 9.720000
-2.159050 1.723940 12.186800 2.752800 11.890000
6.769420 0.474991 11.505800 -9.768000 5.920000
6.987780 0.490313 11.876900 -9.768000 7.070000
-2.137810 0.990641 13.586000 2.752800 8.760000
-1.554230 1.065460 14.094300 2.752800 7.510000
-1.600950 1.142920 14.517900 2.752800 7.910000
-2.823640 1.083510 14.775100 2.664000 9.270000
6.621310 1.484970 13.949500 -10.123200 7.820000
-2.905550 1.018750 15.203800 2.664000 9.390000
6.388070 1.526210 14.527600 -10.212000 8.340000
-8.486110 1.047050 13.456500 -9.146400 5.160000
-8.608690 1.075340 13.887000 -9.235200 6.140000
-8.838660 0.999899 14.258000 -9.235200 3.990000
-9.065290 1.025540 14.623600 -9.235200 6.320000
6.969940 -1.214750 16.188400 -10.300800 10.350000
7.284290 0.209888 16.565800 -10.300800 11.480000
5.877150 -1.388320 17.517000 -10.567200 8.880000
7.457960 0.157585 16.960700 -10.300800 10.860000
-7.539100 2.115630 16.792800 -9.856800 16.890000
6.013830 -1.420610 17.924300 -10.567200 11.240000
7.631400 0.161249 17.355200 -10.300800 18.160000
-8.988400 1.303640 16.642600 -9.590400 6.700000
5.401630 -1.557530 18.557700 -10.656000 9.090000
-9.196430 1.213590 17.027800 -9.590400 14.890000
5.631230 -1.592140 18.937900 -10.656000 6.420000
7.077270 -1.424050 18.460000 -10.389600 7.620000
6.841830 -0.367793 19.515400 -10.567200 8.820000
6.715030 -0.375456 20.014300 -10.567200 4.910000
-8.630670 1.321460 19.224200 -10.034400 4.750000
6.694470 -0.383118 20.475000 -10.656000 9.190000
-8.658550 1.215400 19.691100 -10.034400 4.180000
6.707120 -0.458733 20.922300 -10.656000 8.640000
-8.678130 1.171850 20.155800 -10.034400 7.640000
5.676550 -0.727502 21.663600 -10.744800 9.230000
7.541110 2.144950 20.990400 -10.478400 10.470000
-8.848290 1.194820 20.551000 -10.034400 8.800000
5.613430 -0.953237 22.116500 -10.744800 10.770000
7.521010 2.186200 21.452600 -10.567200 9.020000
5.587440 -1.115000 22.560300 -10.744800 9.240000
7.837800 2.012460 21.816200 -10.478400 8.180000
4.560700 -2.341650 23.138300 -10.833600 8.890000
-7.207630 2.049720 22.483700 -10.389600 10.190000
4.647700 -2.161330 23.579700 -10.833600 7.250000
-7.332450 2.309950 22.873000 -10.389600 9.150000
5.710580 -1.461390 23.843500 -10.833600 9.630000
-7.283730 2.351190 23.338300 -10.478400 9.490000
5.810770 -1.487030 24.261800 -10.833600 8.500000
4.086320 -1.826490 25.026000 -10.833600 8.280000
-7.552790 1.904910 24.200400 -10.478400 8.240000
18.385300 -3.864000 20.773200 -8.613600 9.640000
-8.082410 -0.073962 30.845200 -10.656000 7.420000
18.293100 1.569270 27.117400 -9.324000 6.410000
18.531000 1.692400 27.470000 -9.324000 7.910000
18.771700 1.714380 27.826800 -9.324000 7.720000
7.672020 8.591640 32.033100 -10.833600 7.850000
-14.589400 1.105240 30.736400 -13.941600 10.730000
8.018920 8.700400 32.377800 -10.833600 6.260000
18.361900 1.838190 29.116700 -9.590400 9.560000
-14.774100 1.119230 31.125400 -13.941600 6.510000
18.588200 1.968950 29.475600 -9.501600 5.820000
18.817700 1.993260 29.839500 -9.501600 7.340000
19.047200 2.017570 30.203400 -9.501600 5.580000
18.770000 1.775750 31.902800 -9.768000 6.390000
7.743410 0.782545 36.671500 -10.833600 6.710000
18.985300 1.912200 32.268800 -9.768000 9.360000
7.326620 1.582730 37.171000 -10.833600 8.540000
8.924560 1.600720 37.262900 -10.833600 7.890000
9.024840 1.618700 37.681500 -10.833600 8.650000
18.868500 1.738530 33.836700 -9.856800 10.140000
19.078200 1.757850 34.212700 -9.856800 7.850000
19.287800 1.777170 34.588600 -9.856800 6.880000
18.737700 2.384380 35.342800 -9.945600 15.670000
18.939200 2.410010 35.722800 -9.945600 6.850000
19.140700 2.435650 36.102900 -9.945600 14.760000
19.342100 2.461290 36.482900 -9.945600 9.670000
18.982000 2.131990 37.177300 -10.034400 11.850000
19.177700 2.153970 37.560600 -10.034400 16.460000
19.373400 2.175950 37.943800 -10.034400 16.510000
19.569100 2.197930 38.327100 -10.034400 11.940000
19.429000 2.343690 39.354500 -10.123200 12.590000
19.619500 2.366670 39.740400 -10.123200 18.580000
-12.394500 1.715370 42.582400 -13.142400 15.840000
19.810000 2.389650 40.126200 -10.123200 11.550000
-12.514900 1.732020 42.995800 -13.142400 6.850000
19.687600 2.412630 40.665000 -10.123200 6.510000
-12.633600 1.888490 43.403800 -13.142400 11.130000
19.245300 2.188710 41.365100 -10.212000 6.800000
-12.754000 1.906470 43.817200 -13.142400 10.800000
19.426800 2.209360 41.755300 -10.212000 5.740000
19.608400 2.230010 42.145600 -10.212000 13.350000
19.790000 2.250660 42.535800 -10.212000 16.540000
