VERSION .7
FIELDS x y z velocity intensity
SIZE 4 4 4 4 4
TYPE F F F F F
COUNT 1 1 1 1 1
WIDTH 712
HEIGHT 1
VIEWPOINT 0 0 0 1 0 0 0
POINTS 712
DATA ascii
-6.423930 1.623620 12.581600 -12.254400 6.650000
-6.878280 1.656390 12.334700 -12.076800 5.930000
-7.209570 -0.252858 12.253900 -11.899200 4.980000
-6.697870 2.021170 12.872200 -12.254400 7.600000
-7.422740 0.611511 12.616200 -11.899200 7.300000
-7.540740 0.629496 13.045800 -11.988000 9.590000
-6.207550 1.675870 14.117100 -12.609600 3.820000
-7.756190 0.647482 13.418500 -11.988000 8.670000
-6.830670 0.665468 14.390500 -12.520800 8.600000
-7.971640 0.665468 13.791300 -11.988000 5.200000
-7.013340 0.784633 14.775400 -12.520800 9.420000
-7.309640 1.315240 14.592900 -12.343200 7.020000
-7.190620 1.103640 15.148900 -12.520800 7.170000
-7.494530 1.131940 15.480000 -12.520800 4.680000
-11.671000 1.419080 13.186900 -11.632800 4.730000
-6.081110 2.010810 16.926500 -13.053600 4.520000
-11.955700 1.453690 13.508500 -11.632800 4.950000
-6.234030 1.830740 17.352200 -13.053600 5.780000
-0.109155 1.698190 18.883100 1.065600 12.850000
-6.379010 1.873320 17.755700 -13.142400 9.500000
-0.116094 2.607740 20.083400 1.065600 12.760000
8.960620 0.657549 18.150200 -12.876000 7.530000
9.008140 0.671540 18.606400 -12.876000 10.250000
-0.243664 1.256280 21.075300 1.065600 6.750000
9.193780 0.816048 18.989800 -12.876000 10.270000
-0.247934 2.062450 21.444600 1.065600 7.390000
9.223980 1.215400 19.432700 -12.876000 7.430000
0.676435 1.171850 21.934200 1.154400 6.290000
0.560410 1.194820 22.367900 1.154400 7.380000
0.703047 1.164900 22.797100 1.154400 5.160000
-0.582035 1.186880 23.231000 1.065600 4.650000
-6.478600 2.012460 22.257700 -13.408800 5.430000
-6.426980 1.903640 22.731800 -13.320000 7.620000
-11.233100 1.702660 20.798700 -12.520800 4.510000
-6.543830 1.938250 23.145100 -13.320000 5.570000
8.696680 -3.613980 22.684000 -13.231200 7.200000
8.739790 -1.949690 23.332900 -13.231200 8.250000
8.691160 -2.511950 23.759000 -13.320000 10.800000
8.811480 -3.249720 24.087900 -13.320000 11.870000
8.958340 -3.303880 24.489400 -13.320000 8.610000
-5.855040 2.001770 25.989300 -13.586400 5.370000
10.031000 1.280190 24.728000 -13.142400 7.860000
-5.964540 0.650606 26.475400 -13.586400 8.970000
10.191200 1.384690 25.123000 -13.142400 6.780000
-6.059210 0.660933 26.895600 -13.586400 9.630000
9.403050 1.011270 26.820900 -13.408800 4.760000
-6.170030 1.806900 28.145300 -13.675200 4.550000
9.755080 1.026590 27.152900 -13.408800 8.130000
-6.262120 1.833870 28.565400 -13.675200 4.170000
9.899550 1.132470 27.555000 -13.408800 9.160000
-5.738470 1.860830 29.113700 -13.675200 7.190000
10.043900 1.241010 27.956700 -13.408800 7.120000
-5.649690 1.980900 29.562900 -13.675200 9.320000
-5.902400 2.103600 29.945300 -13.675200 5.590000
-5.985530 2.133230 30.367100 -13.675200 8.890000
-4.950050 1.626470 31.458000 -13.764000 6.740000
-4.771060 1.648440 31.920800 -13.852800 6.870000
11.697900 -2.150690 30.512200 -13.320000 5.000000
9.694330 -1.282360 31.705500 -13.497600 4.140000
10.001700 -1.610560 32.047100 -13.497600 5.110000
11.768600 -1.999800 31.418900 -13.231200 6.100000
10.566800 -1.631210 32.318400 -13.497600 8.300000
9.182760 1.012670 33.211000 -13.675200 9.110000
10.508300 -1.838190 32.779800 -13.408800 6.930000
10.650200 1.025330 33.222500 -13.586400 6.250000
10.522200 1.037990 33.714700 -13.586400 13.830000
10.650500 1.050650 34.125900 -13.586400 17.500000
-20.238600 -0.550700 31.551000 -11.632800 7.660000
18.957000 1.699900 32.796500 -12.432000 5.300000
19.172400 1.719210 33.169100 -12.432000 8.270000
-20.330000 -4.261010 32.237600 -0.177600 5.460000
19.385100 1.858340 33.537000 -12.432000 15.490000
-16.521900 1.878990 35.511500 -12.343200 8.190000
-20.138200 0.939765 33.632500 -11.899200 10.450000
11.291800 -1.409650 37.974500 -13.586400 7.200000
-20.359500 0.950092 34.002100 -11.899200 7.010000
11.414600 -1.424970 38.387200 -13.675200 6.660000
20.292200 -2.136900 34.490000 -12.343200 17.910000
-20.580800 0.960419 34.371700 -11.899200 7.580000
9.961140 -1.064670 39.246200 -13.675200 7.210000
20.778500 -2.159870 34.701800 -12.343200 14.720000
10.601200 -1.075990 39.524300 -13.675200 6.660000
-18.507700 1.854430 36.948700 -12.343200 7.350000
-18.984900 2.002880 37.183000 -12.343200 5.470000
-17.889400 -0.804548 41.549800 -12.698400 8.570000
-16.915500 -1.482980 42.401700 -12.964800 7.220000
-19.024700 -0.812210 41.516800 -12.698400 7.130000
20.091200 0.106945 41.498500 -12.876000 7.450000
19.955500 0.107945 42.041400 -12.876000 8.320000
20.140300 0.108944 42.430600 -12.876000 15.460000
20.654200 0.256535 42.661500 -12.876000 17.160000
10.499900 2.291950 46.606900 -13.764000 6.390000
11.438100 -1.177290 47.757900 -13.764000 7.690000
-16.257100 -1.468370 47.244000 -13.142400 9.380000
-16.397200 -1.481030 47.651200 -13.142400 6.460000
-15.530800 -0.927146 49.763400 -13.231200 7.900000
24.490500 -2.115060 48.892700 -12.698400 5.410000
-6.460720 0.996107 55.634300 -13.852800 7.370000
-6.508020 1.832740 56.041500 -13.941600 6.900000
-6.558320 1.670910 56.474700 -13.941600 7.830000
-6.608010 1.683570 56.902600 -13.852800 12.600000
-17.069400 -0.879853 57.404600 -13.408800 5.140000
22.221500 1.880160 67.964200 -13.497600 5.860000
21.957800 2.113950 68.495800 -13.497600 5.510000
16.477100 0.869538 73.138500 -13.852800 7.980000
16.572300 0.641332 73.561100 -13.852800 7.340000
15.934700 0.655991 75.464300 -13.852800 15.240000
16.607600 0.899522 75.757800 -13.852800 8.190000
16.700400 0.663321 76.181000 -13.852800 6.280000
16.793300 0.181907 76.604500 -13.852800 10.280000
17.018100 6.218840 77.630100 -13.852800 16.710000
16.647300 0.436109 78.838700 -13.852800 16.340000
16.735900 0.688974 79.258600 -13.852800 5.630000
16.824900 0.692639 79.680200 -13.852800 12.580000
16.914000 0.696304 80.101800 -13.852800 6.420000
17.003400 0.445438 80.525100 -13.852800 5.640000
17.044600 6.199020 80.720300 -13.852800 13.220000
17.137300 5.974800 81.159200 -13.852800 19.830000
16.330000 -1.501820 82.849000 -13.852800 13.810000
26.961800 1.149390 95.362200 -13.675200 10.400000
27.079000 1.154390 95.776800 -13.675200 8.090000
27.196200 1.159380 96.191400 -13.675200 6.450000
27.312300 1.474860 96.602100 -13.675200 8.340000
16.942000 1.219350 103.758000 -13.941600 8.720000
17.012000 0.897865 104.187000 -13.941600 7.270000
17.081800 -0.573705 104.614000 -13.941600 8.550000
17.151200 -0.576037 105.040000 -13.941600 7.160000
-18.031300 1.569810 105.319000 -13.941600 10.640000
-18.104800 1.244340 105.748000 -13.941600 14.620000
6.102400 0.016991 4.052210 0.000000 3.580000
6.461360 0.017991 4.290580 -1.243200 7.380000
6.820330 0.018990 4.528950 -1.243200 6.730000
7.179290 0.019990 4.767310 -1.243200 1.250000
7.150460 0.771904 4.748160 -6.216000 4.920000
7.507980 0.810499 4.985570 -6.482400 7.350000
7.858600 0.936658 5.218400 -6.660000 6.220000
7.788670 1.387100 7.311590 -9.590400 3.590000
7.368160 1.387100 7.735170 -10.123200 4.330000
8.158580 1.442580 7.541400 -9.590400 5.070000
8.147100 0.804896 7.648070 -9.768000 6.870000
8.460450 0.835853 7.942230 -9.590400 6.490000
7.814660 1.462370 8.494090 -10.300800 6.740000
8.148180 0.835853 8.262290 -9.945600 7.090000
7.714610 1.405420 9.169440 -10.656000 8.140000
8.210450 0.969127 8.787400 -10.123200 4.200000
8.014750 1.080760 9.526190 -10.656000 9.870000
8.255110 1.003740 9.327290 -10.212000 3.430000
8.214920 1.118030 9.918290 -10.744800 7.060000
-11.307200 0.773381 14.658200 -11.544000 8.060000
-11.552900 1.303640 14.976600 -11.544000 10.250000
-12.672600 1.975560 14.542800 -11.100000 7.770000
-12.954200 2.019460 14.866000 -11.100000 5.970000
18.331200 1.540660 12.792900 -8.169600 4.490000
-11.095900 1.516920 17.899300 -12.432000 11.320000
18.683700 1.570290 13.039000 -8.169600 9.900000
18.885300 1.528120 13.507000 -8.347200 12.830000
19.235000 1.556420 13.757100 -8.347200 5.610000
-10.461900 1.775760 21.191100 -12.343200 6.140000
-10.652100 1.808050 21.576400 -12.343200 4.560000
-10.969100 1.840340 21.898600 -12.343200 12.380000
-11.171000 1.564180 22.301800 -12.254400 13.230000
8.367310 -2.590180 23.866600 -12.964800 10.200000
18.734700 1.362710 18.997100 -9.945600 5.160000
19.036900 1.384690 19.303500 -9.945600 5.640000
9.867880 -0.810137 25.738900 -12.964800 6.870000
9.109570 -0.822796 26.472900 -12.964800 11.930000
18.570300 1.205040 22.072300 -10.744800 9.520000
9.174000 1.294240 27.343300 -13.142400 11.410000
18.847500 1.223020 22.401700 -10.744800 6.340000
10.902300 1.528780 34.932800 -13.231200 7.010000
10.826100 1.546760 35.407000 -13.231200 6.160000
10.909200 0.000000 39.455100 -13.231200 8.410000
11.023900 0.223885 39.869800 -13.231200 8.760000
10.594400 0.226217 40.431700 -13.408800 14.590000
19.386400 1.516910 37.969300 -12.343200 17.580000
-10.801800 1.970340 42.558200 -13.231200 11.850000
19.678600 1.053360 39.286200 -12.520800 9.200000
19.812700 0.108944 42.584600 -12.609600 9.810000
19.994500 0.000000 42.975400 -12.609600 5.490000
20.176200 -0.110943 43.366000 -12.609600 10.490000
10.608100 -1.187610 48.390200 -13.408800 14.610000
10.323800 -1.197940 48.892000 -13.408800 14.820000
20.457200 -1.569640 49.335300 -12.876000 8.930000
-15.745900 1.124350 51.497300 -12.876000 10.630000
23.836300 -1.607620 49.234100 -12.520800 8.730000
23.256300 -1.620270 49.986200 -12.609600 5.250000
24.554100 -3.358640 50.716700 -12.520800 7.910000
-15.707500 -0.848204 55.556600 -13.053600 10.170000
-6.371380 2.248290 57.777800 -13.497600 10.560000
-6.082010 2.264950 58.241900 -13.497600 9.070000
14.639100 0.904519 76.601400 -13.497600 7.090000
16.699900 0.904519 76.178700 -13.497600 6.510000
16.201300 0.909516 76.726700 -13.497600 4.680000
16.290300 0.914514 77.148300 -13.497600 6.070000
16.468400 0.924508 77.991400 -13.408800 6.620000
16.469200 0.431445 77.995500 -13.497600 7.690000
16.557900 0.681645 78.415400 -13.497600 7.490000
17.345100 1.190020 79.121600 -13.408800 6.960000
16.677100 6.819110 78.980100 -13.497600 8.120000
16.450100 0.949495 80.195700 -13.497600 6.800000
16.536700 0.954492 80.617800 -13.497600 9.490000
16.623300 0.959490 81.039900 -13.497600 8.110000
17.269500 0.969484 81.785600 -13.408800 7.890000
17.481100 6.818500 82.787500 -13.497600 7.580000
17.625300 5.772900 85.924800 -13.408800 5.620000
17.902600 4.274180 87.276600 -13.497600 16.950000
17.078300 2.212710 104.593000 -13.586400 14.200000
17.147700 2.221710 105.018000 -13.586400 9.580000
17.218200 1.900270 105.450000 -13.586400 12.450000
17.290100 0.580701 105.890000 -13.586400 11.800000
-10.793400 1.753380 118.857000 -13.586400 6.270000
-10.832400 1.759710 119.286000 -13.586400 9.350000
-10.909100 2.518530 120.131000 -13.497600 9.580000
-10.909100 2.518530 120.131000 -13.586400 9.330000
-9.685920 2.626470 125.422000 -13.586400 12.770000
-9.719100 2.635470 125.851000 -13.586400 12.350000
-10.724500 3.036160 126.193000 -13.586400 10.060000
-10.761000 3.046490 126.623000 -13.586400 7.640000
7.717160 0.571461 8.101550 -10.123200 5.610000
8.008520 0.571461 7.813660 -9.856800 5.550000
7.920560 0.871738 8.477130 -10.300800 9.440000
8.316540 0.593440 8.114180 -9.856800 8.730000
8.213910 0.904024 8.791100 -10.300800 9.550000
8.448040 0.904024 8.566350 -10.034400 8.560000
7.722020 1.303450 9.178260 -10.833600 7.840000
7.800060 1.192110 9.127270 -10.656000 7.120000
8.663880 0.936311 8.956180 -10.123200 6.920000
7.997810 1.350000 9.506050 -10.833600 9.910000
8.032440 1.277260 10.047700 -10.922400 7.430000
8.212340 1.362410 10.992400 -11.188800 4.840000
8.381360 1.404990 11.400800 -11.188800 4.070000
8.521770 1.447560 11.828900 -11.366400 5.870000
8.714460 0.582891 12.295100 -11.455200 7.870000
8.526550 1.445460 16.386600 -12.432000 7.430000
8.724840 1.479070 16.767700 -12.432000 6.460000
8.150530 1.632230 17.518500 -12.609600 6.290000
9.208840 1.730580 19.400800 -12.609600 10.640000
9.240220 1.765200 19.860600 -12.698400 8.110000
-5.659390 1.886140 21.598100 -13.231200 8.850000
-10.656800 1.659180 21.586000 -12.432000 8.090000
-10.844800 1.764580 21.966700 -12.432000 11.490000
-11.032500 1.872620 22.347000 -12.432000 15.080000
-11.047200 1.904910 22.818100 -12.432000 14.200000
18.595800 1.726210 18.496300 -10.034400 7.760000
8.062080 -1.983300 24.029200 -13.142400 8.770000
18.718600 1.754510 18.980800 -10.123200 7.490000
19.020500 1.782810 19.286900 -10.123200 8.640000
9.389070 -1.726210 24.490000 -12.964800 9.180000
18.739600 1.428650 20.766900 -10.478400 10.890000
9.717890 0.000000 25.347700 -12.964800 11.450000
19.027900 1.450630 21.086400 -10.478400 9.110000
9.642130 -2.215150 25.741900 -13.142400 6.700000
-5.980750 2.098630 27.281900 -13.408800 8.420000
10.349000 -2.098630 25.941700 -12.964800 5.690000
10.152000 -2.130910 26.480100 -12.964800 5.620000
-5.148230 2.292350 30.070400 -13.497600 10.580000
-5.221930 2.228940 30.500800 -13.497600 4.990000
-5.473130 2.259900 30.893300 -13.497600 10.060000
-5.972530 2.094090 31.252200 -13.497600 9.410000
9.527120 1.050650 34.456400 -13.408800 9.930000
19.280000 1.930100 30.572500 -11.899200 7.220000
10.778800 1.063310 34.537100 -13.231200 7.930000
10.434800 1.075960 35.092100 -13.320000 13.400000
-4.545460 2.776650 36.672600 -13.586400 6.000000
10.830800 1.088620 35.422600 -13.231200 14.950000
-4.598310 2.808930 37.099000 -13.586400 11.640000
-4.361810 2.841220 37.560200 -13.586400 6.710000
19.446100 1.075990 36.005600 -12.343200 14.850000
19.649100 1.215210 36.381500 -12.343200 10.700000
19.853800 1.227860 36.760500 -12.343200 12.020000
-7.410440 1.834530 43.283700 -13.497600 10.840000
19.645400 0.651978 39.792700 -12.520800 9.870000
-7.737470 1.578200 43.674500 -13.497600 7.270000
19.835100 0.796885 40.177000 -12.520800 8.840000
-7.812590 1.593520 44.098600 -13.497600 8.260000
19.993800 -0.403123 42.973900 -12.698400 9.970000
-16.454400 -2.375990 50.325700 -12.964800 7.050000
19.903000 -2.375990 49.064200 -12.876000 6.490000
20.445400 -2.395310 49.307000 -12.876000 6.240000
20.622100 -1.582300 49.733200 -12.876000 6.050000
20.787100 -1.594960 50.131100 -12.876000 7.540000
20.955100 -1.311540 50.536200 -12.876000 6.020000
21.512100 -1.321870 50.769900 -12.787200 9.490000
24.335500 -4.369990 50.265200 -12.609600 8.830000
20.749300 -1.472410 52.011600 -12.876000 7.480000
23.739000 -4.403610 51.023800 -12.609600 8.980000
-14.948900 -2.053190 55.734100 -13.231200 6.290000
-15.498200 -1.394160 56.051600 -13.142400 7.610000
-15.613000 -1.404480 56.466800 -13.142400 8.400000
14.474200 1.848550 75.738300 -13.586400 5.780000
14.555000 1.858880 76.161400 -13.586400 6.220000
16.112300 0.904519 76.305100 -13.497600 7.860000
16.792200 0.909516 76.599500 -13.497600 6.100000
16.884400 0.914514 77.020400 -13.497600 8.470000
16.379300 0.919511 77.569800 -13.497600 7.880000
17.069000 0.924508 77.862200 -13.497600 7.460000
17.160500 1.177360 78.279900 -13.497600 16.590000
16.645700 1.183690 78.831400 -13.497600 19.470000
16.732900 1.691020 79.244200 -13.497600 17.030000
16.914000 0.696304 80.101800 -13.586400 14.750000
17.003000 0.699968 80.523400 -13.586400 15.970000
17.092000 0.703633 80.944900 -13.586400 10.010000
17.181400 0.450102 81.368300 -13.586400 7.270000
17.270100 0.710963 81.788100 -13.586400 14.820000
17.359100 0.714627 82.209700 -13.586400 20.110000
17.362500 5.955260 84.643500 -13.497600 11.470000
17.448900 5.984890 85.064600 -13.497600 8.900000
17.957700 1.892600 104.889000 -13.586400 8.050000
18.032600 0.908859 105.327000 -13.586400 13.810000
-11.604700 1.772370 120.080000 -13.675200 8.150000
-11.646100 1.778700 120.508000 -13.675200 9.490000
-10.690400 1.464220 125.792000 -13.675200 7.950000
-10.725900 2.252730 126.210000 -13.675200 4.690000
-10.762400 2.260400 126.639000 -13.675200 7.340000
30.555800 1.867310 123.374000 -13.408800 6.930000
16.449800 4.496520 170.215000 -13.675200 5.550000
16.492200 4.110180 170.654000 -13.675200 5.250000
8.015200 0.557502 8.414440 -10.212000 7.410000
8.227600 0.578151 8.805750 -10.300800 5.130000
8.060120 1.493990 9.431590 -10.833600 7.820000
8.186680 1.545510 9.884180 -10.922400 8.910000
8.010030 1.532050 11.118600 -11.455200 4.270000
8.376050 1.492480 11.393600 -11.455200 3.270000
8.818030 1.402470 11.615300 -11.277600 4.170000
-7.052030 0.371775 13.811800 -12.254400 5.660000
9.051360 0.922984 12.564100 -11.544000 6.960000
8.304830 1.955180 15.960500 -12.432000 5.970000
9.825730 2.001730 15.580800 -12.165600 5.640000
-6.007610 1.512690 18.374200 -13.053600 6.470000
-6.145300 1.362900 18.795400 -13.053600 8.100000
-6.303900 1.166790 19.664500 -13.053600 8.440000
8.374070 1.863390 19.763300 -12.876000 6.920000
9.718580 0.985168 19.685500 -12.609600 6.800000
-10.588900 1.629550 21.139700 -12.432000 3.850000
-6.094730 2.031220 23.259500 -13.320000 4.730000
-10.781400 1.659180 21.524000 -12.432000 10.370000
-10.849400 1.613020 21.976000 -12.432000 11.860000
-11.039700 1.641310 22.361600 -12.432000 9.280000
18.611700 1.340730 18.512200 -10.123200 6.720000
8.848650 -2.236060 24.189500 -13.142400 9.000000
18.734700 1.362710 18.997100 -10.212000 7.530000
8.974050 -2.920470 24.532300 -13.142400 10.760000
7.638080 -2.920470 24.980500 -13.231200 10.410000
8.968020 -3.194040 24.962100 -13.142400 10.740000
8.916900 -3.245560 25.434200 -13.142400 9.370000
9.662270 -1.321490 25.795700 -13.053600 7.710000
-5.089340 1.666500 27.491800 -13.497600 5.490000
9.770270 -2.939740 26.084000 -13.053600 7.250000
-5.335560 0.923367 27.919100 -13.497600 4.440000
10.170400 -1.274920 26.528000 -12.964800 4.770000
-6.180010 0.758859 28.190900 -13.408800 5.930000
-6.047550 1.313560 28.640200 -13.408800 5.540000
-5.738470 1.860830 29.113700 -13.497600 5.620000
10.047300 0.965339 27.966400 -13.142400 5.510000
10.190700 1.165780 28.365400 -13.142400 5.630000
-5.640940 1.486670 30.471400 -13.497600 6.960000
-5.719290 1.507320 30.894600 -13.497600 9.150000
-5.794020 1.897250 31.298300 -13.497600 9.190000
-5.197730 2.022650 31.832600 -13.586400 10.200000
18.777200 1.506730 27.835100 -11.721600 7.620000
19.018000 1.526040 28.191900 -11.721600 6.220000
19.038100 1.545360 28.696400 -11.810400 4.920000
19.276100 1.564680 29.055100 -11.810400 6.140000
10.579900 0.951406 34.601800 -13.408800 5.920000
10.705800 0.962732 35.013700 -13.408800 7.950000
10.831800 0.974058 35.425600 -13.320000 9.250000
10.945900 1.999030 35.798900 -13.320000 8.440000
10.833600 1.139260 37.219600 -13.408800 13.670000
19.128800 1.738530 33.690300 -12.254400 8.400000
10.955500 0.939765 37.638600 -13.408800 7.180000
19.343900 1.636690 34.069200 -12.254400 7.230000
11.075900 0.950092 38.052200 -13.408800 6.400000
19.556500 1.654680 34.443500 -12.254400 8.730000
19.170500 0.854503 36.159100 -12.432000 8.490000
-8.545850 3.327920 41.661600 -13.497600 6.130000
19.390300 1.253180 37.976900 -12.520800 7.890000
-8.983600 1.816550 42.544800 -13.408800 8.400000
-7.993560 1.834530 43.179800 -13.497600 5.270000
19.450000 1.155280 39.397000 -12.609600 4.930000
19.640700 1.166600 39.783200 -12.609600 8.760000
-7.811700 1.732020 44.093500 -13.497600 6.740000
19.832500 1.074020 40.171800 -12.609600 5.370000
20.140300 0.000000 42.430800 -12.698400 5.890000
20.325100 0.000000 42.820000 -12.698400 6.180000
20.506600 -0.850522 43.202500 -12.698400 4.980000
-3.619630 1.808030 50.685000 -13.675200 13.120000
-3.945710 1.823350 51.092500 -13.675200 11.720000
-3.980520 1.079370 51.543300 -13.675200 12.530000
-15.910900 -1.370480 49.632900 -13.053600 9.950000
-15.656300 -1.381800 50.165300 -13.053600 8.890000
20.078000 -1.404460 49.495800 -12.964800 8.240000
20.223700 -2.581030 49.854900 -12.964800 10.910000
12.828200 2.941110 53.561900 -13.497600 6.710000
23.830600 -1.160320 50.205300 -12.609600 10.640000
23.924000 -5.017370 50.402100 -12.609600 6.980000
-15.385300 -1.026760 55.643600 -13.231200 9.170000
-15.499200 -1.214290 56.055500 -13.231200 7.570000
-14.851000 -1.223290 56.676200 -13.320000 6.730000
-13.745800 -1.414810 57.393200 -13.231200 9.160000
32.519000 0.644997 68.509600 -12.609600 7.480000
15.756200 0.884530 74.618800 -13.586400 6.080000
32.704500 0.412788 68.900300 -12.698400 7.160000
16.423100 0.889527 74.916000 -13.586400 6.040000
15.935100 0.417452 75.465900 -13.586400 7.530000
15.585200 0.419784 75.978900 -13.586400 8.440000
16.792200 0.909516 76.599500 -13.586400 5.620000
16.884400 0.914514 77.020400 -13.586400 8.320000
16.976700 0.919511 77.441300 -13.586400 10.930000
17.069000 0.924508 77.862200 -13.586400 9.330000
17.161800 0.681645 78.285500 -13.586400 7.330000
17.254000 0.685309 78.706400 -13.586400 6.820000
17.346300 0.688974 79.127300 -13.586400 8.900000
16.824900 0.692639 79.680200 -13.586400 9.140000
16.913400 0.949495 80.099300 -13.586400 10.780000
17.002500 0.954492 80.520900 -13.586400 8.710000
17.092000 0.703633 80.944900 -13.586400 12.710000
17.181000 0.707298 81.366500 -13.586400 11.160000
17.270100 0.710963 81.788100 -13.586400 8.780000
17.359100 0.714627 82.209700 -13.586400 16.030000
17.601700 4.549520 83.358700 -13.586400 14.740000
17.223100 2.519020 83.963900 -13.586400 15.440000
17.313300 1.798950 84.403800 -13.586400 11.770000
18.069000 1.555460 85.572000 -13.586400 12.630000
18.158000 1.563120 85.993500 -13.586400 19.850000
17.695900 6.891140 86.269100 -13.586400 21.710000
17.798100 5.829500 86.767200 -13.586400 19.070000
27.313400 1.164380 96.606000 -13.408800 6.680000
27.430700 1.169380 97.020600 -13.408800 8.860000
27.547900 1.174380 97.435200 -13.408800 8.650000
17.150300 1.234340 105.034000 -13.675200 8.350000
17.220700 0.578369 105.465000 -13.675200 8.180000
17.290300 0.000000 105.892000 -13.675200 6.920000
-13.919200 2.842890 107.219000 -13.675200 5.830000
-13.974700 2.854220 107.646000 -13.675200 6.170000
-10.909800 2.145460 120.139000 -13.675200 6.100000
-10.948800 2.153120 120.568000 -13.675200 6.060000
-9.720160 1.854660 125.865000 -13.764000 5.080000
-9.753340 1.860990 126.295000 -13.675200 6.620000
-9.786510 1.867310 126.724000 -13.675200 7.950000
-43.571800 -19.726000 162.449000 -13.142400 5.280000
16.450800 4.099850 170.225000 -13.764000 7.370000
16.492200 4.110180 170.654000 -13.764000 9.420000
16.534800 3.588910 171.095000 -13.764000 7.470000
7.714910 0.632009 8.099190 -10.300800 4.600000
7.781870 0.656317 8.623730 -10.567200 4.130000
7.930240 0.656317 8.487490 -10.389600 4.790000
8.242730 1.783380 9.797160 -11.011200 3.430000
8.299330 1.319970 10.932100 -11.277600 3.380000
8.866870 1.673390 13.144100 -11.721600 7.870000
9.002200 1.718620 13.569100 -11.721600 5.560000
-7.866720 0.597570 14.838100 -12.076800 5.770000
-6.675130 1.732460 16.732400 -12.698400 8.120000
-6.382810 1.756580 17.766300 -12.876000 7.840000
-6.527870 1.796500 18.170100 -12.876000 7.130000
-6.687290 1.301730 18.613800 -12.876000 7.710000
-11.222700 1.777320 17.796000 -12.343200 10.500000
-11.311400 1.813590 18.246900 -12.343200 8.350000
-5.674720 1.765200 21.157100 -13.231200 5.300000
-5.788430 1.678900 21.581000 -13.231200 7.120000
8.556970 1.834420 21.094400 -12.964800 5.250000
-10.779100 1.733620 21.519300 -12.432000 4.800000
-6.249470 0.578317 23.299900 -13.320000 6.340000
-11.140100 1.764580 21.818400 -12.432000 4.500000
-6.223870 0.588644 23.752400 -13.320000 8.320000
-11.338000 1.718430 22.206000 -12.432000 9.180000
-6.312400 2.103770 24.090200 -13.320000 10.920000
-11.533500 1.748060 22.588900 -12.432000 9.530000
9.044530 -2.824710 23.591300 -13.053600 5.850000
9.018710 -2.713610 24.077600 -13.053600 4.930000
8.780570 -7.776420 24.003400 -13.231200 7.060000
9.167780 -7.337790 24.475500 -13.231200 6.830000
7.304380 -7.337790 25.094700 -13.408800 10.420000
8.973490 -1.133090 25.595600 -13.142400 10.850000
8.764400 -1.151080 26.122500 -13.231200 8.700000
9.073600 2.466490 27.751500 -13.320000 6.060000
10.185100 1.538550 28.349700 -13.231200 10.190000
-5.639400 1.654370 30.463100 -13.497600 5.930000
-5.716750 1.774490 30.880900 -13.497600 7.170000
-5.553620 1.798790 31.347700 -13.497600 6.380000
-4.705660 2.076580 32.778200 -13.586400 7.860000
18.809100 1.105240 28.351200 -11.810400 5.070000
19.047200 1.119230 28.710100 -11.810400 7.750000
19.285300 1.133220 29.069000 -11.810400 8.850000
10.190700 0.857148 34.271400 -13.408800 8.510000
10.580500 0.867475 34.603800 -13.408800 8.150000
10.706500 0.877802 35.015700 -13.408800 8.160000
10.832400 0.888129 35.427700 -13.408800 12.450000
18.862900 1.978130 33.826600 -12.254400 16.980000
10.822900 2.067960 37.182700 -13.408800 16.760000
19.072500 2.000110 34.202500 -12.254400 6.580000
19.285100 1.899640 34.583600 -12.254400 8.680000
11.064700 2.022090 38.013600 -13.408800 8.100000
19.491700 2.044070 34.954200 -12.254400 6.960000
-20.312300 1.177230 34.524300 -11.810400 6.890000
10.902300 -0.340822 38.560700 -13.408800 9.160000
-20.530700 1.189890 34.895500 -11.810400 7.310000
-8.648610 2.064820 42.162600 -13.497600 17.270000
-8.406620 2.085470 42.650300 -13.497600 16.850000
-8.240740 2.106120 43.120900 -13.497600 7.520000
19.836100 0.658308 40.179000 -12.698400 12.590000
-18.155400 -0.395794 42.847800 -12.609600 6.360000
19.812700 0.000000 42.584700 -12.787200 8.100000
-18.323500 -0.399458 43.244600 -12.609600 5.620000
19.994500 0.000000 42.975400 -12.787200 9.550000
20.176200 0.110943 43.366000 -12.787200 4.980000
11.498500 -0.110943 46.427100 -13.586400 6.330000
20.358000 0.111943 43.756700 -12.787200 7.740000
-3.173390 2.086330 49.839900 -13.764000 15.190000
-2.910110 2.104320 50.287200 -13.764000 10.310000
-2.935350 1.965180 50.723300 -13.764000 13.710000
-16.802800 -2.436490 47.927700 -12.964800 17.570000
-3.255870 1.981830 51.135200 -13.764000 10.110000
-15.635400 -2.457140 48.773300 -13.053600 10.020000
-16.805600 -2.477790 48.838000 -12.964800 15.260000
-16.945600 -2.498440 49.245000 -12.964800 7.850000
-16.719100 -0.934808 49.831500 -12.964800 8.730000
-16.856100 -0.942470 50.240000 -12.964800 6.140000
12.413900 3.425010 53.187500 -13.586400 7.780000
12.511700 3.451980 53.606300 -13.586400 6.060000
15.720600 0.165915 69.780300 -13.586400 9.030000
15.815300 0.166915 70.200700 -13.586400 7.290000
15.501500 0.167914 70.711800 -13.586400 7.270000
-14.581100 1.107730 73.976000 -13.497600 5.570000
-14.664400 1.114060 74.398800 -13.497600 5.590000
16.330800 0.884530 74.495100 -13.586400 8.800000
16.422400 1.126720 74.913000 -13.586400 6.370000
15.931800 1.610060 75.450600 -13.586400 7.980000
16.605100 1.619060 75.746400 -13.586400 5.240000
16.112300 0.904519 76.305100 -13.586400 5.580000
16.201800 0.666986 76.729100 -13.586400 5.370000
16.468900 0.677980 77.993800 -13.586400 6.360000
16.558400 0.185905 78.418000 -13.586400 7.240000
16.647500 0.186905 78.839600 -13.586400 7.360000
16.736300 0.438441 79.260300 -13.586400 5.360000
16.824900 0.692639 79.680200 -13.586400 6.310000
16.450100 0.949495 80.195700 -13.675200 9.970000
16.537200 0.699968 80.620300 -13.675200 10.330000
16.623800 0.703633 81.042400 -13.586400 5.530000
17.181000 0.707298 81.366500 -13.586400 7.910000
16.754200 6.005760 81.677900 -13.586400 9.000000
16.840500 6.036720 82.099000 -13.586400 11.420000
16.943700 4.764370 82.602000 -13.586400 13.060000
15.183800 0.471091 85.705900 -13.675200 9.840000
15.921500 1.014460 86.005500 -13.675200 7.740000
18.160700 0.475755 86.005900 -13.586400 7.310000
17.708000 6.073770 86.328000 -13.586400 14.040000
17.798100 5.829500 86.767200 -13.586400 18.020000
18.388200 5.857800 87.083500 -13.675200 16.790000
26.005600 1.785330 96.956800 -13.497600 11.260000
26.117200 1.792990 97.372900 -13.408800 8.900000
17.081800 -0.573705 104.614000 -13.675200 9.630000
17.151200 -0.576037 105.040000 -13.675200 11.030000
17.220900 -0.247874 105.466000 -13.675200 11.920000
18.105300 0.912524 105.752000 -13.675200 8.250000
-11.186800 1.915590 107.125000 -13.675200 8.310000
-11.853000 1.923250 107.487000 -13.675200 8.040000
-12.523900 1.930910 107.845000 -13.675200 9.050000
16.451900 3.570920 170.237000 -13.764000 7.180000
16.494400 3.049620 170.676000 -13.764000 9.800000
7.941090 1.080760 9.587680 -11.188800 3.410000
-7.066050 1.720000 11.204700 -11.632800 3.460000
7.663810 1.751570 12.362800 -12.165600 3.580000
8.213820 1.211410 12.590400 -11.988000 8.320000
-6.798450 2.187570 13.770600 -12.432000 5.190000
-7.088780 2.187570 13.623400 -12.254400 5.350000
8.448500 1.246020 12.950100 -11.988000 7.760000
-7.247500 -0.419072 14.194600 -12.254400 7.480000
-8.049960 1.477130 13.682300 -11.899200 6.760000
-6.264630 0.784633 15.108000 -12.698400 4.380000
-7.443380 -0.430398 14.578200 -12.254400 7.380000
-8.161290 1.466620 14.119400 -11.899200 5.940000
-6.990800 0.896118 15.255700 -12.520800 4.420000
-6.438910 1.915060 15.873000 -12.787200 4.830000
-7.170050 0.919096 15.646900 -12.520800 8.400000
-7.225470 0.942073 16.094200 -12.520800 8.530000
-6.099230 1.453690 16.976900 -12.964800 4.950000
-7.274420 0.965050 16.543300 -12.609600 7.090000
-0.106704 1.602510 18.459000 1.154400 3.470000
-6.344810 1.488300 17.344800 -12.964800 3.270000
0.000000 1.639780 18.888600 1.154400 14.010000
0.000000 1.677050 19.317800 1.154400 18.070000
-6.286950 1.632230 18.270200 -13.053600 6.860000
0.000000 1.424050 19.770200 1.154400 17.810000
-6.287180 1.485180 18.739100 -13.053600 7.440000
-0.778420 1.392520 20.189400 1.154400 12.770000
-6.428060 1.330030 19.159000 -13.142400 8.370000
-0.794983 1.422150 20.618900 1.065600 6.970000
-10.988500 1.852570 17.424600 -13.675200 4.750000
-0.404694 2.151160 21.000300 1.154400 5.470000
-11.220500 1.826120 17.792500 -13.675200 5.490000
-11.249700 1.011760 17.838900 -12.876000 6.410000
-0.536816 2.195060 21.426200 1.154400 7.260000
0.673874 2.238970 21.851200 1.154400 6.350000
9.144320 1.053060 19.955300 -12.876000 7.350000
-0.129338 1.194820 22.374500 1.154400 8.000000
-0.131701 1.570290 22.783300 1.154400 9.030000
-5.894210 1.975190 21.975400 -13.408800 7.100000
8.572500 1.217800 21.132700 -13.142400 4.400000
8.720030 1.815230 21.496400 -13.053600 5.560000
8.456460 1.903640 22.057400 -13.231200 4.480000
-10.584200 1.775760 21.130300 -12.609600 3.730000
-10.776600 1.808050 21.514400 -12.609600 4.900000
-6.026740 1.764580 23.744900 -13.408800 12.000000
-10.969100 1.840340 21.898600 -12.609600 6.400000
-6.125320 2.161530 24.133300 -13.408800 13.710000
-11.164100 1.795540 22.287900 -12.609600 7.090000
7.876640 -1.983300 24.090600 -13.320000 11.080000
9.041160 -2.016920 24.137500 -13.231200 5.550000
7.794870 -2.516190 24.976100 -13.320000 7.140000
9.642220 -3.706710 24.169900 -13.053600 8.100000
7.579550 -2.557440 25.490100 -13.408800 6.080000
9.369050 -0.557675 25.012900 -13.231200 8.690000
9.520160 -0.566670 25.416300 -13.231200 8.700000
9.868730 -0.724881 25.741100 -13.231200 11.160000
9.110350 -0.736207 26.475200 -13.320000 8.770000
9.035780 1.362780 26.931300 -13.408800 5.220000
10.320500 1.450630 26.461000 -13.053600 5.910000
9.172680 1.383430 27.339400 -13.408800 5.050000
-5.250440 1.980900 29.636400 -13.675200 3.970000
-5.325450 2.009200 30.059800 -13.675200 4.810000
10.336300 1.182440 28.770600 -13.408800 7.370000
-5.224160 2.037490 30.513800 -13.675200 5.270000
-5.475460 2.065790 30.906500 -13.675200 5.980000
-5.790570 2.192480 31.279700 -13.675200 9.820000
-6.051980 2.222110 31.667900 -13.675200 9.870000
-4.830520 2.150690 32.318700 -13.764000 6.700000
-8.892240 2.049610 31.451300 -13.320000 5.040000
-10.410200 1.164490 31.027900 -13.142400 8.450000
-4.894080 2.178990 32.743900 -13.764000 6.730000
-10.547200 1.179820 31.436100 -13.142400 6.880000
11.334500 -2.414690 31.549100 -13.320000 5.680000
-5.734290 2.025440 33.493500 -13.675200 6.000000
9.951400 -0.710586 32.546300 -13.497600 6.050000
11.507000 -0.710586 32.029400 -13.320000 5.320000
-5.806870 2.051080 33.917400 -13.675200 6.680000
10.077400 -0.719581 32.958300 -13.497600 6.960000
11.625100 -2.476600 32.358000 -13.231200 7.690000
-18.577700 -2.292180 29.458900 -11.632800 6.420000
-17.882400 -2.211430 30.394200 -11.810400 8.860000
-18.580300 -2.211430 29.972600 -11.632800 7.610000
10.654400 0.414779 34.138300 -13.497600 6.480000
10.581900 0.643638 34.608300 -13.497600 7.790000
10.707200 0.764555 35.018200 -13.497600 7.910000
-18.362300 -5.501290 31.209900 -0.266400 7.030000
10.833200 0.773550 35.430100 -13.497600 9.240000
-18.578400 -5.566010 31.577100 -0.266400 16.960000
19.209200 1.699900 32.649400 -12.254400 7.760000
10.321600 1.978130 37.329800 -13.586400 7.420000
18.865800 1.858340 33.831800 -12.432000 8.180000
11.161600 2.000110 37.536500 -13.497600 7.850000
19.075500 1.878990 34.207700 -12.432000 6.640000
19.285100 1.899640 34.583600 -12.432000 5.620000
-20.095600 1.042020 34.156000 -11.899200 5.170000
19.497500 1.796480 34.964600 -12.432000 8.280000
-20.047400 1.053340 34.682800 -11.899200 9.120000
-20.262900 1.064670 35.055700 -11.899200 7.490000
19.646000 1.582130 35.878200 -12.432000 6.210000
-18.107900 1.582130 36.678500 -12.254400 13.460000
-20.478500 1.075990 35.428600 -11.899200 9.850000
10.481700 -1.087320 40.001600 -13.675200 5.710000
20.131700 1.598790 36.101800 -12.432000 7.880000
-20.694100 1.087320 35.801600 -11.810400 15.990000
-17.330200 -0.534716 42.722000 -12.787200 16.590000
-17.490600 -0.827535 43.117300 -12.787200 5.890000
19.812400 0.254203 42.584100 -12.876000 7.000000
19.994400 0.109944 42.975300 -12.876000 7.080000
20.358000 0.111943 43.756700 -12.876000 6.330000
23.132000 1.166960 42.830300 -12.520800 10.210000
23.336700 1.177290 43.209300 -12.520800 9.860000
-16.307000 -1.070380 48.603300 -13.142400 16.510000
-16.444000 -1.079370 49.011700 -13.142400 16.080000
-15.242000 -1.088370 49.849400 -13.231200 15.690000
-6.605100 2.392090 56.877500 -13.852800 7.900000
-6.654760 2.410070 57.305200 -13.852800 8.130000
-6.704420 2.428060 57.732800 -13.852800 7.880000
15.720400 0.387134 69.779500 -13.764000 8.380000
15.815100 0.389466 70.199800 -13.764000 8.460000
16.453800 0.167914 70.496300 -13.675200 9.750000
-14.582600 0.174911 73.983800 -13.675200 5.970000
-14.666000 0.175910 74.406600 -13.675200 7.980000
16.331400 0.648662 74.497500 -13.764000 8.100000
15.843800 1.363900 75.033600 -13.764000 7.480000
15.933600 1.133050 75.458900 -13.764000 6.830000
14.997700 1.139380 76.089600 -13.764000 8.390000
17.140000 0.904519 76.080800 -13.764000 9.140000
16.792200 0.909516 76.599500 -13.764000 10.110000
16.290300 0.914514 77.148300 -13.764000 6.750000
16.379800 0.674315 77.572200 -13.764000 5.430000
16.468400 0.924508 77.991400 -13.764000 6.720000
16.557400 0.929506 78.413000 -13.764000 7.910000
16.646400 0.934503 78.834600 -13.764000 6.030000
16.913400 0.949495 80.099300 -13.764000 6.620000
17.003400 0.445438 80.525100 -13.764000 7.790000
17.092400 0.447770 80.946700 -13.764000 10.110000
16.711000 0.192902 81.467200 -13.764000 12.700000
16.750400 6.263600 81.659300 -13.764000 12.050000
16.836700 6.295880 82.080300 -13.764000 8.320000
17.399700 6.328170 82.402000 -13.764000 8.980000
17.040200 3.805450 83.072300 -13.764000 16.100000
17.134900 2.770100 83.533900 -13.764000 19.080000
26.755400 0.853888 96.765300 -13.586400 21.350000
26.870200 0.857553 97.180600 -13.586400 17.400000
26.985000 0.861218 97.595900 -13.586400 11.960000
17.081400 -0.901530 104.612000 -13.852800 13.970000
17.150800 -0.905195 105.037000 -13.852800 12.760000
17.220300 -0.908859 105.463000 -13.852800 10.140000
-11.807600 -0.249873 107.076000 -13.852800 10.190000
-12.476000 0.585366 107.432000 -13.852800 10.680000
-10.486700 0.252871 108.512000 -13.941600 9.380000
16.454400 1.983940 170.263000 -13.941600 6.930000
16.495900 1.988940 170.691000 -13.941600 6.320000
16.537300 1.993940 171.120000 -13.941600 5.510000
