VERSION .7
FIELDS x y z velocity SNR
SIZE 4 4 4 4 4
TYPE F F F F F
COUNT 1 1 1 1 1
WIDTH 157
HEIGHT 1
VIEWPOINT 0 0 0 1 0 0 0
POINTS 157
DATA ascii
-7.86920759252646 7.89713505209543 1.84055272471595 -4.95087063333527 6.47101713972414
-1.51798750363471 11.4113596409582 1.53135934371208 2.63015002395936 21.4414446408307
0.898601960357007 11.5500530093096 0.810719652553457 2.63015002395936 21.4414446408307
1.3432088557152 11.4662044301845 1.2611194595276 2.63015002395936 21.4414446408307
3.23496705728522 11.1241268484002 0.810719652553457 2.63015002395936 21.4414446408307
3.4974812288143 10.7162569745039 -2.79247880323968 2.63015002395936 21.4414446408307
-8.86287522971524 6.85110744772387 -3.06271868742417 2.78486473125109 16.2509481171111
-1.51463774197464 11.3861780535452 1.71151926650174 2.78486473125109 16.2509481171111
0.806587450550433 11.5259081869709 1.17103949813277 2.78486473125109 16.2509481171111
1.32952294555282 11.3493756562621 2.07183911208105 2.78486473125109 16.2509481171111
3.49043892247888 10.6946793992587 -2.88255876463451 2.78486473125109 16.2509481171111
6.3195409212248 9.3865685406257 2.61231888045002 2.78486473125109 16.2509481171111
0.923780832716315 11.8736860785598 0.64760188462228 2.47543531666763 16.44510277804
6.43357005555828 9.75092361140779 2.40537842859704 2.47543531666763 16.44510277804
6.47218900298092 9.8094557176908 2.03532020881288 2.63015002395936 152.558348130213
6.47218900298092 9.8094557176908 2.03532020881288 2.78486473125109 117.369769022113
7.76911832058714 9.04549337266196 0.277543664838121 2.93957943854282 9.80644055261654
6.75357566895867 10.0312509565483 1.89898296994503 2.47543531666763 43.2399132627931
7.87224001173727 9.35661270538296 -0.56969489098351 2.47543531666763 43.2399132627931
6.66777727746863 10.1058955337411 1.80403382144778 2.63015002395936 458.975221071156
6.6597760068898 10.0937685533034 1.89898296994503 2.78486473125109 360.514961889055
6.6235474782314 10.0388594418069 2.27877956393404 2.93957943854282 25.2007567911933
0.568262673127066 12.1970294828558 2.9215122614539 1.54714707291727 8.14685969297997
0.923279109832084 11.8672372545371 3.99273342398699 1.54714707291727 8.14685969297997
5.63200256997571 10.4863869574755 -3.99273342398699 1.54714707291727 8.14685969297997
0.918073264938161 11.8003246646078 4.18750090808392 1.701861780209 5.00729227662827
5.68826143128721 11.2920359309285 2.39564005439219 0.928288243750363 16.4131861161161
5.79480361313923 11.2585495765186 2.29582171879252 1.08300295104209 14.9250567613429
-1.9553474594358 12.4517725596294 2.59527672559155 1.39243236562554 9.2181094272193
6.24584543235649 11.1513706401476 1.49727503399512 1.39243236562554 9.2181094272193
0.569353845960343 12.2204501082949 3.99273342398699 1.54714707291727 14.1649784580151
1.0320748776954 12.0519949741572 4.39200676638569 1.54714707291727 14.1649784580151
6.63612461469182 10.9094742180059 -1.5970933695948 1.54714707291727 14.1649784580151
1.0320748776954 12.0519949741572 4.39200676638569 1.701861780209 5.74681907272862
-0.099046636040176 12.7689062718364 1.5970933695948 2.01129119479245 5.28469107670063
6.55940946564265 11.0065825527611 1.1978200271961 2.01129119479245 5.28469107670063
6.98202661625635 10.7985043720461 0.499091677998374 2.01129119479245 5.28469107670063
8.78163499394686 9.40205819904607 0.299455006799025 2.63015002395936 7.3769985484818
7.58336030818256 10.1835229429106 2.09618504759317 3.403723560418 5.13360751109074
7.89826994225248 9.98127852639969 1.89654837639382 3.403723560418 5.13360751109074
5.81809507740403 11.5497748226276 2.55632322877216 0.928288243750363 7.12548416070029
7.18884854268438 10.8956477334283 1.84055272471595 0.928288243750363 7.12548416070029
5.81809507740403 11.5497748226276 2.55632322877216 1.08300295104209 6.50758287152223
6.37883743928333 11.3888153828137 1.84055272471595 1.39243236562554 18.6492154322476
6.32932705937172 11.3004192476694 2.45407029962127 1.54714707291727 24.6752026477384
6.76232581021209 10.8923446283008 3.06758787452659 1.54714707291727 24.6752026477384
6.03675283386145 11.4808051769854 2.35181737047039 1.701861780209 9.87030589384081
6.41996698196307 11.226377542806 2.55632322877216 1.701861780209 9.87030589384081
5.97794411467211 11.368961696508 2.9653349453757 1.85657648750073 6.67787667945469
6.42979256825064 11.2435592108043 2.45407029962127 1.85657648750073 6.67787667945469
7.01068718324771 11.525237321014 0.418750090808392 1.08300295104209 5.39630476283221
6.57544355249085 11.7398371399545 1.04687522702098 1.23771765833382 6.91383753260619
7.00371731330448 11.5137791853002 0.732812658914685 1.23771765833382 6.91383753260619
6.5232967297445 11.6467338836462 1.98906293133986 1.39243236562554 13.3380336441593
6.4800253226901 11.5694768488044 2.51250054485035 1.54714707291727 18.7610570749074
6.19736129081755 11.7862532307381 2.19843797674406 1.701861780209 10.3557890856374
6.15219078700532 11.7003471536986 2.72187559025455 1.85657648750073 6.98437707832962
6.5828828674947 11.5112630015377 2.51250054485035 1.85657648750073 6.98437707832962
6.62536796717274 12.0789937764846 0.964099046279786 1.08300295104209 8.42943145150057
6.62156146592655 12.0720539800701 1.0712211625331 1.23771765833382 7.58119159513796
6.09514722394708 12.0997640998956 2.67805290633274 1.39243236562554 7.02691850702566
6.56904890319048 11.9763160645884 2.03532020881288 1.39243236562554 7.02691850702566
-8.44200111946204 10.8871579602664 -0.964099046279786 1.54714707291727 7.45948792944192
-8.00995338620147 11.1991164962085 -1.0712211625331 1.54714707291727 7.45948792944192
6.44670864338203 11.7532722662422 3.3207856038526 1.54714707291727 7.45948792944192
4.86119547575796 13.0510587402058 3.80770431409491 0 5.24191322539975
4.85649866853501 13.3753707595182 3.8904804948361 0 7.52199162385228
-3.62250958441052 14.1376901533816 -3.73953569466099 1.08300295104209 5.62809986060125
6.38367477406935 13.5335508256683 1.75290735687234 1.08300295104209 5.62809986060125
6.88148171162858 13.3698237563405 -0.934883923665248 1.08300295104209 5.62809986060125
6.49696405852931 13.7737269536049 2.14731151216861 0.928288243750363 6.29196042488665
7.63396661130796 13.3492573355125 0.238590168018734 1.23771765833382 9.21671884526729
-9.29801593286822 12.2363458469424 -0.596475420046837 1.39243236562554 8.36248091606771
7.63281799917333 13.3472487966042 0.357885252028103 1.39243236562554 8.36248091606771
-9.33900446170433 12.5411377456366 1.33902645316637 1.23771765833382 5.30921249514619
-8.37741854256072 12.1946831517694 -5.2343761351049 1.39243236562554 5.08923298963103
-12.3176601248833 13.1879037844376 -2.40050924149462 2.32072060937591 6.38189241894194
-11.818085646084 13.7596585581574 -1.55327068567299 2.32072060937591 6.38189241894194
-0.982599631388056 18.0702630261571 -1.9768899635838 2.32072060937591 6.38189241894194
5.74408497386768 17.5998344626486 0.430923058564451 -0.154714707291727 6.33306430860318
-0.998658212761606 18.3655845182251 -2.15461529282225 2.16600590208418 29.7995592833909
-0.566890412648427 18.2623650112567 -3.01646140995115 2.16600590208418 29.7995592833909
-0.567608211493678 18.2854888888601 -2.87282039042967 2.32072060937591 44.0179315830888
-0.568290154381581 18.3074576674068 -2.72917937090818 2.47543531666763 7.65634651036729
5.83862852927361 17.8895152268129 0.730378065363474 -0.154714707291727 11.031068588994
6.99452336710318 17.4357692194847 1.31468051765425 -0.154714707291727 11.031068588994
-0.577922190896523 18.6177535600747 -2.7754366483812 2.16600590208418 67.8469687777828
-0.578579359572185 18.638924237795 -2.62936103530851 2.32072060937591 97.4525350672293
-0.578579359572185 18.638924237795 -2.62936103530851 2.47543531666763 17.1111106097258
5.34636743846063 18.3846291199956 -0 -0.154714707291727 6.64039656159443
-0.588222348898388 18.9495729750916 -2.67318371923031 2.16600590208418 29.7988184596441
-0.588853658007743 18.9699105873227 -2.52467351260641 2.32072060937591 39.732302712714
-0.589448273019587 18.9890660998259 -2.3761633059825 2.47543531666763 9.78190172344231
2.56985665543312 25.3555678460884 3.59346008158829 4.02258238958491 5.63525396393017
15.5336706444417 20.4425726574605 -1.79673004079415 4.02258238958491 5.63525396393017
16.9686065684393 19.3506711953375 -0.199636671199349 4.02258238958491 5.63525396393017
-3.86580651975523 25.9444942463067 2.65857615792304 3.55843826770973 5.45010576452195
-3.03754163775397 25.9297526482876 3.68110544943191 3.55843826770973 5.45010576452195
12.4733561595478 23.2244992295863 0.409011716603544 3.55843826770973 5.45010576452195
13.0785279055729 22.8699761828354 1.02252929150886 3.55843826770973 5.45010576452195
13.9059800170625 22.3989099299783 -0.204505858301772 3.55843826770973 5.45010576452195
12.6172901926898 23.4924941300012 0.827761807411938 3.55843826770973 6.62651976869736
13.2298380178717 23.134567021306 1.24164271111791 3.55843826770973 6.62651976869736
-13.14047580338 24.9907933591834 0.87645367843617 -1.23771765833382 7.04344492784861
-8.10109708436713 27.0398222419157 1.09556709804521 -1.23771765833382 7.04344492784861
-17.5756501701669 24.0829799759971 0.462572774730199 -1.23771765833382 5.45342093135218
-14.2827450397356 28.9756439979011 1.25381567887396 -0.618858829166909 5.19403515473577
-14.6854683009083 29.1528154462553 -0 -0.618858829166909 8.94777115749495
-15.0804920781418 29.2994342923174 0.51126464575443 -0.618858829166909 5.34670263982794
-24.6453204820884 22.6099692574526 5.52165817414786 3.55843826770973 6.15786659938394
-25.1353443981065 22.5305960264717 5.57278463872331 3.71315297500145 5.42600532402314
-12.0941045819997 42.8753781599181 -1.38284913708818 -1.39243236562554 5.2420706024009
-19.8159904445069 42.0103973546786 -5.44131658695788 -0.309429414583454 5.18202302005279
14.2406583788749 44.869604255166 -0.730378065363472 -0.309429414583454 9.07490901591705
16.7804930741387 43.9343279488932 2.19113419609042 -0.309429414583454 9.07490901591705
-20.5567915973795 41.7039072956624 9.19059065582372 -0.309429414583454 5.36510689007366
-22.5674389312293 42.0189611655465 1.11017465935248 0.309429414583454 5.14634836111769
42.1763774417393 20.4545558118357 8.88139727481984 0.309429414583454 5.14634836111769
-22.9942934926409 41.921887111546 4.46991376002446 0.154714707291727 5.13771588532111
-22.6782728865217 42.2253260826046 2.97994250668298 0.309429414583454 18.9162752269868
-22.6666272865188 42.2036428062804 3.35243532001835 0.464144121875182 6.84778742196448
-23.2007017594031 42.2981989152057 2.99941925509267 0.309429414583454 12.2059812082069
6.35052303395895 8.52797366703288 0.910537988153131 -0.31146513441624 7.99209097980495
-7.57615407412346 9.00469743836468 1.94280565386684 -0.31146513441624 9.49975728881008
8.40833430430702 8.62401967375832 2.18383041543679 -0.830573691776641 13.4845452158529
-7.78489324711826 9.44469650955047 0.189898296994503 -0.20764342294416 5.67401453330812
6.65366263508012 10.5015129339495 -1.75290735687234 -1.0382171147208 8.94875650755272
7.18881568285605 10.2556541767274 -0.876453678436169 -0.830573691776641 16.1591013713006
10.4144284722993 6.78915900231628 1.75290735687234 -0.830573691776641 16.1591013713006
6.84068785448568 10.7966958832934 -1.49727503399512 -1.0382171147208 9.89057773700434
5.68746387629191 11.0500024316101 -4.39687595348811 -1.24586053766496 7.61826234895547
6.66069206100644 10.7286391439329 -3.7833583785828 -0.830573691776641 5.67027150910803
6.52480988160681 12.1487304723982 -0.749854813773166 -1.24586053766496 5.18140785300116
6.85581544021181 11.9885308930487 -0 -1.0382171147208 5.25179703790889
6.52051001906421 13.2282678484787 -0.343277690720834 -1.14203882619288 9.14521854716382
6.66988592131559 12.4188517075614 4.34818408246388 -1.14203882619288 9.14521854716382
-12.7625134308856 12.8078070101499 -2.11809638955408 0.934395403248721 6.78175762203316
-12.222343169602 13.3660987274687 -1.83568353761353 0.934395403248721 6.78175762203316
-8.24957736856672 16.0278556427246 -2.54171566746489 0.934395403248721 6.78175762203316
-0.85674943229402 18.3890277846447 -2.01097427330077 0.830573691776641 23.0673997833258
-0.857453325810369 18.4041359562311 -1.86733325377928 0.934395403248721 36.8713916140432
-0.8581045642415 18.4181139539432 -1.7236922342578 1.0382171147208 10.461163071881
-1.02003465770255 18.7587029057227 -1.31468051765425 0.830573691776641 82.5658130106313
-1.02003465770255 18.7587029057227 -1.31468051765425 0.934395403248721 126.880606062665
-1.02055872841949 18.7683407026412 -1.16860490458156 1.0382171147208 35.9001645372735
-0.28896109544826 18.6244796750868 -2.7754366483812 1.0382171147208 35.9001645372735
-1.18632906938306 19.0811463810185 -1.03957144636734 0.830573691776641 67.2018281365766
-0.439580277604501 18.8854076661703 -3.11871433910203 0.830573691776641 67.2018281365766
-0.440136875861624 18.9093204428065 -2.97020413247813 0.934395403248721 147.093923046875
-0.441166761673791 18.9535667714143 -2.67318371923031 1.0382171147208 27.6320730748278
-1.64589424082492 19.2198352533396 -2.56606160297701 0.830573691776641 16.0453225732337
-0.596469645976408 19.2152595103276 -3.01889600350236 0.830573691776641 16.0453225732337
-1.50052160458275 19.2867418936628 -2.11322720245165 0.934395403248721 36.9216164716518
-0.597186263926408 19.2383453454105 -2.86795120332724 0.934395403248721 36.9216164716518
-0.597865338224591 19.2602217123881 -2.71700640315212 1.0382171147208 5.93645784061487
-1.52713524144674 19.6288165052377 -1.84055272471595 0.934395403248721 9.22538289598073
-0.30642639526688 19.750174886709 -0.920276362357977 0.934395403248721 9.22538289598073
