VERSION .7
FIELDS x y z velocity SNR
SIZE 4 4 4 4 4
TYPE F F F F F
COUNT 1 1 1 1 1
WIDTH 182
HEIGHT 1
VIEWPOINT 0 0 0 1 0 0 0
POINTS 182
DATA ascii
6.18465491758829 5.2864178292845 -0.632994323315011 -3.86786768229318 7.43929426563443
3.49935137301962 6.94672738171594 2.46867786092854 4.02258238958491 5.02569918859095
3.7931409836696 7.52994298804267 0.854542336475264 3.86786768229318 5.95299932744808
4.24896706041088 8.43482482214852 2.33964440271433 2.47543531666763 7.80281788886533
2.85594112497531 8.99852693916109 3.4279077201059 2.47543531666763 6.94191229267232
4.8491748106843 8.47958678740133 2.33720980916312 3.55843826770973 7.63165777389789
5.1285250246761 8.4310519741047 1.86976784733049 3.71315297500145 7.26183752379946
4.74579927656595 8.65227112065554 1.86976784733049 3.86786768229318 8.12088128866967
4.87071512350979 8.88001058287033 2.16922285412952 3.86786768229318 5.66588113397342
-0.912789647484755 11.7324124361017 1.94280565386684 2.16600590208418 5.42895855475383
3.25102547060406 11.1793471407801 2.59040753848912 2.16600590208418 5.42895855475383
4.42022436362038 10.5052217197502 3.51555308794952 2.32072060937591 5.59206565031725
3.51560046743812 11.3974369105512 2.7535253064203 1.701861780209 5.79285825110233
3.70079999874223 11.0327897867442 3.79796593989007 1.701861780209 5.79285825110233
4.0618536571561 10.905031681615 3.79796593989007 1.701861780209 5.79285825110233
3.38874641136171 11.310949570395 3.22827104890655 1.85657648750073 8.24887134405485
3.76322286878698 11.2188842537036 3.1333219004093 1.85657648750073 8.24887134405485
3.94984956098685 10.878352065616 3.98786423688457 1.85657648750073 8.24887134405485
3.58477510957291 11.6216983494842 3.11627974555082 1.701861780209 5.44621443841727
4.15475599424438 11.1544505466838 3.99273342398699 1.701861780209 5.44621443841727
-2.82404356088804 12.2327829596596 0.0973837420484629 1.85657648750073 5.32041823396489
3.46787501368274 11.575064827715 3.40843097169621 1.85657648750073 5.32041823396489
4.88198769364889 11.8808796835028 2.9653349453757 2.16600590208418 5.40167482900261
-1.49889668429075 14.788909137193 -2.45407029962127 3.71315297500145 20.9778630674385
-1.50259769633096 14.8254252836039 -2.22034931870496 3.86786768229318 35.3873988377779
-1.53390181500452 15.1342883103456 -2.26660659617798 3.71315297500145 63.57704343316
-1.53564605019784 15.1514978592479 -2.14731151216861 3.86786768229318 96.3062389373737
-1.6572193249649 15.1706113864908 -1.90872134414988 4.02258238958491 8.17287255279856
-1.56520593367808 15.4431513370873 -2.312863873651 3.71315297500145 40.4801620826217
-1.568667531578 15.4773052966951 -2.06940451852984 3.86786768229318 51.0713197733431
-1.35089312122062 15.7749766605398 -2.35912115112402 3.71315297500145 7.57570892908396
-1.35089312122062 15.7749766605398 -2.35912115112402 3.86786768229318 7.55689783041429
-2.40277205177523 16.1256662365028 -0.759593187978013 3.71315297500145 5.55125169404779
-1.89692530403308 16.1929645060686 -0.759593187978013 3.71315297500145 5.55125169404779
-3.30842818941893 16.7373154306902 -4.2264544049033 1.701861780209 6.78865371910935
5.04311189231095 16.83288666881 0.409011716603547 1.701861780209 6.78865371910935
5.58562129300508 16.6518011173346 0.681686194339243 1.701861780209 6.78865371910935
6.13351446362142 16.4669077694605 0.409011716603547 1.701861780209 6.78865371910935
5.54268499629789 16.9827464003836 0.97140282693342 1.701861780209 5.17133884789162
6.10577694026483 16.8160306271831 0.13877183241906 1.701861780209 5.17133884789162
4.37503370808423 17.6609456247794 3.4473844685156 1.54714707291727 7.59961477939767
4.99770502171512 17.7175987924463 2.01097427330077 1.54714707291727 7.59961477939767
6.85962660648295 17.0995020196791 1.86733325377928 1.54714707291727 7.59961477939767
5.94022955910932 18.2008200411529 -0.148510206623906 1.54714707291727 9.02722360799785
6.03615709118299 18.4947412997325 0.452834400525355 1.54714707291727 5.06751715119628
4.51056019240241 21.9062374442903 4.97630921867647 1.08300295104209 5.39283832755352
4.98939491473998 22.4245992385719 3.42303853300348 1.08300295104209 6.4360533851186
5.19374090876544 22.4974947856876 2.5222389190552 1.23771765833382 7.74314812248724
4.20794940135261 22.2089247274044 -6.57340258827127 1.23771765833382 5.75816523825088
5.42418149598923 22.6699944199606 3.28670129413563 1.23771765833382 5.75816523825088
-12.5017134953073 21.8613204747975 6.66835173676852 -4.64144121875182 7.30206458399336
17.4629900156133 17.9109397898406 -7.2745655310202 -4.64144121875182 7.30206458399336
16.7660706835611 19.1197031840439 -5.65799541301571 -4.48672651146009 17.4729786971636
-2.85612885478779 26.1457371833666 -6.07187631672168 4.79615592604354 5.00504780069928
-2.09148174547237 26.8825643543131 1.25625027242517 4.79615592604354 5.00504780069928
3.5566978790825 26.7372152506273 -1.04687522702098 4.79615592604354 5.00504780069928
15.1174813102015 22.0059310268569 -3.97812586267972 4.79615592604354 5.00504780069928
-17.3495706653487 21.0486418122528 1.27085783373244 -2.47543531666763 7.40871130990752
-1.04748397099995 26.9884256991355 4.02438314015274 4.64144121875182 5.84760247465527
3.57292621227856 26.8592105542975 3.38895422328652 4.64144121875182 5.84760247465527
15.0837691823992 22.4042909202536 4.02438314015274 4.64144121875182 5.84760247465527
-1.88320859999809 26.9105221085197 4.23619277910815 4.79615592604354 25.0855252555495
-1.04748397099995 26.9884256991355 4.02438314015274 4.79615592604354 25.0855252555495
3.57630870865476 26.8846382225363 3.17714458433111 4.79615592604354 25.0855252555495
4.34183006929358 26.2991191932794 5.93066989075141 4.79615592604354 25.0855252555495
15.117128335084 22.4538400848268 3.60076386224193 4.79615592604354 25.0855252555495
15.2195663327984 22.6059937457805 4.499128882639 4.64144121875182 15.9578163365809
15.7315047291129 22.4427609913676 3.4279077201059 4.79615592604354 74.7962837645564
15.8771819255933 22.6505858980629 3.90021886904095 4.64144121875182 8.35826237117725
15.8942220968811 22.6748956191003 3.68354004298312 4.79615592604354 35.1046869362831
-3.80587114009005 28.6103569513719 0.895930426845863 4.17729709687663 7.25074395059896
3.13113082247004 28.6631758345941 1.56787824698026 4.17729709687663 7.25074395059896
15.1273747676431 24.366258579526 3.35973910067198 4.17729709687663 7.25074395059896
3.12630907922045 28.6190363583383 2.23982606711465 4.33201180416836 12.1249364769882
15.1531864583889 24.4078344868296 2.91177388724905 4.33201180416836 12.1249364769882
15.3499833982843 24.724823072014 2.26417200262677 4.17729709687663 23.2564391335897
16.7543687810616 23.9019916142377 0.226417200262676 4.17729709687663 23.2564391335897
15.3402244716411 24.7091039843535 2.49058920288945 4.33201180416836 38.0053885919438
15.3402244716411 24.7091039843535 2.49058920288945 4.48672651146009 5.09057009460041
15.531931885851 25.0178946699813 1.83081435051111 4.17729709687663 12.8382490526263
16.9345232840838 24.1590022767564 0.228851793813888 4.17729709687663 12.8382490526263
15.5150369832121 24.9906813846163 2.28851793813889 4.33201180416836 20.958826822123
0.235271580109503 30.330770180085 -6.7486933239585 3.86786768229318 5.72103452139451
15.0187529359234 26.8145733600227 -4.57947046982898 3.86786768229318 5.72103452139451
16.618196451445 26.2285923625977 1.20512380784973 3.86786768229318 5.72103452139451
5.14251674254888 32.7478620504517 2.8387360807127 0.773573536458636 14.5072059075266
6.70973982713912 32.5868955457689 -0 0.773573536458636 14.5072059075266
5.13893128867791 32.7250296602753 3.09680299714113 0.928288243750363 41.6863668501419
6.7095379774202 32.5859152312 0.258066916428427 0.928288243750363 41.6863668501419
5.37208296198866 32.5395162589843 4.38713757928327 1.08300295104209 10.1576954381124
5.19103105144085 33.0568041452673 2.86551660977603 0.773573536458636 14.5583637509772
6.77283550550907 32.893329525834 -0.260501509979638 0.773573536458636 14.5583637509772
5.18347490744122 33.0086861567956 3.38651962973531 0.928288243750363 41.6533218540016
6.77303925947062 32.8943190886535 -0 0.928288243750363 41.6533218540016
6.24902627094069 32.9814217885517 1.04200603991856 1.08300295104209 10.8231836342065
15.5113632803745 30.1365609863836 0.525872207061699 0.928288243750363 7.82522501458132
-9.45211979309387 39.5044861837091 6.37863510417434 2.32072060937591 9.98122384148847
-2.52359356691482 40.5899674038503 6.05970334896563 2.32072060937591 9.98122384148847
14.5841019180897 38.1837836158055 4.46504457292204 2.32072060937591 9.98122384148847
14.7467867656426 38.609721603034 2.89229713883936 2.16600590208418 25.1746428551345
14.7289441796023 38.5630065260046 3.53502983635921 2.32072060937591 47.6669254172244
14.4179160951626 38.708394017006 3.21366348759929 2.47543531666763 5.90376611542942
14.549548115282 39.0617921132636 2.26660659617798 2.16600590208418 23.4173338294088
15.8356696026425 38.5379269803274 2.59040753848912 2.16600590208418 23.4173338294088
16.7965706968353 38.1055515729298 2.91420848080026 2.16600590208418 23.4173338294088
14.5354938722613 39.0240600878541 2.91420848080026 2.32072060937591 41.3833033677132
15.8356696026425 38.5379269803274 2.59040753848912 2.32072060937591 41.3833033677132
16.805200394641 38.1251293427453 2.59040753848912 2.32072060937591 41.3833033677132
14.5271427322472 39.0016394262257 3.2380094231114 2.47543531666763 5.38384521653907
-3.32534428457455 42.7418417224257 3.33539316515987 2.01129119479245 6.73601986851826
14.6399259919785 40.3200847769795 3.00185384864388 2.01129119479245 6.73601986851826
16.0021794227827 39.8898241925496 -1.33415726606395 2.01129119479245 6.73601986851826
-13.9981118989335 40.624123958252 1.66769658257993 2.16600590208418 13.3628507983708
-10.9590133755249 41.3875348546127 4.00247179819184 2.16600590208418 13.3628507983708
-3.32534428457455 42.7418417224257 3.33539316515987 2.16600590208418 13.3628507983708
14.3383070258706 40.5272687378875 1.00061794954796 2.16600590208418 13.3628507983708
15.6721030282771 40.0303852890794 -1.00061794954796 2.16600590208418 13.3628507983708
14.4429662012419 40.8230882177261 1.0079217302016 2.01129119479245 21.8730519482765
14.445139627392 40.8292314133984 0.671947820134394 2.16600590208418 45.9298843686867
14.445139627392 40.8292314133984 0.671947820134394 2.32072060937591 5.69216435018087
14.5476253766132 41.1189076975647 1.01522551085523 2.01129119479245 11.0039488326042
14.5498145522282 41.1250954091476 0.676817007236817 2.16600590208418 23.0631468673778
14.1636689537452 42.2245952844833 5.5703500451721 2.01129119479245 6.93222691010974
14.2330522454757 42.4314400944258 6.31046648474041 1.85657648750073 7.45680421848757
15.4214077942482 42.4723779331365 1.05174441412341 1.85657648750073 7.45680421848757
16.8233539573616 41.9368271007357 1.05174441412341 1.85657648750073 7.45680421848757
14.2762181311005 42.5601258224357 5.25872207061702 2.01129119479245 17.7722348190542
15.4214077942482 42.4723779331365 1.05174441412341 2.01129119479245 17.7722348190542
16.8233539573616 41.9368271007357 1.05174441412341 2.01129119479245 17.7722348190542
15.5308376849952 42.773760773082 0.706032129851356 2.01129119479245 6.64572409987796
16.9401828042877 42.2280550667131 1.05904819477704 2.01129119479245 6.64572409987796
-14.8186956510524 44.1773546496345 3.99029883043578 1.701861780209 6.25786486029922
14.1367793265037 44.542301131512 1.81377219565263 1.701861780209 6.25786486029922
-14.8281227988802 44.2054587731506 3.62754439130526 1.85657648750073 16.0086087535584
14.1406120173039 44.5543772107817 1.4510177565221 1.85657648750073 16.0086087535584
17.0366314960429 43.5157248254536 1.81377219565263 1.85657648750073 16.0086087535584
14.2423722745877 44.8750044143669 -0 1.701861780209 9.01928589531379
16.7906079709855 43.9608105554096 1.46075613072695 1.701861780209 9.01928589531379
14.2419438199957 44.8736544354913 0.365189032681736 1.85657648750073 24.5253432966799
16.7860570216616 43.9488953572572 1.82594516340869 1.85657648750073 24.5253432966799
4.87438287907024 9.47029182740785 0.662209445929551 -0.31146513441624 11.6937194845088
4.73642183343859 9.60885827533779 3.59346008158829 -0.62293026883248 5.50574793934639
-1.38859046297324 14.8535563771574 -2.1034888282468 1.45350396060912 17.12941784757
-11.2862566415492 9.88103632751959 -1.40232588549787 1.5573256720812 50.0143161418826
-1.50744148509927 14.8732166709123 -1.86976784733049 1.5573256720812 50.0143161418826
-11.2941311100507 9.88793036792596 -1.28546539503971 1.66114738355328 14.5562450668656
-1.50886858296185 14.8872971748194 -1.75290735687234 1.66114738355328 14.5562450668656
-1.53390181500452 15.1342883103456 -2.26660659617798 1.45350396060912 83.4399086251553
-1.53564605019784 15.1514978592479 -2.14731151216861 1.5573256720812 272.787590840956
-1.53729418094644 15.1677591907612 -2.02801642815925 1.66114738355328 69.7481147936474
-2.43393431096088 15.4994429859069 -0.365189032681738 1.45350396060912 83.5237406401242
-1.93066773117292 15.4363279047687 -2.06940451852984 1.45350396060912 83.5237406401242
-1.56135071280287 15.4051136845761 -2.55632322877216 1.45350396060912 83.5237406401242
-1.56332770114784 15.4246196994372 -2.43459355121158 1.5573256720812 302.778271116951
-1.566985765508 15.4607121012734 -2.19113419609042 1.66114738355328 61.0468948565881
-2.58191039209087 15.6390204278567 -2.23495688001223 1.45350396060912 22.9118587775831
-2.09447398650812 15.745054462864 -1.98662833778865 1.45350396060912 22.9118587775831
-2.59203006210988 15.7003167945451 -1.73829979556507 1.5573256720812 52.6860396689504
-2.10003399287455 15.786851402629 -1.61413552445328 1.5573256720812 52.6860396689504
-1.4719331586192 15.7450614403211 -2.48328542223581 1.66114738355328 9.41620046028334
-2.26530358369266 16.0659410297733 -1.77238410528203 1.45350396060912 12.0048644628873
-2.27046965614422 16.1025797460848 -1.39258751129302 1.5573256720812 15.9369895928551
-2.43022800661392 16.3099307253485 -2.19356878964163 1.45350396060912 9.87866500789307
-2.43713750937875 16.3563023049428 -1.80646841499899 1.5573256720812 15.5076431542328
5.38434951683235 16.0517716109378 0.788808310592552 -0.830573691776641 5.5564538569155
18.1328527694238 15.4993022979288 -0 1.0382171147208 8.52112866213953
18.1323072771501 15.4988360309956 0.185029109892079 1.14203882619288 6.13767465427373
18.1834322036834 15.9194638107151 0.187463703443291 1.0382171147208 8.54987836086568
18.1817910139857 15.918026960966 0.374927406886582 1.14203882619288 6.54896454127756
-17.7229471874934 17.3984359253046 3.7005821978416 -0.10382171147208 5.07622912218324
-18.632542496677 18.698668541914 6.98971808552845 -2.0764342294416 5.03913831368335
-15.0344122388054 22.7866338622288 -0.635428916866224 -2.0764342294416 5.03913831368335
-18.6714898305847 18.737754098137 6.77790844657304 -1.97261251796952 6.38070614373233
16.601070293119 22.2932016067381 -5.03960865100797 0.20764342294416 8.59616838780894
16.7664316270018 22.0649069100723 -5.47783549022606 0.31146513441624 8.54886666422019
16.7609957312992 22.5079618584837 -5.31715231584609 0.20764342294416 12.8642558415924
16.7609957312992 22.5079618584837 -5.31715231584609 0.31146513441624 13.8457518239826
7.02009622947583 31.5514901610888 -4.55755912786808 -1.34968224913704 15.6691722213335
21.0320615497431 34.5757119630419 -1.25625027242518 -0.726751980304561 5.86175570045885
20.7125347075981 34.7552968495422 -1.57031284053147 -0.62293026883248 10.4381976348787
20.8831563880444 35.0415972582846 -0.949491484972519 -0.726751980304561 7.93256866775728
20.8831563880444 35.0415972582846 -0.949491484972519 -0.62293026883248 14.6497577946501
