VERSION .7
FIELDS x y z velocity intensity
SIZE 4 4 4 4 4
TYPE F F F F F
COUNT 1 1 1 1 1
WIDTH 980
HEIGHT 1
VIEWPOINT 0 0 0 1 0 0 0
POINTS 980
DATA ascii
18.365900 1.780320 29.626600 -9.235200 6.600000
5.691010 -1.147210 34.853600 -10.478400 8.860000
18.590300 1.884150 29.988800 -9.235200 10.560000
18.817100 1.907120 30.354500 -9.235200 10.280000
-6.573080 2.488770 35.506600 -10.389600 7.160000
19.043800 1.930100 30.720200 -9.235200 7.030000
-7.066260 2.518390 35.850100 -10.389600 5.520000
8.027570 0.000000 36.618700 -10.478400 7.260000
7.289770 -0.872492 41.147400 -10.478400 8.920000
9.040580 -0.881487 41.239700 -10.478400 20.210000
-6.871510 1.253180 42.083400 -10.478400 8.230000
-6.695080 1.265840 42.547900 -10.478400 7.930000
-16.343100 1.951020 40.288500 -10.833600 6.870000
-16.269400 1.970340 40.782200 -10.833600 7.170000
-16.113200 1.852520 41.312900 -10.833600 6.910000
19.199700 1.870500 40.449100 -9.768000 5.260000
-24.084800 -4.289900 37.547000 -8.702400 5.990000
19.384300 1.888490 40.838000 -9.768000 8.600000
-24.023500 -4.331150 38.094300 -8.791200 9.450000
19.569000 1.906470 41.227000 -9.768000 5.720000
19.753600 1.924460 41.615900 -9.768000 7.250000
19.367200 2.086240 42.264300 -9.856800 8.190000
19.546600 2.105550 42.655600 -9.856800 8.660000
19.725900 2.124870 43.046900 -9.856800 7.750000
19.905200 2.144190 43.438300 -9.856800 8.750000
19.571600 2.596440 44.509400 -9.856800 6.600000
19.747200 2.505640 44.908800 -9.856800 15.300000
19.920500 2.527610 45.302700 -9.856800 13.550000
19.643400 2.571570 46.359700 -9.945600 6.420000
19.811300 2.593550 46.756000 -9.945600 8.900000
19.982300 2.457140 47.159400 -9.945600 10.630000
-26.780600 -0.927146 44.725900 -8.968800 5.510000
19.738300 2.519080 48.658400 -9.945600 10.690000
-26.653600 -0.934808 45.302300 -8.968800 6.640000
19.900100 2.539730 49.057200 -9.945600 11.130000
-26.519200 -0.942470 45.879400 -9.057600 12.790000
-11.296200 2.284170 53.497000 -11.988000 5.460000
-11.385200 2.302160 53.918200 -11.988000 8.810000
-11.472600 2.491890 54.332200 -11.988000 10.290000
-11.561500 2.511210 54.753400 -11.988000 12.710000
10.352000 1.011430 55.919700 -10.478400 8.250000
10.430900 0.841874 56.346100 -10.478400 6.950000
10.509800 0.669644 56.772100 -10.478400 7.520000
-24.538700 0.000000 52.742500 -9.501600 7.330000
20.538000 2.446040 54.831100 -10.123200 5.860000
-25.536500 0.000000 52.745900 -9.501600 6.360000
20.689000 2.464030 55.234200 -10.123200 5.810000
-23.755400 -1.414810 54.024100 -9.590400 11.840000
20.706400 2.517990 56.605000 -10.123200 10.950000
20.735200 2.464800 60.257700 -10.212000 10.520000
20.877700 2.283020 60.671900 -10.212000 13.660000
21.017900 2.298340 61.079100 -10.212000 6.840000
21.158000 2.313670 61.486200 -10.212000 8.620000
20.815400 2.733810 62.040900 -10.212000 13.690000
20.949600 2.955500 62.440700 -10.212000 6.420000
20.604200 2.769780 63.017900 -10.212000 6.910000
20.738000 2.787770 63.427100 -10.212000 9.400000
20.874400 2.598030 63.844300 -10.212000 6.060000
21.010700 2.405600 64.260900 -10.212000 8.910000
21.144500 2.420920 64.670200 -10.212000 8.520000
21.278300 2.436250 65.079500 -10.212000 8.520000
21.412100 2.451570 65.488800 -10.212000 7.330000
20.650300 2.895680 66.166900 -10.212000 7.070000
20.778500 2.913670 66.577900 -10.212000 7.270000
20.906800 2.931650 66.988900 -10.212000 8.100000
21.035000 2.949640 67.399800 -10.212000 15.160000
21.685300 2.967630 67.645700 -10.212000 19.520000
20.896900 2.985610 68.343700 -10.300800 19.300000
-2.771480 1.891490 71.882000 -10.567200 14.390000
21.027800 2.558820 68.771900 -10.212000 9.910000
21.153700 2.574150 69.183700 -10.212000 14.560000
21.907900 2.303830 75.266400 -10.300800 6.820000
21.442300 2.560250 75.840200 -10.300800 8.320000
22.146600 2.574240 76.086200 -10.300800 14.270000
22.266900 2.588230 76.499700 -10.300800 7.610000
21.983500 2.231270 81.961000 -10.389600 5.880000
22.096300 2.044760 82.381800 -10.389600 8.540000
-17.399900 -1.807950 84.825800 -10.300800 5.850000
-17.979000 -1.816940 85.145400 -10.389600 5.870000
23.099400 2.344540 86.121400 -10.389600 16.000000
22.148900 2.158360 87.265300 -10.389600 12.580000
22.930000 2.168690 87.508700 -10.389600 6.050000
23.039200 2.179010 87.925400 -10.389600 5.600000
-12.571600 2.423820 91.319500 -10.478400 5.700000
22.786400 1.933870 89.776700 -10.389600 5.570000
22.576200 2.251300 91.155100 -10.389600 8.830000
22.681300 1.969850 91.579600 -10.389600 10.190000
22.784900 1.978850 91.997800 -10.389600 7.820000
22.889800 1.693380 92.421500 -10.389600 7.680000
23.506800 2.571060 94.912900 -10.389600 6.160000
23.610400 2.582390 95.331000 -10.389600 6.730000
-13.691500 1.164380 99.454900 -10.478400 5.680000
-13.868300 -0.864882 100.739000 -10.478400 10.140000
21.375800 1.860990 124.854000 -10.567200 9.620000
21.448500 1.867310 125.279000 -10.567200 5.900000
20.551800 1.873640 125.866000 -10.567200 13.250000
-54.821800 -13.477700 119.635000 -9.412800 15.390000
-55.000400 -13.521600 120.025000 -9.412800 9.680000
-55.629300 -18.368800 119.567000 -9.412800 7.150000
-55.708900 -20.063500 119.739000 -9.412800 5.230000
-55.888600 -20.128200 120.125000 -9.412800 5.650000
-54.852600 -9.392130 124.745000 -9.501600 6.470000
23.015500 4.258670 160.319000 -10.567200 6.420000
23.076700 4.270000 160.745000 -10.567200 7.490000
23.137900 4.281330 161.172000 -10.567200 5.830000
-4.467780 2.068900 178.325000 -10.656000 4.940000
-4.478570 2.073900 178.755000 -10.656000 8.530000
-4.553930 2.671210 181.763000 -10.567200 7.690000
-4.565050 1.550190 182.207000 -10.567200 8.240000
6.556330 -0.978820 4.804690 -6.216000 3.570000
6.385530 -0.486161 5.767020 -7.015200 9.100000
6.792660 -1.030340 5.202700 -6.393600 3.650000
5.656790 -0.359712 6.491630 -7.814400 7.390000
6.641440 0.293799 6.139020 -7.104000 10.600000
5.767040 -0.377698 6.962840 -7.992000 5.830000
6.589230 -0.227196 6.811540 -7.548000 9.210000
6.907190 0.337091 6.484110 -7.192800 8.500000
6.833650 -0.237523 7.174030 -7.636800 10.000000
6.177530 0.589684 7.727380 -8.169600 3.840000
6.763820 -0.260504 7.239120 -7.636800 7.040000
6.508070 0.615323 8.013430 -8.080800 8.990000
6.791720 -0.271830 7.794060 -7.903200 6.700000
6.742560 1.287920 8.302160 -8.169600 8.630000
6.501720 1.339440 9.024950 -8.436000 4.550000
6.389760 1.328420 9.631360 -8.702400 6.850000
5.873590 -0.354435 10.533000 -9.057600 10.800000
6.083880 -0.328461 10.910100 -9.057600 12.730000
7.060190 -0.379752 10.822100 -8.880000 11.190000
7.223880 -0.499621 10.708600 -8.613600 8.330000
5.974670 -0.681357 11.927800 -9.235200 8.700000
7.111950 -1.817760 11.672500 -9.146400 6.530000
7.077420 -0.575540 11.819900 -8.968800 6.020000
6.698320 -1.874570 12.402400 -9.235200 5.860000
7.467930 -1.142190 12.046800 -8.880000 5.310000
6.644950 1.052560 13.014500 -9.235200 9.430000
6.840390 1.083510 13.397300 -9.235200 10.080000
7.227780 0.990448 13.199600 -9.057600 8.930000
7.434290 1.018750 13.576700 -9.057600 8.590000
6.671430 1.668250 14.860100 -9.501600 3.870000
6.543990 1.788170 16.778200 -9.590400 5.730000
6.930870 1.830740 17.085800 -9.590400 3.320000
13.875000 0.464719 13.537400 -7.281600 4.780000
7.020810 0.674181 17.598900 -9.590400 7.550000
14.049300 0.475046 13.974200 -7.370400 7.360000
7.176660 0.929171 17.989500 -9.590400 7.200000
13.912300 1.813970 14.605300 -7.636800 10.180000
7.081690 1.240560 18.471600 -9.679200 7.950000
14.322800 1.852570 14.806100 -7.548000 8.520000
17.415400 1.386630 11.856900 -6.038400 9.450000
6.166440 1.455000 19.235700 -9.768000 7.610000
17.770900 1.414930 12.098800 -6.038400 5.280000
6.307610 -0.927217 19.676100 -9.768000 4.960000
17.430000 6.721070 11.574200 -6.304800 8.570000
8.074490 -1.191090 19.472800 -9.679200 9.020000
18.113600 6.984640 12.028100 -6.216000 7.350000
7.811870 -1.414930 20.029000 -9.590400 11.080000
7.957000 -1.849860 20.401100 -9.590400 6.620000
6.655120 -1.748000 21.324100 -9.856800 14.480000
8.117110 -1.748000 20.811600 -9.590400 14.450000
6.489350 -1.781610 21.823700 -9.856800 11.150000
17.685100 1.510240 16.347300 -7.192800 6.070000
18.000900 1.537210 16.639200 -7.192800 8.950000
6.237770 1.584720 23.256300 -9.945600 9.110000
17.795900 1.782810 20.422300 -7.903200 6.430000
18.078400 1.811110 20.746500 -7.903200 8.040000
7.585970 0.398783 26.062200 -9.945600 10.200000
18.360900 1.839400 21.070600 -7.903200 6.260000
7.706380 0.405112 26.475900 -9.945600 5.620000
18.643400 1.867700 21.394800 -7.903200 13.960000
7.826800 0.411442 26.889600 -9.945600 12.750000
7.947530 0.329825 27.304300 -9.945600 13.020000
5.185510 -0.620639 29.269800 -10.034400 7.810000
6.457550 -0.629634 29.456900 -10.034400 5.890000
4.923760 1.560530 30.154700 -10.123200 5.760000
7.631240 -0.551690 30.066600 -10.034400 7.810000
6.497730 -0.559352 30.772200 -10.034400 6.710000
-8.074310 1.429460 30.814200 -9.856800 7.820000
-6.302980 2.153630 35.577500 -10.034400 9.210000
-6.169800 2.179270 36.037300 -10.034400 7.730000
-6.242390 2.204910 36.461200 -10.034400 9.200000
18.733800 1.999030 32.410200 -9.057600 8.360000
-6.314980 2.230550 36.885200 -10.034400 7.900000
18.695900 2.022010 32.927800 -9.057600 8.850000
-6.387560 2.256180 37.309200 -10.034400 13.030000
18.910600 1.956150 33.306000 -9.057600 13.750000
19.123100 1.978130 33.680300 -9.057600 10.860000
19.052200 2.696160 34.166000 -9.057600 6.620000
18.994800 2.725790 34.688900 -9.057600 5.750000
19.415600 2.535050 35.457400 -9.057600 5.750000
19.265300 0.370140 39.022800 -9.324000 6.870000
19.455400 0.509729 39.408000 -9.324000 7.140000
20.442500 2.560380 49.299900 -9.590400 14.300000
19.870200 2.115060 50.945600 -9.679200 6.150000
20.026700 2.131720 51.346700 -9.679200 10.130000
20.183100 2.148370 51.747900 -9.679200 6.820000
20.339600 2.165020 52.149000 -9.679200 7.200000
20.354300 1.495070 53.091100 -9.679200 8.540000
20.508500 1.506390 53.493300 -9.679200 17.250000
10.508200 1.205300 56.763600 -10.123200 16.500000
10.587300 1.034420 57.190600 -10.123200 10.870000
10.665000 1.223290 57.610800 -10.123200 6.740000
10.295900 1.232280 58.115500 -10.123200 7.270000
20.686300 2.646430 55.226800 -9.768000 7.360000
9.241190 1.241280 58.728600 -10.123200 13.180000
20.837300 2.665750 55.630000 -9.768000 16.330000
9.511120 0.000000 60.444100 -10.123200 5.850000
20.661100 3.121050 57.509300 -9.768000 7.660000
20.326900 1.111040 59.071100 -9.768000 5.890000
20.465900 1.313240 59.474900 -9.768000 7.520000
20.606000 1.322230 59.882300 -9.768000 7.140000
20.073900 2.298340 61.395800 -9.856800 6.150000
20.683400 2.313670 61.647500 -9.856800 5.790000
20.820400 2.328990 62.055800 -9.856800 10.160000
20.615100 1.744240 63.051100 -9.856800 12.750000
10.761900 0.981132 65.909500 -10.123200 10.920000
20.745200 2.168510 63.449000 -9.856800 8.090000
10.830800 1.195330 66.331300 -10.123200 10.930000
20.879000 2.182500 63.858300 -9.856800 9.610000
21.010700 2.405600 64.260900 -9.856800 6.750000
20.906000 2.012690 65.214500 -9.856800 6.650000
21.037400 2.025340 65.624700 -9.856800 12.660000
21.168900 2.038000 66.034800 -9.856800 7.090000
21.296100 2.482210 66.431600 -9.856800 13.290000
21.427600 2.497530 66.841700 -9.856800 9.440000
21.042300 2.294430 67.423000 -9.856800 11.790000
21.692800 2.308420 67.669000 -9.856800 14.480000
21.822000 2.543500 68.071900 -9.856800 12.770000
21.659600 2.406350 70.838400 -9.856800 6.130000
21.785600 2.420340 71.250200 -9.856800 6.930000
22.325400 2.434330 71.534200 -9.856800 7.480000
22.037400 2.448320 72.073900 -9.856800 7.760000
21.607900 1.993420 72.667600 -9.945600 7.180000
21.730700 2.004750 73.080500 -9.945600 10.200000
21.853500 2.016070 73.493400 -9.945600 13.000000
21.979100 1.610060 73.915700 -9.945600 11.640000
21.557200 2.819300 76.246600 -9.945600 6.240000
21.678700 2.341800 76.676400 -9.945600 8.540000
21.795900 2.354460 77.090900 -9.945600 12.460000
21.464700 2.367120 77.630700 -9.945600 11.790000
22.546800 1.278640 84.061200 -9.945600 7.320000
22.658400 1.284970 84.477300 -9.945600 6.790000
22.278900 1.291300 85.023700 -9.945600 5.790000
22.389000 1.024460 85.443900 -9.945600 6.860000
22.607500 1.034450 86.277500 -9.945600 5.390000
22.714600 1.593770 86.686500 -9.945600 8.820000
22.823800 1.601430 87.103200 -9.945600 13.450000
22.364900 1.335600 88.116100 -9.945600 13.700000
22.470900 1.341930 88.533800 -9.945600 9.500000
22.576900 1.348260 88.951400 -10.034400 5.900000
18.186000 -0.296849 126.678000 -10.123200 6.710000
-55.178900 -13.565500 120.415000 -9.146400 5.080000
-55.357500 -13.609400 120.804000 -9.146400 8.080000
-55.167100 -20.537900 120.389000 -9.057600 6.510000
-53.777800 -15.842600 126.919000 -9.146400 5.610000
-53.910500 -16.639900 127.232000 -9.235200 6.540000
-4.575990 0.423784 182.644000 -10.212000 4.480000
-4.586730 0.991157 183.072000 -10.212000 5.320000
-3.536710 0.993489 183.527000 -10.212000 3.890000
-46.710800 -18.685800 188.603000 -9.768000 5.170000
-46.814000 -18.727100 189.019000 -9.768000 6.760000
6.142990 -0.533307 4.705100 -6.482400 3.330000
6.374710 -0.613445 5.100530 -6.660000 4.950000
5.370070 -0.461853 6.162600 -7.903200 8.390000
5.589950 -0.486161 6.541100 -7.992000 9.490000
6.390940 -0.333081 5.771900 -7.104000 8.120000
6.620040 0.782622 6.119250 -7.192800 6.550000
5.317250 -1.220640 7.752640 -8.524800 5.760000
6.508390 -0.907479 6.832570 -7.636800 6.900000
5.621250 -1.276130 8.061950 -8.524800 3.750000
6.760270 -0.413669 7.235310 -7.725600 4.810000
5.800640 -1.331610 8.457430 -8.613600 4.490000
6.625270 1.021810 7.874670 -8.080800 5.430000
6.869540 0.258177 8.293940 -8.080800 8.910000
6.994160 0.233864 8.748900 -8.169600 8.350000
6.081320 1.462370 9.809990 -8.880000 5.030000
6.348690 -0.615419 10.241300 -8.880000 8.840000
5.485290 -0.251853 10.743200 -9.235200 8.250000
7.052690 -0.820657 10.282900 -8.702400 8.340000
5.681200 -0.260848 11.126900 -9.235200 11.630000
7.298710 -0.769153 10.641600 -8.702400 9.460000
5.605490 -1.277260 11.578200 -9.324000 7.540000
7.710610 -0.794792 10.878800 -8.613600 12.030000
5.784780 1.484170 11.948500 -9.324000 9.280000
6.715460 1.579920 12.434100 -9.235200 11.460000
6.843210 1.097740 12.907600 -9.235200 8.640000
7.148310 1.083510 13.235500 -9.235200 7.960000
7.047620 1.036990 13.293100 -9.235200 9.710000
-8.964470 0.551603 12.647900 -8.258400 10.990000
7.558430 1.096240 13.994900 -9.235200 9.940000
-9.313400 0.566925 12.927800 -8.258400 7.680000
-9.462500 0.582247 13.350500 -8.347200 4.760000
-8.237680 1.703010 15.043900 -8.880000 7.460000
-8.234880 1.745590 15.532500 -8.968800 8.820000
-8.447120 1.523420 15.932800 -8.968800 6.480000
-8.268790 1.559690 16.507800 -9.146400 8.750000
6.768020 1.420610 17.653400 -9.768000 2.650000
7.543740 1.452900 17.803700 -9.679200 3.190000
7.716420 1.301730 18.211300 -9.679200 5.880000
13.653100 1.876350 14.840100 -7.725600 7.030000
7.238310 1.142480 18.880100 -9.768000 4.510000
13.939500 1.979950 15.151400 -7.725600 4.440000
14.229900 2.021200 15.467100 -7.725600 8.250000
7.136360 -0.554987 19.863800 -9.768000 8.290000
7.282000 -0.566313 20.269200 -9.768000 9.620000
5.679340 -0.190567 21.674300 -10.034400 6.790000
14.331400 2.186200 17.646300 -8.258400 15.530000
14.601800 2.227450 17.979300 -8.258400 9.540000
17.691600 1.361250 16.353300 -7.192800 6.880000
5.718270 4.624440 22.529600 -10.034400 11.010000
17.878700 1.385560 16.783600 -7.281600 12.050000
5.752760 -3.107100 23.227700 -10.034400 4.980000
6.349160 1.613020 23.671600 -10.123200 8.380000
6.969590 1.641310 23.944500 -10.034400 5.320000
17.677900 1.507100 19.973900 -7.992000 10.200000
17.963000 1.531410 20.296000 -7.992000 6.430000
7.586520 0.230880 26.064100 -10.034400 9.410000
18.244800 1.640860 20.614500 -7.992000 6.280000
7.706380 0.405112 26.475900 -10.034400 4.820000
18.529900 1.666500 20.936600 -7.992000 7.000000
7.826800 0.411442 26.889600 -10.034400 11.220000
7.947210 0.417772 27.303200 -10.034400 12.300000
18.164900 1.806900 22.366600 -8.258400 11.760000
5.254680 0.424102 28.384900 -10.123200 17.760000
18.260500 1.833870 22.841900 -8.258400 7.750000
5.326100 1.562460 28.770700 -10.123200 18.550000
7.691490 1.585440 28.676200 -10.034400 15.180000
18.029300 1.538550 24.132600 -8.524800 7.500000
7.634670 1.608420 29.136400 -10.123200 11.000000
18.286900 1.560530 24.477400 -8.524800 7.990000
7.515730 1.631390 29.611500 -10.123200 8.490000
18.547300 1.486670 24.825900 -8.436000 10.010000
3.994130 0.071963 30.766500 -10.123200 5.270000
7.132660 2.162860 30.559900 -10.123200 8.610000
7.243700 -1.035290 31.035700 -10.123200 5.570000
7.098930 -1.049280 31.510700 -10.123200 7.280000
7.187140 -1.746280 31.902200 -10.123200 10.100000
18.808700 1.846260 30.869800 -8.968800 11.480000
18.791300 1.868240 31.383100 -9.057600 8.240000
-6.375540 2.405370 35.987000 -10.123200 8.780000
19.006800 2.090490 31.743000 -9.057600 7.870000
-6.450550 2.433670 36.410400 -10.123200 9.450000
18.483400 1.999030 32.553600 -9.146400 12.940000
-6.525550 2.461970 36.833800 -10.123200 5.810000
18.695900 2.022010 32.927800 -9.146400 13.060000
8.118960 -0.557030 37.035600 -10.123200 12.080000
18.908300 2.044990 33.302000 -9.146400 8.340000
8.427950 -0.444763 37.409900 -10.123200 13.160000
19.120800 2.067960 33.676200 -9.146400 8.340000
19.333200 2.090940 34.050400 -9.146400 16.360000
8.100900 -0.333493 38.364500 -10.123200 7.870000
-6.115280 2.197930 42.597200 -10.123200 9.300000
-6.176430 2.219910 43.023200 -10.123200 11.290000
-6.488640 2.241880 43.412300 -10.123200 6.510000
19.400500 2.505640 45.059600 -9.590400 10.280000
19.570700 2.527610 45.454900 -9.590400 7.070000
19.740900 2.549590 45.850200 -9.590400 6.730000
19.819800 2.122300 46.776100 -9.590400 10.620000
19.987800 2.140290 47.172500 -9.590400 6.230000
20.155800 2.158270 47.568900 -9.590400 9.200000
19.953400 2.176260 48.120600 -9.679200 6.190000
19.775700 2.560380 49.571200 -9.768000 11.220000
19.935200 2.581030 49.971000 -9.768000 19.810000
19.870200 2.115060 50.945600 -9.768000 5.690000
20.026700 2.131720 51.346700 -9.768000 5.320000
20.183100 2.148370 51.747900 -9.768000 11.700000
20.341900 1.991900 52.155000 -9.768000 6.400000
20.340800 2.549850 53.056100 -9.768000 6.310000
20.494900 2.569160 53.458000 -9.768000 7.760000
10.507500 1.383830 56.759600 -10.212000 11.900000
20.649000 2.588480 53.860000 -9.768000 6.230000
10.585900 1.394160 57.183200 -10.212000 6.760000
10.664300 1.404480 57.606800 -10.212000 9.340000
12.635700 1.734200 57.639100 -10.212000 8.660000
20.689000 2.464030 55.234200 -9.768000 11.690000
20.837300 2.665750 55.630000 -9.856800 10.130000
20.668000 1.111040 58.952600 -9.856800 7.070000
20.810600 1.118700 59.359200 -9.856800 8.720000
20.953100 1.126370 59.765800 -9.856800 7.070000
20.609200 2.359630 63.033000 -9.945600 8.010000
20.743000 2.374960 63.442300 -9.945600 6.220000
20.876800 2.390280 63.851600 -9.945600 10.470000
21.507600 2.196490 64.103800 -9.945600 13.470000
21.920600 2.025340 65.335000 -9.856800 10.240000
21.548200 2.252460 65.905100 -9.856800 13.130000
20.526300 2.280440 67.131700 -9.945600 7.910000
20.652200 2.294430 67.543600 -9.945600 14.220000
20.778100 2.308420 67.955400 -9.945600 15.140000
21.298900 2.322410 68.245300 -9.945600 11.440000
21.279600 2.589470 69.595500 -9.945600 7.280000
26.444500 2.589470 67.801500 -9.768000 6.470000
21.403100 2.831190 69.999300 -9.945600 8.360000
21.116800 1.948120 71.016100 -9.945600 7.450000
21.239600 1.959440 71.429000 -9.945600 5.490000
21.362400 1.970770 71.841900 -9.945600 6.830000
21.485200 1.982100 72.254800 -9.945600 12.600000
21.604000 2.462310 72.654400 -9.945600 13.120000
21.728800 2.240540 73.074200 -9.945600 9.070000
21.853500 2.016070 73.493400 -9.945600 7.970000
22.552900 0.178909 73.760000 -9.945600 5.920000
21.678700 2.341800 76.676400 -10.034400 11.540000
21.795900 2.354460 77.090900 -10.034400 14.540000
21.911000 2.616210 77.497900 -10.034400 13.230000
22.849500 1.259650 82.639100 -10.034400 10.300000
22.964300 1.265980 83.054400 -10.034400 6.430000
22.059400 1.547800 84.185900 -10.034400 5.680000
22.168600 1.555460 84.602600 -10.034400 5.310000
22.276400 1.834930 85.014300 -10.034400 6.640000
22.877500 2.117050 85.294300 -10.034400 7.060000
23.768900 2.412490 88.617700 -10.034400 9.010000
-11.915000 -4.153160 91.780200 -10.123200 6.730000
-15.826600 -5.299150 92.441600 -10.123200 15.150000
-14.724500 -3.663890 93.575800 -10.123200 11.450000
-14.066500 -3.680540 94.112300 -10.123200 5.900000
-18.402100 -3.680540 93.361500 -10.123200 5.900000
23.820600 2.068800 96.179500 -10.123200 5.240000
23.924100 2.077790 96.597700 -10.123200 7.780000
23.277600 2.395880 97.191400 -10.123200 6.830000
23.378000 2.406210 97.610400 -10.123200 5.620000
23.474900 2.962060 98.015100 -10.123200 7.580000
19.892300 1.088430 126.417000 -10.212000 10.930000
-54.038400 -14.338000 120.367000 -9.146400 7.510000
-54.195300 -14.793800 120.716000 -9.235200 10.740000
-54.370700 -14.841700 121.107000 -9.235200 9.610000
-4.576010 0.000000 182.644000 -10.300800 6.210000
-3.528460 0.000000 183.099000 -10.300800 5.310000
-3.536760 0.000000 183.529000 -10.300800 5.240000
-46.607700 -18.644600 188.187000 -9.856800 4.280000
-46.710800 -18.685800 188.603000 -9.856800 6.810000
-47.905800 -18.727100 188.746000 -9.856800 7.660000
5.656790 -0.359712 6.491630 -7.992000 8.750000
5.991990 -0.377698 6.770230 -7.992000 7.380000
6.536720 -0.132928 6.255890 -7.370400 7.020000
6.221630 -0.424974 7.139840 -7.992000 5.140000
6.720450 -0.139257 6.684520 -7.459200 4.660000
6.492720 0.865292 8.552350 -8.436000 7.360000
7.313900 1.130670 7.827850 -7.992000 5.250000
6.681540 0.943068 8.943370 -8.524800 6.520000
7.543490 1.175900 8.199340 -7.992000 5.460000
6.758460 1.292670 9.381320 -8.613600 4.810000
6.628740 1.340540 9.991580 -8.791200 8.490000
5.933220 -1.080670 10.449800 -9.146400 12.980000
7.037540 -1.157750 10.260900 -8.702400 10.690000
6.145120 -1.119260 10.823000 -9.146400 12.530000
7.361810 -1.197670 10.558200 -8.702400 9.580000
6.448220 -1.038350 11.155700 -9.412800 8.770000
6.528850 -1.157860 11.096900 -9.057600 9.040000
7.723770 0.154918 10.897400 -8.702400 5.900000
5.711890 -1.000880 12.033500 -9.412800 8.340000
7.384190 0.154918 11.130300 -8.968800 6.900000
5.728070 -1.033170 12.500100 -9.501600 4.130000
6.527980 1.192570 12.086900 -9.235200 5.560000
6.635710 1.229830 12.516200 -9.324000 7.750000
-8.889870 1.672820 11.524400 -8.080800 4.170000
6.629570 1.447560 12.984400 -9.412800 11.300000
-8.976560 1.582940 12.015300 -8.169600 5.640000
6.927370 1.490140 13.313300 -9.412800 11.090000
-9.140450 1.580450 12.433400 -8.169600 5.350000
7.019540 1.532710 13.748100 -9.412800 7.800000
-9.394350 1.624350 12.778800 -8.258400 4.340000
6.683780 1.771430 14.365900 -9.501600 6.540000
-9.032660 1.075340 13.615000 -8.524800 7.010000
6.352940 1.718620 14.993400 -9.679200 4.520000
6.524260 1.660440 15.397700 -9.679200 4.580000
-9.066920 0.972321 14.626200 -8.702400 4.520000
-8.381090 0.972321 15.029700 -8.880000 3.520000
-8.641220 1.955180 15.780900 -8.968800 5.360000
13.793200 -1.944750 12.218000 -7.281600 2.830000
-8.886390 0.988028 16.228600 -8.968800 8.430000
14.114000 -1.989980 12.502100 -7.281600 4.650000
7.023230 0.454392 17.604900 -9.768000 6.350000
-8.996910 1.011010 16.658300 -8.968800 6.430000
7.182850 0.464719 18.005100 -9.768000 6.810000
14.269300 1.668510 13.656200 -7.459200 5.820000
6.865830 -0.750793 19.952500 -9.945600 10.530000
13.969700 1.348430 16.346700 -8.169600 8.660000
6.169830 -0.750793 20.178600 -9.856800 8.640000
7.271620 -1.281920 20.240200 -9.856800 12.870000
14.249100 1.375400 16.673700 -8.169600 11.170000
7.137920 -1.307560 20.743200 -9.945600 10.840000
14.528500 1.402370 17.000600 -8.169600 9.550000
6.839660 0.259862 21.335800 -10.034400 10.700000
17.480500 1.640750 14.604800 -6.837600 5.640000
4.717960 0.264859 22.343500 -10.123200 9.710000
14.614200 2.012460 17.994500 -8.258400 9.840000
4.972860 -1.456310 22.684300 -10.212000 6.970000
14.884800 2.049720 18.327800 -8.258400 7.060000
5.995440 -1.483270 22.880600 -10.123200 7.000000
6.232210 1.882460 23.235600 -10.123200 6.950000
6.979110 1.916070 23.470800 -10.034400 7.520000
6.783420 1.718430 23.992500 -10.034400 6.940000
6.898870 1.826490 24.400900 -10.034400 5.160000
7.007620 2.236060 24.785500 -10.034400 5.140000
17.799500 1.699020 20.426300 -7.992000 8.430000
7.586280 0.314833 26.063200 -10.034400 10.670000
7.706380 0.405112 26.475900 -10.034400 16.890000
18.364500 1.752960 21.074800 -7.992000 8.040000
7.826800 0.411442 26.889600 -10.034400 17.920000
7.947210 0.417772 27.303200 -10.034400 14.600000
6.718850 -1.182440 29.823600 -10.212000 7.140000
7.220770 -1.199090 30.149000 -10.123200 7.090000
7.551320 1.677350 30.489800 -10.123200 9.760000
7.665670 0.000000 30.951500 -10.123200 10.990000
7.769260 0.000000 31.369700 -10.123200 11.220000
7.425780 2.251740 31.815800 -10.212000 10.320000
5.209730 -2.518350 33.108300 -10.212000 5.470000
5.276520 -2.550640 33.532800 -10.212000 6.400000
18.360900 1.802300 30.134800 -9.057600 6.320000
5.285700 -0.746565 35.364100 -10.212000 9.650000
18.582600 1.907120 30.498600 -9.057600 6.950000
-6.575750 2.265360 35.521100 -10.123200 14.860000
18.806400 1.930100 30.866100 -9.057600 6.350000
-6.376810 2.292330 35.994200 -10.123200 15.540000
19.027100 2.066180 31.228200 -9.057600 11.160000
-6.451830 2.319300 36.417700 -10.123200 11.890000
18.483400 1.999030 32.553600 -9.146400 9.370000
6.613790 -0.674288 37.331900 -10.212000 15.220000
18.695900 2.022010 32.927800 -9.146400 9.580000
7.922860 -0.326163 37.521400 -10.212000 18.250000
18.908300 2.044990 33.302000 -9.146400 9.710000
7.792700 0.000000 37.990000 -10.212000 16.830000
19.120800 2.067960 33.676200 -9.146400 9.140000
7.879170 0.212224 38.411500 -10.212000 10.550000
18.529000 2.603460 34.949200 -9.324000 6.160000
19.006000 2.508080 35.190700 -9.324000 7.710000
-24.471700 -2.912610 39.476100 -8.613600 9.120000
19.569800 2.144190 43.590400 -9.679200 9.590000
19.746100 2.163510 43.983100 -9.679200 11.290000
19.403500 2.353900 45.066500 -9.679200 5.560000
19.573700 2.374550 45.461900 -9.679200 13.310000
19.743900 2.395200 45.857200 -9.679200 10.930000
19.911100 2.571570 46.245400 -9.679200 13.390000
19.623600 2.140290 47.325200 -9.768000 17.380000
19.785900 2.318040 47.716500 -9.768000 16.770000
19.950800 2.337360 48.114100 -9.768000 10.170000
20.486000 2.519080 48.348300 -9.768000 11.510000
20.061900 2.560380 49.456000 -9.768000 13.170000
19.932100 2.747410 49.963300 -9.768000 21.340000
-11.656000 1.832740 55.200900 -11.455200 22.330000
20.348400 2.022540 53.075900 -9.856800 18.900000
20.502600 2.037870 53.478000 -9.856800 8.910000
10.835400 1.383830 56.697900 -10.212000 8.450000
20.656700 2.053190 53.880100 -9.856800 7.710000
10.586600 1.214290 57.187200 -10.212000 6.600000
10.665700 1.042080 57.614200 -10.212000 7.980000
7.260280 1.049740 58.575700 -10.300800 9.970000
10.743400 2.000630 60.641900 -10.300800 8.490000
20.665300 1.497430 58.945000 -9.945600 7.930000
20.807900 1.507750 59.351500 -9.945600 6.080000
20.950400 1.518080 59.758000 -9.945600 6.110000
21.092900 1.528410 60.164600 -9.945600 6.370000
20.550600 1.898760 61.251500 -9.945600 11.150000
20.685600 2.112550 61.654000 -9.945600 7.400000
20.822600 2.126540 62.062300 -9.945600 14.490000
20.961600 1.936730 62.476600 -9.945600 13.330000
21.092000 2.564720 62.865100 -9.945600 7.370000
21.228900 2.581380 63.273300 -9.945600 16.930000
21.365900 2.598030 63.681500 -9.945600 9.140000
21.005600 2.823740 64.245500 -9.945600 5.750000
21.028200 2.877700 65.595800 -10.034400 11.200000
20.911800 2.497530 67.004900 -10.034400 7.860000
21.040100 2.512860 67.416000 -10.034400 12.180000
21.165900 2.747920 67.819200 -10.034400 8.160000
21.294200 2.764570 68.230300 -10.034400 5.660000
21.425000 2.558820 68.649200 -10.034400 5.370000
21.666300 1.547100 70.860300 -10.034400 19.860000
21.792300 1.556090 71.272300 -10.034400 16.150000
21.916700 1.796910 71.679300 -10.034400 7.020000
21.604000 2.462310 72.654400 -10.034400 6.570000
21.728800 2.240540 73.074200 -10.034400 6.200000
21.851600 2.253190 73.487100 -10.034400 10.100000
22.730600 2.044760 82.209100 -10.123200 6.640000
22.847000 1.789960 82.630000 -10.123200 11.050000
22.961800 1.798950 83.045200 -10.123200 10.690000
23.078000 1.540130 83.465500 -10.123200 7.960000
22.165700 2.096400 84.591700 -10.123200 10.980000
22.276400 1.834930 85.014300 -10.123200 13.280000
22.385600 1.843930 85.431100 -10.123200 11.680000
-10.630300 -3.278970 91.539100 -10.212000 5.950000
-11.919400 -3.294290 91.814500 -10.212000 10.590000
-13.748300 -3.597270 91.983100 -10.212000 12.030000
-15.051000 -4.480670 92.177200 -10.123200 8.990000
22.320600 2.886110 95.632500 -10.123200 6.050000
22.420400 2.593710 96.060200 -10.123200 7.280000
22.518300 2.605040 96.479700 -10.123200 5.980000
22.612100 3.231790 96.881600 -10.123200 8.130000
23.274300 2.936750 97.177400 -10.123200 8.450000
23.374600 2.949410 97.596300 -10.123200 8.430000
22.909900 2.650340 98.157600 -10.123200 12.980000
23.007800 2.661670 98.577100 -10.123200 12.780000
23.112900 0.864882 99.027200 -10.123200 7.610000
22.249900 0.295849 125.590000 -10.300800 8.380000
24.022600 0.296849 125.702000 -10.212000 6.090000
18.981700 0.000000 126.997000 -10.300800 9.940000
-55.412600 -11.403900 119.102000 -9.235200 11.340000
-55.546500 -12.663500 119.390000 -9.235200 8.510000
-55.034100 -12.704700 120.099000 -9.235200 4.930000
-55.196100 -13.155800 120.452000 -9.235200 4.730000
-55.302500 -14.841700 120.684000 -9.235200 4.790000
-60.772200 -12.228200 158.515000 -9.590400 7.730000
-59.699400 -12.259200 159.382000 -9.590400 6.650000
-59.850200 -12.290100 159.784000 -9.590400 5.040000
-4.489180 2.633230 179.179000 -10.300800 4.660000
-4.499970 2.639560 179.610000 -10.300800 4.950000
-4.510770 2.645890 180.040000 -10.300800 6.820000
-4.575940 0.988825 182.642000 -10.300800 5.000000
-4.586730 0.991157 183.072000 -10.300800 5.890000
-4.597530 0.993489 183.503000 -10.300800 6.870000
-46.576800 -15.160500 188.062000 -9.945600 5.120000
-46.680100 -15.194100 188.479000 -9.945600 6.650000
-45.303300 -16.431200 189.155000 -9.945600 7.470000
4.976600 -0.723781 5.326310 -7.814400 3.440000
6.289340 0.958135 8.153210 -8.436000 7.590000
5.892900 -0.557502 10.016000 -9.146400 9.610000
6.463800 -1.328420 9.581830 -8.880000 7.920000
6.031780 -0.540876 10.435200 -9.146400 13.430000
6.703210 -1.377620 9.936710 -8.880000 9.680000
5.873990 -0.499621 11.504500 -9.412800 12.770000
6.061220 -0.877254 11.871200 -9.412800 11.170000
6.503080 1.690870 12.040800 -9.324000 7.630000
6.713100 1.623620 12.429700 -9.324000 6.670000
6.960060 0.351121 12.887000 -9.412800 7.240000
-8.243430 1.492640 12.019100 -8.436000 6.090000
-8.485890 1.536550 12.372600 -8.436000 7.960000
6.755390 0.551603 13.953300 -9.501600 5.480000
-8.826170 1.580450 12.658400 -8.436000 7.470000
6.389940 1.477130 14.531900 -9.590400 3.170000
-7.994480 1.745590 15.657600 -9.146400 6.420000
-8.189470 1.788170 16.039500 -9.146400 8.430000
14.122900 1.873320 12.510000 -7.281600 7.760000
6.782030 0.732777 17.689900 -9.856800 7.160000
-8.990280 1.245140 16.646100 -9.057600 9.730000
14.320000 1.915890 12.932900 -7.370400 6.830000
7.036720 0.989067 18.041600 -9.856800 9.370000
-9.194600 1.273430 17.024400 -9.057600 9.190000
7.335020 1.011050 18.386500 -9.856800 9.170000
6.046420 -0.431749 19.775000 -10.123200 7.270000
14.055800 1.979950 15.043500 -7.814400 7.310000
6.016970 -0.375456 20.235100 -10.034400 12.380000
6.140080 -0.316494 20.649100 -10.034400 13.830000
7.953330 -1.863390 19.936400 -9.856800 11.680000
6.260250 -0.713511 21.053300 -10.034400 12.380000
7.955420 -1.900650 20.397000 -9.768000 10.440000
7.286960 -0.727502 21.176300 -10.034400 12.240000
8.111410 -1.937920 20.797000 -9.768000 9.720000
7.233100 2.115880 21.558400 -10.034400 12.180000
5.088900 2.299070 22.588600 -10.212000 9.630000
7.538650 2.155800 21.907700 -10.034400 10.140000
7.673690 2.341650 22.300200 -10.123200 4.680000
7.978510 2.195730 22.207800 -9.945600 8.900000
-8.610720 0.348143 22.077200 -9.679200 8.760000
5.592850 2.384220 23.351900 -10.123200 6.360000
6.665010 1.764580 23.573700 -10.123200 3.860000
6.781940 1.795540 23.987300 -10.123200 5.750000
-8.585860 1.218250 23.898400 -9.768000 5.770000
-8.545040 1.159020 24.373500 -9.768000 7.410000
17.560300 7.221320 18.794200 -8.169600 4.800000
7.586280 0.314833 26.063200 -10.123200 7.110000
17.788300 1.950320 20.413600 -8.169600 5.540000
7.706700 0.319830 26.476900 -10.123200 9.330000
18.066600 2.066340 20.732900 -8.169600 12.190000
7.827110 0.324827 26.890600 -10.123200 13.270000
7.947780 0.241874 27.305200 -10.123200 17.880000
6.523540 -3.118980 27.950100 -10.212000 12.670000
5.490400 1.743410 28.729400 -10.212000 18.900000
5.739560 1.769050 29.119200 -10.212000 7.050000
6.852800 -0.886088 29.360900 -10.212000 15.530000
6.945710 -1.466020 29.758900 -10.300800 9.400000
-7.734370 1.021300 30.472900 -10.034400 8.490000
-7.840320 1.035290 30.890300 -10.034400 6.500000
7.949610 -0.474741 31.320900 -10.212000 6.490000
7.442590 -0.481071 31.887800 -10.212000 6.890000
4.763790 -2.414690 33.183100 -10.389600 8.250000
4.630510 -2.445640 33.635900 -10.300800 7.380000
18.343500 2.130520 28.596700 -8.968800 5.740000
4.691130 -2.263880 34.076200 -10.300800 5.000000
18.572000 2.263880 28.952900 -8.968800 6.170000
6.538800 -2.184460 34.215300 -10.300800 8.330000
18.804200 2.292180 29.314900 -8.968800 8.330000
18.363700 1.693160 30.139400 -9.057600 8.010000
18.584800 1.824280 30.502300 -9.057600 8.050000
-6.574450 2.377080 35.514000 -10.212000 10.580000
18.808700 1.846260 30.869800 -9.057600 9.170000
-6.652710 2.405370 35.936800 -10.212000 6.430000
19.032600 1.868240 31.237300 -9.057600 9.140000
-6.450550 2.433670 36.410400 -10.212000 14.420000
19.254200 1.976060 31.601000 -9.057600 8.790000
-6.525550 2.461970 36.833800 -10.212000 16.710000
7.330900 -0.908783 37.192700 -10.300800 11.570000
18.446600 1.817040 33.080000 -9.324000 14.390000
7.416320 0.088955 37.626100 -10.300800 13.290000
18.656200 1.837690 33.455900 -9.324000 6.280000
7.499650 0.089954 38.048800 -10.300800 11.040000
7.879260 0.090954 38.412000 -10.300800 10.980000
8.724340 -0.097950 41.317000 -10.300800 9.040000
8.571950 -0.098949 41.788900 -10.300800 6.370000
8.658240 0.366476 42.209600 -10.300800 6.380000
8.744820 0.370140 42.631700 -10.300800 8.310000
-24.581000 -1.496970 38.978500 -8.702400 6.630000
19.616300 1.798640 42.162500 -9.679200 7.070000
-24.506800 -1.510960 39.532800 -8.702400 7.840000
19.222200 1.815290 42.816100 -9.679200 6.780000
19.393500 2.124870 43.197700 -9.679200 7.480000
19.569800 2.144190 43.590400 -9.679200 7.320000
19.746100 2.163510 43.983100 -9.679200 6.950000
19.925100 2.032370 44.381800 -9.679200 7.130000
19.403500 2.353900 45.066500 -9.768000 4.950000
19.570700 2.527610 45.454900 -9.768000 16.380000
19.740900 2.549590 45.850200 -9.768000 7.790000
19.911100 2.571570 46.245400 -9.768000 19.040000
19.453300 2.436490 46.914500 -9.768000 8.090000
19.618200 2.457140 47.312000 -9.768000 10.970000
19.783100 2.477790 47.709600 -9.768000 12.570000
19.947900 2.498440 48.107200 -9.768000 17.070000
20.112800 2.519080 48.504800 -9.768000 16.970000
19.900100 2.539730 49.057200 -9.856800 12.220000
20.072300 1.899960 49.481600 -9.856800 6.340000
20.234200 1.915290 49.880700 -9.856800 20.390000
20.416500 2.472580 51.177600 -9.856800 5.740000
20.576100 2.491890 51.577400 -9.856800 9.680000
20.735600 2.511210 51.977300 -9.856800 6.250000
-11.565800 1.991900 54.773800 -11.632800 8.300000
-11.654800 2.007220 55.195100 -11.632800 5.720000
-12.172100 2.022540 55.524300 -11.632800 5.200000
-12.264300 2.037870 55.944900 -11.632800 9.420000
10.510300 0.312506 56.775100 -10.300800 10.120000
10.588600 0.494742 57.197600 -10.300800 6.230000
10.667300 0.135931 57.623200 -10.300800 7.970000
8.001440 -12.050300 58.122200 -10.300800 7.640000
11.215200 -0.905173 60.582700 -10.300800 11.980000
11.288900 -2.014620 60.980800 -10.389600 7.790000
8.874030 -2.028610 61.813800 -10.389600 5.820000
20.664100 1.642310 58.941600 -9.945600 5.550000
20.806700 1.653630 59.348100 -9.945600 7.020000
20.949200 1.664960 59.754600 -9.945600 5.860000
21.091700 1.676290 60.161100 -9.945600 5.690000
21.356300 3.296890 60.915700 -9.945600 9.010000
21.498600 3.318870 61.321800 -9.945600 13.860000
21.641000 3.340850 61.727900 -9.945600 7.170000
17.796500 1.187670 64.363900 -9.146400 9.430000
20.502500 2.805760 63.955900 -10.034400 8.280000
17.909000 1.611030 64.770800 -9.146400 9.320000
20.633900 2.823740 64.365900 -10.034400 8.760000
21.017900 1.621350 64.283100 -9.057600 7.000000
20.881700 3.864980 65.138800 -10.034400 6.620000
21.009200 4.102150 65.536700 -10.034400 7.800000
21.144300 3.913590 65.958100 -10.034400 13.110000
21.293700 2.697950 66.424000 -10.034400 6.140000
20.909400 2.714610 66.997200 -10.034400 6.040000
21.037700 2.731260 67.408200 -10.034400 6.370000
21.168400 2.528180 67.827000 -10.034400 12.300000
21.296700 2.543500 68.238100 -10.034400 15.400000
21.277200 2.814530 69.587500 -10.123200 14.210000
21.115000 2.177240 71.010000 -10.123200 11.520000
21.239600 1.959440 71.429000 -10.123200 17.140000
21.360600 2.202560 71.835700 -10.123200 14.590000
21.065300 2.215220 72.371500 -10.123200 6.960000
21.307900 2.004750 73.204900 -10.123200 5.920000
21.854800 1.838220 73.497700 -10.123200 9.540000
21.622600 1.517150 82.518800 -10.212000 12.720000
21.732800 1.259650 82.939800 -10.212000 6.800000
21.841000 1.532470 83.352400 -10.212000 6.760000
21.950200 1.540130 83.769100 -10.212000 8.870000
21.617800 2.310560 85.172600 -10.212000 6.490000
-11.923500 -2.220320 91.846200 -10.300800 6.460000
-12.689800 -2.230650 92.178300 -10.300800 6.190000
-13.341600 -3.049910 92.933900 -10.212000 13.070000
-17.168500 -3.063900 92.741600 -10.212000 9.040000
22.784900 1.978850 91.997800 -10.212000 11.730000
22.888400 1.987840 92.416000 -10.212000 5.950000
22.992000 1.996840 92.834100 -10.212000 5.900000
23.095600 2.005830 93.252300 -10.212000 5.320000
23.301100 2.323590 94.082100 -10.212000 8.650000
22.674300 2.559730 94.672300 -10.212000 8.700000
22.875000 2.582390 95.510100 -10.212000 6.400000
22.976600 2.364900 95.934600 -10.212000 6.690000
23.077000 2.375230 96.353600 -10.212000 6.910000
23.177300 2.385560 96.772500 -10.212000 8.360000
23.280600 1.777670 97.204000 -10.212000 10.530000
23.379600 2.095780 97.617100 -10.212000 9.540000
23.481300 1.792990 98.041900 -10.212000 6.380000
23.113600 0.235880 99.030500 -10.212000 11.770000
23.211600 0.236879 99.450200 -10.212000 10.640000
23.309500 0.237879 99.869800 -10.212000 6.170000
20.553200 1.084770 125.875000 -10.389600 7.180000
19.891600 1.484210 126.413000 -10.389600 8.830000
19.957800 1.886300 126.834000 -10.389600 11.650000
20.024800 1.892630 127.259000 -10.300800 16.240000
-54.734100 -11.099200 119.444000 -9.324000 16.100000
-54.913000 -11.135500 119.834000 -9.324000 11.420000
-55.109400 -10.660400 120.263000 -9.324000 7.980000
-54.633900 -12.828400 121.693000 -9.235200 8.410000
-54.809600 -12.869700 122.084000 -9.235200 7.100000
-54.985200 -12.910900 122.476000 -9.235200 7.530000
-58.389500 -9.076070 159.619000 -9.679200 9.160000
-58.527400 -9.625980 159.996000 -9.679200 6.830000
-59.804300 -18.527600 159.662000 -9.590400 9.060000
-5.524850 2.633230 179.150000 -10.389600 12.570000
-5.538130 2.639560 179.581000 -10.389600 11.720000
-4.575840 1.553860 182.638000 -10.389600 6.090000
-4.586630 1.557520 183.068000 -10.389600 7.060000
5.116860 -0.742483 5.781440 -8.080800 2.650000
5.401130 -0.783732 6.102640 -8.169600 4.130000
-2.275690 1.162520 8.230410 2.397600 2.440000
-2.440410 1.192910 8.631570 2.397600 9.470000
-2.557650 1.220640 9.046270 2.397600 11.030000
-3.690090 0.830681 9.625070 2.308800 8.010000
-3.628610 0.931693 10.100100 2.308800 4.650000
-2.001900 1.519140 10.475300 -8.880000 4.630000
6.363870 -2.297700 8.382630 -8.702400 5.460000
6.367550 1.640670 9.597890 -8.968800 6.200000
5.661140 -1.080760 11.087600 -9.501600 8.690000
5.701120 -1.118030 11.547900 -9.590400 7.000000
6.968470 0.729241 10.863500 -9.412800 7.350000
6.030760 1.597020 11.811600 -9.590400 7.000000
6.584930 0.753549 11.597600 -9.412800 7.510000
6.147230 5.129630 11.226300 -9.679200 4.000000
6.761840 1.606190 11.909200 -9.412800 6.130000
6.756640 0.611511 12.985100 -9.501600 5.390000
6.460580 0.676095 13.610900 -9.679200 6.120000
6.955370 0.629496 13.367100 -9.501600 6.180000
-8.581000 1.536550 12.306800 -8.436000 4.540000
6.752870 0.695413 13.948100 -9.590400 5.640000
-8.934090 1.389430 12.605000 -8.524800 6.700000
-9.197500 1.096240 12.976600 -8.524800 7.530000
6.230820 1.869630 15.026500 -9.856800 4.320000
-9.142510 0.923705 13.552700 -8.613600 5.280000
-9.451710 0.974261 13.335300 -8.436000 5.480000
6.517970 1.815520 15.382800 -9.856800 5.290000
-9.936310 0.999899 13.516000 -8.347200 3.330000
6.691550 1.703010 15.792500 -9.856800 4.360000
13.966400 -1.244380 11.442100 4.084800 3.790000
14.196400 -1.045250 11.861000 3.996000 6.390000
-8.593770 1.522910 16.831300 -9.235200 8.010000
14.607200 -1.698190 11.967100 4.084800 4.580000
7.275990 1.153730 17.936600 -9.945600 9.670000
-8.789080 1.557530 17.213900 -9.235200 6.670000
7.436270 1.240560 18.331700 -9.945600 10.720000
-8.856180 1.362900 17.680500 -9.324000 3.670000
7.489530 1.267520 18.773800 -9.945600 9.930000
14.545800 -2.187940 13.920800 3.463200 7.210000
14.060000 1.916270 15.047900 -7.992000 7.620000
14.234000 1.956190 15.471600 -7.992000 5.200000
7.253190 -1.996110 20.189000 -10.034400 13.930000
14.146800 0.699521 16.234700 -8.258400 5.610000
7.398250 -2.036040 20.592700 -10.034400 12.890000
7.235010 -2.171340 20.636900 -9.856800 9.380000
14.429800 0.713511 16.559400 -8.258400 5.970000
17.343100 -2.953870 13.876500 -7.015200 5.320000
17.676600 -3.010670 14.143400 -7.015200 8.030000
4.803710 -0.899318 22.749600 -10.389600 9.840000
4.892670 -0.915972 23.170900 -10.389600 8.640000
6.843320 1.916070 23.510700 -10.212000 4.710000
6.778790 1.949690 23.976200 -10.212000 3.840000
-8.255350 1.409870 23.547200 -9.856800 5.820000
7.085120 1.904910 24.341500 -10.212000 5.850000
-8.397680 1.434170 23.953200 -9.856800 8.450000
-8.727500 1.458480 24.292600 -9.856800 6.560000
-18.396900 2.111310 18.654500 -9.590400 5.810000
-18.698500 2.145920 18.960400 -9.590400 7.690000
-18.813600 2.180540 19.448300 -9.590400 5.110000
7.706380 0.405112 26.475900 -10.212000 4.710000
7.826800 0.411442 26.889600 -10.300800 16.650000
7.946810 0.505716 27.301900 -10.212000 5.940000
6.331360 -1.896000 28.103600 -10.300800 18.000000
7.412540 -1.833870 28.288700 -10.300800 14.810000
7.526510 -1.516570 28.723700 -10.300800 9.420000
-13.507600 1.294960 27.900000 -13.675200 8.980000
6.729000 -1.410140 30.695200 -10.389600 7.810000
-13.476700 1.312950 28.392200 -13.675200 8.060000
6.822940 -1.232400 31.123700 -10.389600 10.620000
7.096490 -1.348920 31.499900 -10.389600 7.900000
18.034200 2.122390 26.733600 -8.968800 12.260000
7.435910 -1.468090 31.859200 -10.389600 12.010000
18.482900 2.150690 26.948400 -8.968800 9.010000
18.726100 2.178990 27.303000 -8.968800 10.260000
4.956610 -2.311000 33.162300 -10.389600 8.630000
5.020160 -2.340630 33.587400 -10.478400 6.880000
18.339900 2.235580 28.591000 -9.146400 9.660000
4.876100 -3.299920 33.965500 -10.478400 10.100000
18.572000 2.263880 28.952900 -9.146400 11.680000
5.135760 -3.341170 34.360900 -10.478400 10.430000
18.804200 2.292180 29.314900 -9.146400 13.000000
4.874490 -1.271750 35.408100 -10.389600 9.980000
18.579400 2.017570 30.493400 -9.235200 6.410000
7.855330 -1.271750 34.868200 -10.389600 8.660000
18.803200 2.041870 30.860800 -9.235200 7.130000
-6.652710 2.405370 35.936800 -10.300800 7.260000
19.027100 2.066180 31.228200 -9.235200 10.170000
-6.450550 2.433670 36.410400 -10.300800 13.960000
-6.810600 2.346270 36.789700 -10.300800 8.540000
18.483400 1.999030 32.553600 -9.412800 15.470000
-7.103880 2.373240 37.172100 -10.300800 10.750000
18.695900 2.022010 32.927800 -9.412800 6.010000
6.689560 -0.444763 37.759500 -10.478400 7.960000
18.651100 2.044990 33.446700 -9.412800 15.590000
18.860700 2.067960 33.822600 -9.412800 15.810000
8.046440 1.548830 39.227000 -10.389600 11.400000
7.843370 0.366476 42.368600 -10.478400 6.950000
-6.763010 1.043040 42.979600 -10.389600 8.040000
-6.829970 1.053360 43.405100 -10.389600 5.440000
-16.985200 1.852520 40.962100 -10.656000 7.530000
-6.896930 1.063690 43.830600 -10.389600 10.290000
-22.644000 -3.772270 38.487400 -8.880000 8.180000
-16.419000 2.307820 42.097000 -10.833600 7.070000
-23.160600 -3.808550 38.680100 -8.791200 8.570000
19.248000 2.047600 41.371000 -9.768000 8.020000
-24.562100 -4.091090 38.291100 -8.702400 8.150000
19.429600 2.066920 41.761300 -9.768000 7.850000
-24.473700 -4.555560 38.808200 -8.702400 14.460000
19.611200 2.086240 42.151600 -9.768000 8.750000
19.393500 2.124870 43.197700 -9.768000 6.720000
19.569800 2.144190 43.590400 -9.768000 13.150000
19.746100 2.163510 43.983100 -9.768000 6.810000
19.922400 2.182820 44.375800 -9.768000 8.710000
19.403500 2.353900 45.066500 -9.856800 8.940000
19.573700 2.374550 45.461900 -9.856800 18.670000
19.743900 2.395200 45.857200 -9.856800 17.460000
19.914100 2.415840 46.252500 -9.856800 11.200000
19.623600 2.140290 47.325200 -9.945600 6.090000
19.785900 2.318040 47.716500 -9.945600 12.330000
19.950800 2.337360 48.114100 -9.945600 7.010000
19.781200 2.230220 49.584900 -9.945600 17.750000
-25.651300 -1.569640 46.845300 -9.146400 13.420000
19.943200 2.081750 49.991000 -9.945600 9.880000
-26.221400 -1.582300 47.022400 -9.057600 11.740000
-26.431100 -1.594960 47.398600 -9.057600 9.440000
-11.250200 1.818750 54.845500 -11.810400 8.810000
-11.336700 1.832740 55.267400 -11.810400 8.640000
-11.743800 2.022540 55.616500 -11.810400 9.760000
-4.412640 0.310174 57.138700 -10.478400 9.950000
-12.265600 1.860720 55.950800 -11.810400 6.260000
10.510300 0.312506 56.775100 -10.478400 6.860000
10.588600 0.494742 57.197600 -10.478400 11.360000
10.999500 0.679639 57.556800 -10.478400 9.150000
12.193600 1.232280 57.747100 -10.478400 5.850000
8.139470 5.041790 59.124900 -10.478400 6.270000
8.542130 5.078060 59.501900 -10.478400 15.080000
20.672600 2.364870 57.541300 -10.123200 10.110000
20.818200 2.381530 57.946500 -10.123200 7.340000
20.077900 1.898760 61.408100 -10.123200 11.940000
20.211800 1.911420 61.817500 -10.123200 6.530000
20.343700 2.126540 62.220900 -10.123200 9.110000
20.609200 2.359630 63.033000 -10.123200 7.470000
20.740600 2.581380 63.435000 -10.123200 7.060000
7.752870 1.195330 66.761100 -10.478400 6.740000
20.874400 2.598030 63.844300 -10.123200 5.560000
21.008200 2.614680 64.253500 -10.123200 9.520000
21.144500 2.420920 64.670200 -10.123200 9.220000
20.901800 2.436250 65.201400 -10.212000 6.680000
21.033200 2.451570 65.611500 -10.212000 11.310000
21.162200 2.681300 66.014000 -10.212000 6.150000
21.293700 2.697950 66.424000 -10.212000 17.910000
20.906800 2.931650 66.988900 -10.212000 19.210000
21.035000 2.949640 67.399800 -10.212000 7.970000
21.163300 2.967630 67.810800 -10.212000 11.820000
21.291600 2.985610 68.221800 -10.212000 14.250000
21.422500 2.781220 68.641300 -10.212000 7.930000
21.151300 2.797880 69.175700 -10.212000 10.700000
21.279600 2.589470 69.595500 -10.212000 5.800000
21.405500 2.604790 70.007300 -10.212000 17.290000
21.533700 2.392360 70.426500 -10.212000 18.600000
21.113000 2.406350 71.003200 -10.212000 8.400000
21.235800 2.420340 71.416000 -10.212000 15.400000
21.356300 2.666080 71.821300 -10.212000 6.060000
21.731800 1.524810 82.935600 -10.300800 7.860000
21.500500 -3.651080 84.710500 -10.300800 6.770000
22.261900 -3.669060 84.958700 -10.300800 5.630000
-12.626700 -3.294290 91.719900 -10.389600 5.560000
-14.989400 -3.309620 91.799800 -10.389600 7.150000
22.783300 2.271960 91.991400 -10.389600 7.530000
22.886900 2.282290 92.409600 -10.389600 7.640000
22.990400 2.292610 92.827700 -10.389600 4.970000
22.374600 2.302940 93.421100 -10.389600 5.490000
23.196200 2.537080 93.658500 -10.389600 8.760000
23.301100 2.323590 94.082100 -10.389600 10.580000
23.404700 2.333920 94.500300 -10.389600 9.280000
24.056500 2.344250 94.780900 -10.300800 5.330000
22.876300 2.354580 95.515700 -10.389600 6.590000
22.976600 2.364900 95.934600 -10.389600 9.800000
23.077000 2.375230 96.353600 -10.389600 13.490000
