VERSION .7
FIELDS x y z velocity intensity
SIZE 4 4 4 4 4
TYPE F F F F F
COUNT 1 1 1 1 1
WIDTH 987
HEIGHT 1
VIEWPOINT 0 0 0 1 0 0 0
POINTS 987
DATA ascii
18.049700 1.648440 26.756500 -8.880000 7.500000
7.616770 1.746280 31.802400 -10.212000 11.000000
18.290300 1.670420 27.113300 -8.880000 7.990000
7.530610 1.769260 32.264900 -10.212000 8.490000
18.533800 1.589910 27.474300 -8.791200 10.010000
4.134230 0.077960 33.354900 -10.212000 5.270000
-13.274000 1.714380 30.830300 -13.497600 10.260000
7.272150 2.340630 33.172800 -10.212000 8.610000
-13.684500 1.736360 31.121000 -13.497600 10.820000
7.377780 -1.119230 33.654600 -10.212000 5.570000
7.207150 -1.133220 34.131900 -10.212000 7.280000
-13.358900 1.348980 32.216900 -13.675200 3.760000
7.289590 -1.884150 34.522300 -10.212000 10.100000
18.653400 1.956150 33.450800 -9.235200 11.480000
18.862900 1.978130 33.826600 -9.235200 8.240000
-6.305320 2.575170 38.615900 -10.212000 8.780000
19.067000 2.212030 34.192500 -9.235200 7.870000
-6.374610 2.603460 39.040200 -10.212000 9.450000
18.542700 2.113920 34.975000 -9.324000 12.940000
-6.443900 2.631760 39.464600 -10.212000 5.810000
18.744300 2.136900 35.355200 -9.324000 13.060000
8.138160 -0.595009 39.674200 -10.212000 12.080000
18.945800 2.159870 35.735300 -9.324000 8.340000
8.456720 -0.474748 40.049600 -10.212000 13.160000
19.147400 2.182850 36.115500 -9.324000 8.340000
19.348900 2.205830 36.495700 -9.324000 16.360000
8.082680 -0.355481 41.006800 -10.212000 7.870000
-6.221080 2.329800 45.189700 -10.212000 9.300000
-6.279770 2.351780 45.616100 -10.212000 11.290000
-6.604500 2.373760 46.005000 -10.212000 6.510000
-24.692900 -4.322660 41.239300 -8.702400 5.250000
-24.906400 -4.511220 41.595700 -8.702400 6.750000
-26.842700 -3.648380 40.460300 -8.436000 5.380000
-25.126800 -4.551140 41.963800 -8.702400 6.430000
-27.080300 -3.680670 40.818400 -8.436000 6.890000
-27.317800 -3.712960 41.176500 -8.436000 9.570000
19.411800 2.637510 47.853400 -9.768000 10.280000
19.573500 2.659490 48.252100 -9.768000 7.070000
19.735300 2.681470 48.650900 -9.768000 6.730000
19.781200 2.230220 49.584900 -9.768000 10.620000
19.940700 2.248200 49.984800 -9.768000 6.230000
20.100200 2.266190 50.384700 -9.768000 9.200000
20.259800 2.284170 50.784600 -9.768000 6.190000
-33.369900 -6.645670 43.955600 3.463200 6.480000
20.029800 2.684270 52.244700 -9.856800 11.220000
-33.628600 -6.697190 44.296400 3.463200 10.070000
20.183800 2.704920 52.646600 -9.856800 19.810000
20.087500 2.214990 53.628200 -9.856800 5.690000
20.238500 2.231640 54.031500 -9.856800 5.320000
20.389600 2.248290 54.434700 -9.856800 11.700000
20.542900 2.083830 54.844200 -9.856800 6.400000
20.407900 2.665750 55.788900 -9.856800 6.310000
20.555800 2.685070 56.193200 -9.856800 7.760000
10.520600 1.445790 59.383900 -10.300800 11.900000
20.703700 2.704380 56.597400 -9.856800 6.230000
10.595700 1.456120 59.808100 -10.300800 6.760000
10.670900 1.466450 60.232300 -10.300800 9.340000
12.725000 1.810150 60.263300 -10.300800 8.660000
20.815600 2.571940 57.939300 -9.856800 11.690000
20.958300 2.781650 58.336600 -9.945600 10.130000
20.693300 1.157020 61.676800 -9.945600 7.070000
20.830300 1.164680 62.085200 -9.945600 8.720000
20.967300 1.172340 62.493700 -9.945600 7.070000
20.526900 2.451570 65.771700 -10.034400 8.010000
20.655200 2.466890 66.182700 -10.034400 6.220000
20.783500 2.482210 66.593800 -10.034400 10.470000
21.429800 2.280440 66.848700 -10.034400 13.470000
21.826300 2.101290 68.085600 -9.945600 10.240000
21.955700 2.336400 68.489200 -9.945600 13.130000
20.744800 2.364380 69.764800 -10.034400 7.910000
20.867500 2.378370 70.177600 -10.034400 14.220000
20.990300 2.392360 70.590400 -10.034400 15.140000
21.659600 2.406350 70.838400 -10.034400 11.440000
21.479000 2.681400 72.234000 -10.034400 7.280000
26.433900 2.681400 70.571600 -9.856800 6.470000
21.599300 2.931110 72.638400 -10.034400 8.360000
21.428300 2.016070 73.618500 -10.034400 7.450000
21.548700 2.027400 74.032100 -10.034400 5.490000
21.669100 2.038730 74.445700 -10.034400 6.830000
21.789400 2.050050 74.859300 -10.034400 12.600000
21.905800 2.546260 75.259200 -10.034400 13.120000
22.028300 2.316490 75.679900 -10.034400 9.070000
22.150600 2.084030 76.100000 -10.034400 7.970000
22.720700 0.184906 76.409800 -10.034400 5.920000
21.923800 2.417750 79.291300 -10.123200 11.540000
22.038600 2.430410 79.706400 -10.123200 14.540000
22.151300 2.700150 80.113900 -10.123200 13.230000
22.881600 1.297630 85.309600 -10.123200 10.300000
22.993200 1.303960 85.725800 -10.123200 6.430000
22.045800 1.593770 86.858900 -10.123200 5.680000
22.151800 1.601430 87.276500 -10.123200 5.310000
22.256500 1.888900 87.688900 -10.123200 6.640000
23.039200 2.179010 87.925400 -10.123200 7.060000
23.911400 2.480450 91.253700 -10.123200 9.010000
-11.701900 -4.269060 94.410700 -10.212000 6.730000
-15.529600 -5.445000 95.108400 -10.212000 15.150000
-14.384800 -3.763810 96.241600 -10.212000 11.450000
-13.889400 -3.780470 96.749300 -10.212000 5.900000
-18.347000 -3.780470 96.003800 -10.212000 5.900000
23.680600 2.122760 98.874000 -10.212000 5.240000
23.781000 2.131760 99.293000 -10.212000 7.780000
23.302900 2.457850 99.841400 -10.212000 6.830000
23.400800 2.468170 100.261000 -10.212000 5.620000
23.495300 3.038020 100.666000 -10.212000 7.580000
20.294100 1.110420 128.971000 -10.300800 10.930000
-53.971200 -14.570700 122.740000 -9.235200 7.510000
-54.125200 -15.033200 123.090000 -9.324000 10.740000
-54.297600 -15.081100 123.482000 -9.324000 9.610000
-4.640760 0.000000 185.229000 -10.389600 6.210000
-3.578270 0.000000 185.683000 -10.389600 5.310000
-3.586570 0.000000 186.114000 -10.389600 5.240000
-45.755400 -18.892100 191.043000 -9.945600 4.280000
-45.855300 -18.933300 191.460000 -9.945600 6.810000
-47.432600 -18.974600 191.517000 -9.945600 7.660000
4.461840 -1.545590 7.719180 -8.613600 5.740000
5.361730 -1.276080 7.176770 -8.080800 6.380000
4.793170 -1.676940 8.005000 -8.702400 5.930000
5.485830 -1.336850 7.614800 -8.169600 6.400000
6.250080 -1.488580 7.546030 -7.814400 6.300000
6.521820 -1.553310 7.874120 -7.814400 8.020000
5.024760 -0.711076 9.010820 -8.702400 7.210000
6.793560 -1.618030 8.202210 -7.814400 8.780000
5.451950 -0.674215 9.266520 -8.791200 2.200000
5.874490 -0.674215 9.004580 -8.524800 7.910000
6.776610 -0.707463 8.344090 -7.903200 7.770000
5.826820 -0.329118 9.563270 -8.702400 8.940000
7.405220 -0.764060 8.940690 -7.814400 10.380000
5.976140 -0.170907 9.980660 -8.702400 7.200000
6.117520 -0.177237 10.397800 -8.791200 10.880000
6.591650 -0.177237 10.103900 -8.524800 8.500000
6.746200 -0.183567 10.517000 -8.524800 3.870000
6.777710 1.277260 10.933400 -8.524800 3.980000
6.567060 1.237590 11.566100 -8.791200 8.040000
6.684730 1.319970 11.987600 -8.880000 10.270000
6.346770 1.582760 13.109300 -9.057600 9.110000
6.675600 0.221546 13.521800 -9.057600 6.820000
13.208400 1.673390 8.770840 -5.594400 6.960000
6.134450 -0.035982 14.247900 -9.324000 6.350000
6.758940 0.227876 13.960600 -9.057600 11.140000
13.565400 1.718620 9.007880 -5.772000 8.560000
6.304850 -0.036981 14.643600 -9.324000 8.880000
6.939460 -0.763985 14.333500 -9.057600 12.430000
13.810000 1.815520 9.402150 -5.860800 8.730000
5.733400 -0.974261 15.306600 -9.412800 8.900000
6.754820 -0.896118 15.361700 -9.235200 5.540000
13.938700 -1.962940 10.676100 -6.393600 9.720000
13.536100 0.996629 11.309300 -6.571200 5.960000
13.712700 1.732460 11.683000 -6.660000 7.600000
13.797600 1.887760 12.221900 -6.926400 6.480000
6.715340 1.331170 17.217600 -9.324000 7.270000
13.997400 1.931660 12.641600 -7.015200 5.490000
7.110060 1.303640 17.527500 -9.324000 7.780000
13.577200 1.452900 13.767400 -7.281600 5.600000
13.875600 1.546310 14.070000 -7.281600 6.090000
14.035500 1.626750 14.509100 -7.370400 9.840000
13.652800 1.852570 15.426100 -7.636800 6.600000
17.463200 -2.524330 11.596200 -5.860800 7.900000
14.088300 1.891160 15.612400 -7.636800 7.920000
14.221700 1.929760 16.068800 -7.636800 10.200000
17.242200 1.646620 13.525400 -6.393600 5.900000
14.010500 0.713511 16.915600 -7.903200 8.270000
17.584200 1.609790 13.793800 -6.393600 5.640000
14.286600 0.658237 17.248900 -7.903200 9.400000
17.922400 1.640750 14.059000 -6.393600 10.300000
7.386840 1.886140 21.069900 -9.501600 10.890000
14.116400 0.670895 17.939800 -7.992000 10.270000
18.256400 1.743480 14.321000 -6.393600 6.200000
7.528900 1.922410 21.475100 -9.501600 11.860000
7.676630 1.743480 21.896500 -9.501600 11.260000
6.787600 1.599920 22.199000 -9.590400 10.880000
7.945470 -0.811444 23.681700 -9.501600 10.120000
8.081610 -0.904015 24.087400 -9.501600 10.410000
14.496500 1.983300 20.790700 -8.347200 9.840000
6.770930 -0.904015 24.488200 -9.590400 9.410000
7.760630 0.216221 24.208700 -9.590400 11.200000
14.578800 2.016920 21.256100 -8.436000 11.220000
19.252100 1.888410 17.795700 -7.370400 10.610000
6.585920 0.216221 24.554300 -9.679200 9.400000
7.702440 -0.059969 24.679900 -9.679200 9.260000
14.821700 2.050540 21.610300 -8.436000 10.460000
18.192100 1.919370 19.470400 -7.548000 12.900000
5.341430 -0.059969 25.296100 -9.768000 8.850000
5.628510 -0.060969 25.675100 -9.768000 5.550000
18.485500 1.950320 19.784500 -7.548000 10.260000
7.119460 -0.227215 25.748700 -9.679200 10.650000
5.608320 -0.230880 26.560100 -9.768000 10.050000
18.164100 1.666500 21.254800 -7.814400 6.070000
-7.353120 1.779930 27.414600 -9.590400 8.270000
18.168400 1.717780 22.370800 -7.992000 9.540000
-7.464530 1.806900 27.830000 -9.590400 7.380000
-7.575940 1.833870 28.245400 -9.590400 5.570000
17.939200 1.952600 23.629900 -8.080800 8.500000
18.199200 1.980900 23.972300 -8.080800 10.380000
18.459200 2.009200 24.314800 -8.080800 9.760000
18.528500 2.037490 24.800800 -8.169600 8.720000
7.924460 0.544028 29.544800 -9.768000 15.860000
18.782000 2.162860 25.140000 -8.169600 9.990000
8.036070 0.551690 29.960900 -9.768000 8.810000
17.965500 1.677350 25.766000 -8.347200 17.410000
8.147680 0.559352 30.377000 -9.768000 8.410000
18.211600 1.700330 26.119000 -8.347200 7.660000
8.760990 9.979040 29.463300 -9.679200 14.600000
18.457700 1.723300 26.471900 -8.347200 14.680000
9.107650 10.112100 29.786800 -9.590400 6.160000
18.532800 2.414690 27.934700 -8.524800 17.350000
-7.735990 0.605326 33.144900 -9.679200 9.480000
18.619500 9.340170 28.540400 -8.702400 8.670000
7.566100 0.191235 34.513700 -9.768000 9.490000
19.233500 1.912200 32.121500 -8.791200 9.980000
18.596300 2.187720 33.961100 -8.880000 10.310000
18.802900 2.212030 34.338500 -8.880000 6.650000
-6.151220 2.358740 39.091600 -9.768000 8.380000
23.728100 -1.053340 32.276400 -8.258400 8.610000
-6.218080 2.384380 39.516500 -9.768000 5.630000
-6.284940 2.410010 39.941400 -9.768000 7.580000
-6.354020 2.182850 40.380400 -9.768000 6.470000
19.348900 2.205830 36.495700 -8.968800 8.470000
-6.893760 1.715370 43.810500 -9.768000 7.950000
-6.959820 1.870500 44.230300 -9.768000 9.710000
9.085730 1.608840 44.293600 -9.856800 7.300000
-7.026740 1.888490 44.655600 -9.856800 5.660000
9.175430 1.094670 44.730900 -9.856800 12.410000
19.699000 3.259100 42.988300 -9.235200 7.870000
-6.093480 2.527510 46.937700 -9.856800 8.980000
-6.146720 2.845870 47.347800 -9.856800 6.960000
19.579800 2.182820 44.528000 -9.235200 6.180000
19.753100 2.202140 44.922100 -9.235200 7.810000
19.746700 2.240770 45.863800 -9.324000 5.200000
19.917000 2.260090 46.259100 -9.324000 8.950000
19.814300 2.436490 46.763100 -9.324000 8.600000
19.982300 2.457140 47.159400 -9.324000 9.510000
20.150200 2.477790 47.555700 -9.324000 8.720000
20.426300 1.790770 51.202100 -9.501600 7.650000
-25.179300 0.000000 51.002000 -8.791200 6.040000
10.672300 1.088060 60.240100 -9.856800 19.240000
10.747400 1.095720 60.664300 -9.856800 8.050000
10.468600 1.295250 61.146400 -9.856800 5.090000
20.732700 2.661870 60.250300 -9.590400 10.390000
20.866900 3.076590 60.640500 -9.590400 9.010000
21.007000 3.097240 61.047500 -9.590400 5.410000
-5.002780 3.469590 64.780400 -9.856800 5.940000
20.815400 2.733810 62.040900 -9.590400 9.550000
20.963400 1.732920 62.481900 -9.590400 13.820000
21.101700 1.590370 62.894000 -9.590400 16.100000
21.240200 1.394190 63.306800 -9.590400 7.500000
21.270400 3.071410 65.055200 -9.590400 13.680000
21.404100 3.090720 65.464400 -9.590400 13.210000
21.537900 3.110040 65.873500 -9.590400 10.330000
17.687900 1.834850 67.502800 -8.613600 9.320000
21.422500 2.931650 66.825700 -9.590400 12.370000
17.798100 1.683310 67.923400 -8.613600 10.990000
21.553900 2.949640 67.235700 -9.590400 6.680000
21.685300 2.967630 67.645700 -9.590400 8.190000
21.022700 3.003600 68.755400 -9.679200 14.240000
21.148600 3.021580 69.167100 -9.679200 14.910000
-4.731420 3.572140 74.309600 -9.945600 11.070000
-3.335450 4.253910 75.213500 -9.945600 11.050000
-7.916470 2.712050 75.808800 -9.856800 8.730000
-7.961190 2.727370 76.237100 -9.856800 6.710000
-17.605400 -2.602220 78.146600 -9.679200 7.490000
-17.245600 -2.616210 78.667700 -9.590400 7.080000
22.254900 2.168690 87.682800 -9.768000 5.530000
22.359600 2.389840 88.095200 -9.768000 7.830000
22.465600 2.401170 88.512700 -9.768000 9.820000
22.562500 3.547310 88.894500 -9.768000 6.930000
-11.028900 -3.105870 94.971100 -9.856800 6.070000
-11.810900 -3.713850 95.289700 -9.856800 5.670000
23.709600 3.203800 95.731700 -9.768000 6.560000
23.817500 2.605040 96.167200 -9.768000 5.070000
23.277600 2.395880 97.191400 -9.768000 6.080000
23.378000 2.406210 97.610400 -9.768000 5.670000
23.478300 2.416540 98.029300 -9.768000 5.850000
23.578600 2.426860 98.448200 -9.768000 10.440000
23.679000 2.437190 98.867100 -9.768000 14.310000
23.206600 2.131760 99.428800 -9.768000 13.640000
23.305900 1.823640 99.854300 -9.768000 8.290000
23.591000 3.371690 101.076000 -9.768000 6.300000
23.688900 3.385680 101.495000 -9.768000 7.630000
23.798400 0.890536 101.964000 -9.768000 9.910000
23.894600 1.544490 102.377000 -9.768000 8.870000
23.992600 1.550820 102.796000 -9.768000 5.880000
20.358600 2.329360 129.381000 -9.856800 10.790000
20.426600 1.930610 129.813000 -9.856800 8.870000
19.490000 1.529190 130.398000 -9.856800 5.660000
-54.899000 -20.289000 124.850000 -8.880000 12.510000
-55.070500 -20.352400 125.240000 -8.880000 12.090000
-57.415600 -6.174890 163.770000 -9.235200 11.460000
-58.821700 -6.190210 163.728000 -9.235200 9.660000
4.939210 -1.435180 7.444930 -8.524800 5.950000
5.120950 -1.423860 7.849530 -8.524800 6.000000
4.946950 -0.926285 9.034290 -8.880000 7.140000
6.117530 -0.527502 8.321430 -8.258400 7.220000
5.153070 -0.964880 9.410720 -8.968800 8.770000
6.288620 -0.549481 8.729150 -8.258400 7.850000
5.679200 -0.294483 9.652780 -8.791200 9.060000
6.045150 -0.398380 9.424100 -8.524800 7.340000
6.203820 -0.305809 9.837480 -8.702400 8.250000
6.482400 -1.192110 10.105800 -8.613600 3.910000
6.794390 -1.234690 10.414600 -8.613600 4.490000
-9.558980 0.278838 9.326390 -6.926400 6.360000
7.046740 1.404840 11.768600 -8.791200 8.460000
6.719970 1.492480 12.442400 -8.968800 8.960000
6.097450 -0.076960 12.845800 -9.235200 5.970000
6.992890 1.627800 12.770700 -8.968800 3.740000
-8.855660 0.385093 11.664900 -7.903200 6.000000
6.384040 -0.079293 13.186300 -9.235200 7.800000
-9.115330 0.443044 12.006900 -7.903200 9.740000
5.883880 -0.034982 13.886300 -9.324000 7.640000
6.051990 -0.035982 14.283100 -9.324000 12.760000
5.704320 -0.517645 14.878900 -9.501600 4.560000
7.131440 -0.531636 14.730000 -9.235200 11.890000
5.812790 -2.108390 15.161800 -9.501600 12.640000
13.703100 1.862070 10.287700 -6.393600 12.130000
5.965760 -2.163870 15.560800 -9.501600 9.940000
14.045700 1.908630 10.544900 -6.393600 7.110000
13.816100 -1.843850 11.543200 -6.748800 7.550000
14.283500 1.955180 10.940200 -6.482400 6.300000
14.145100 -1.887760 11.818100 -6.748800 3.840000
-9.371500 1.331170 15.928500 -8.524800 4.730000
-9.457390 1.522910 16.361700 -8.613600 9.150000
13.811100 1.915890 13.475000 -7.281600 6.910000
-9.672330 1.557530 16.733500 -8.613600 9.140000
13.984600 1.958470 13.909800 -7.370400 8.940000
6.288960 1.557530 18.276100 -9.590400 5.310000
-8.622050 1.179370 17.808900 -8.968800 5.020000
14.016400 1.938700 14.489300 -7.370400 6.120000
6.428710 1.592140 18.682200 -9.590400 8.420000
-8.812570 1.079940 18.202400 -8.968800 8.670000
13.796900 1.916270 15.289500 -7.725600 7.200000
14.084300 1.956190 15.608000 -7.725600 8.320000
7.117070 1.647150 19.810100 -9.590400 5.820000
17.397400 1.646620 13.325200 -6.393600 7.440000
17.584200 1.609790 13.793800 -6.482400 4.670000
6.984130 0.917266 20.816400 -9.590400 9.370000
13.941700 1.886140 17.439500 -8.080800 8.560000
7.284450 0.935252 21.169000 -9.590400 5.780000
14.072400 1.922410 17.883900 -8.080800 8.390000
7.543680 1.288330 21.517300 -9.590400 5.340000
14.161700 1.958680 18.358600 -8.169600 11.490000
17.550300 1.556420 15.850300 -6.926400 6.290000
7.684630 1.384480 21.919300 -9.590400 10.090000
18.016300 1.733620 15.958800 -6.926400 11.720000
7.994010 1.629550 22.251000 -9.590400 12.060000
17.982300 1.748060 17.886200 -7.370400 7.750000
18.107100 1.857450 18.360600 -7.370400 12.290000
7.739090 -1.904910 24.141500 -9.768000 11.790000
5.859850 -1.937200 25.106500 -9.856800 14.900000
7.870260 -1.937200 24.550700 -9.679200 12.770000
5.957510 -1.969480 25.525000 -9.856800 12.670000
17.854600 0.995949 21.556800 -7.903200 5.410000
18.129300 1.011270 21.888400 -7.992000 6.690000
-8.465320 1.187050 27.124300 -9.590400 9.310000
18.404000 1.026590 22.220100 -7.992000 8.800000
-8.593580 1.205040 27.535300 -9.590400 9.660000
17.942700 1.860830 23.634600 -8.258400 5.720000
18.017400 1.887800 24.116700 -8.258400 8.680000
18.274800 1.914770 24.461200 -8.258400 8.070000
7.924460 0.544028 29.544800 -9.856800 13.380000
18.528500 2.037490 24.800800 -8.258400 12.020000
8.036070 0.551690 29.960900 -9.856800 16.660000
8.148090 0.462081 30.378500 -9.856800 12.330000
8.260580 0.073962 30.797900 -9.856800 5.670000
18.250100 1.823100 26.608900 -8.436000 13.900000
18.498800 1.670420 26.971500 -8.524800 17.950000
-6.764760 -0.582339 32.036800 -9.768000 17.610000
18.108200 1.589910 27.756700 -8.613600 9.600000
18.335200 1.896030 28.104700 -8.613600 13.190000
5.862760 -0.389793 33.092600 -9.945600 9.120000
-7.386290 -0.389793 32.786200 -9.768000 7.540000
18.566900 2.025440 28.459900 -8.613600 5.640000
18.794600 2.263880 28.808900 -8.613600 6.620000
8.147650 -12.230000 34.019000 -9.945600 8.390000
5.028750 -12.372200 35.028700 -9.945600 7.540000
18.730600 2.114800 32.404700 -8.880000 8.010000
6.858150 -12.153100 34.794300 -9.945600 8.930000
18.945900 2.139110 32.777200 -8.880000 8.360000
5.362870 -12.432500 35.880400 -9.945600 8.210000
18.784200 2.817130 34.304400 -8.968800 7.840000
7.354980 1.515520 38.486100 -9.945600 5.720000
18.990600 2.848090 34.681300 -8.968800 8.270000
-5.850790 2.236340 39.144800 -9.856800 14.070000
-6.219190 2.260650 39.523600 -9.856800 4.830000
-6.286070 2.284960 39.948600 -9.856800 7.080000
19.354200 1.982230 36.505700 -9.057600 8.450000
19.558600 1.873750 36.891200 -9.057600 8.180000
-25.683600 1.053360 35.651100 -7.992000 11.680000
-27.062100 1.608840 36.223200 -7.903200 6.590000
19.225800 2.999640 41.323300 -9.146400 5.780000
19.546600 2.105550 42.655600 -9.324000 6.070000
19.723100 2.271310 43.040800 -9.324000 4.540000
19.902400 2.291950 43.432000 -9.235200 7.460000
-21.679700 -3.841900 42.460900 -8.791200 6.000000
-22.859700 -3.876510 42.326200 -8.702400 6.740000
19.409200 2.014390 44.139900 -9.324000 9.010000
-23.056500 -4.098720 42.690500 -8.702400 7.680000
19.582400 2.032370 44.534000 -9.324000 9.140000
-24.495400 -4.134990 42.378100 -8.613600 5.830000
19.755700 2.050360 44.928100 -9.324000 11.160000
19.929000 2.068350 45.322200 -9.324000 6.870000
20.114800 2.446040 54.987700 -9.590400 7.800000
20.262700 2.464030 55.392100 -9.590400 7.880000
20.222200 3.193860 56.287500 -9.590400 13.040000
20.367600 3.216830 56.692500 -9.590400 8.580000
20.515600 3.099080 57.104300 -9.590400 5.270000
10.672300 1.088060 60.240100 -9.945600 6.730000
20.667200 2.743020 57.526400 -9.590400 6.080000
10.746800 1.286250 60.660700 -9.945600 6.630000
20.365700 2.762330 58.090200 -9.679200 8.760000
10.821900 1.295250 61.084900 -9.945600 10.790000
20.510800 2.589930 58.504300 -9.679200 8.690000
10.897100 1.304240 61.509100 -9.945600 7.460000
20.653300 2.607910 58.910600 -9.679200 9.050000
20.792900 2.820280 59.308900 -9.679200 6.840000
20.717700 3.597590 60.206800 -9.679200 6.810000
20.863700 3.274910 60.631200 -9.679200 12.070000
21.007000 3.097240 61.047500 -9.679200 9.090000
21.510600 2.514760 61.355900 -9.679200 6.050000
20.829100 1.367200 62.081500 -9.679200 6.570000
20.966100 1.376200 62.489900 -9.679200 9.340000
21.101700 1.590370 62.894000 -9.679200 14.400000
21.240200 1.394190 63.306800 -9.679200 16.370000
21.142100 2.631340 64.662800 -9.679200 6.910000
21.275900 2.647990 65.072000 -9.679200 17.900000
21.030800 2.664650 65.604000 -9.679200 14.960000
20.895200 3.745310 66.951900 -9.679200 7.120000
21.023400 3.768290 67.362600 -9.679200 7.280000
-3.318340 3.361160 74.827700 -10.034400 6.920000
-3.337410 3.380480 75.257700 -10.034400 5.920000
-31.772200 0.412788 69.335100 -9.057600 5.660000
-8.797320 0.884530 75.755100 -9.945600 5.700000
20.732100 3.183450 73.328400 -9.768000 12.100000
-8.845080 1.838220 76.166300 -9.945600 13.410000
-8.894770 1.848550 76.594200 -9.945600 10.240000
22.151300 2.700150 80.113900 -9.768000 7.440000
22.266100 2.714140 80.529000 -9.768000 5.670000
22.380800 2.728130 80.944100 -9.768000 5.460000
21.877100 1.240660 81.564300 -9.856800 9.510000
21.983500 2.231270 81.961000 -9.768000 5.800000
22.727300 2.506360 82.197200 -9.768000 8.660000
23.611800 2.354580 95.336600 -9.856800 8.830000
23.715300 2.364900 95.754700 -9.856800 12.200000
23.818900 2.375230 96.172800 -9.856800 11.130000
23.922500 2.385560 96.591000 -9.856800 6.800000
23.276300 2.627690 97.185800 -9.856800 4.930000
23.376600 2.639020 97.604700 -9.856800 5.890000
22.911200 2.416540 98.163400 -9.856800 5.640000
23.111200 1.493850 99.020100 -9.856800 6.160000
23.209100 1.500180 99.439700 -9.856800 5.720000
23.883900 1.506510 99.722900 -9.856800 5.280000
-25.987400 2.457850 99.176500 -9.679200 6.620000
-26.096600 2.468170 99.593200 -9.679200 8.570000
-26.205800 2.478500 100.010000 -9.679200 12.670000
19.362600 1.519190 129.546000 -10.034400 15.610000
20.426600 1.930610 129.813000 -10.034400 13.360000
20.494400 1.529190 130.244000 -10.034400 5.810000
-54.823900 -18.542200 124.680000 -9.057600 4.290000
-3.586520 1.007480 186.112000 -10.034400 9.300000
-3.594870 0.432779 186.545000 -10.034400 7.070000
5.052910 1.215310 8.438790 -8.702400 7.300000
5.674030 1.268150 8.552530 -8.613600 6.050000
5.102910 -0.367735 8.987420 -8.968800 8.810000
5.712630 1.163800 9.058600 -8.702400 9.680000
7.243990 -1.254840 7.873800 -7.725600 9.410000
5.315530 -0.383057 9.361900 -8.968800 5.780000
6.891980 -1.141430 8.758650 -8.080800 9.820000
7.454510 -1.305030 8.260960 -7.814400 7.810000
5.529260 -0.329118 9.738330 -8.968800 6.840000
6.724700 0.341777 9.487810 -8.436000 8.390000
7.516720 -1.221120 8.795720 -7.992000 9.680000
5.820950 -0.242859 10.070500 -9.057600 5.620000
6.973770 0.354435 9.839210 -8.436000 8.510000
5.955870 -0.251853 10.489700 -9.057600 10.410000
7.064890 0.367094 10.300700 -8.524800 6.000000
5.404190 1.532350 11.162400 -9.235200 5.160000
5.005270 1.585190 11.812800 -9.324000 6.390000
6.244720 0.836027 11.778700 -9.146400 6.460000
7.156910 4.308390 10.970300 -8.791200 4.100000
6.416580 1.574420 12.102900 -9.146400 6.600000
7.380560 4.443030 11.313100 -8.791200 7.260000
5.959120 1.623620 12.808300 -9.235200 5.800000
-9.000480 1.672820 11.438200 -7.903200 7.520000
6.169170 -0.871707 13.259800 -9.324000 4.340000
6.718310 1.672820 12.911500 -9.146400 7.300000
-9.206720 0.489664 11.935200 -7.903200 8.880000
6.267860 -1.036990 13.678100 -9.324000 9.470000
-9.467690 0.599545 12.273500 -7.903200 8.230000
6.444070 -1.162320 14.062600 -9.324000 10.800000
6.618170 -1.342060 14.442600 -9.324000 4.890000
5.513980 -1.466620 15.347900 -9.501600 11.310000
7.444770 -0.291170 14.581000 -9.146400 11.210000
13.360500 1.815520 10.030500 -6.393600 9.760000
5.659090 -1.505210 15.751800 -9.501600 9.850000
7.640690 -0.298832 14.964700 -9.146400 6.740000
13.703100 1.862070 10.287700 -6.393600 8.090000
-8.648240 1.559690 16.312200 -8.880000 7.340000
7.312920 1.159650 16.985000 -9.501600 5.130000
-8.859870 1.303640 16.711400 -8.880000 8.360000
-8.376640 1.186620 16.967300 -9.057600 7.450000
13.741900 0.569628 13.668400 -7.370400 6.340000
14.047300 0.582286 13.972200 -7.370400 4.860000
14.187000 1.392520 14.385600 -7.459200 8.020000
6.935030 1.626750 18.958200 -9.590400 7.710000
13.807300 1.741050 15.301000 -7.636800 5.260000
6.968320 1.741050 19.396000 -9.590400 5.400000
14.095000 1.777320 15.619800 -7.636800 9.070000
7.227830 1.777320 19.758700 -9.590400 5.520000
14.078700 2.171340 16.733700 -7.992000 6.170000
7.698450 1.120940 20.552800 -9.590400 4.620000
14.222800 2.213920 17.171900 -8.080800 6.510000
7.570240 0.866010 21.071500 -9.679200 6.500000
14.190700 2.256490 17.750900 -8.080800 5.270000
7.550930 0.812082 21.538000 -9.679200 4.880000
17.272900 -2.996130 15.300300 -7.015200 9.950000
7.095040 1.115000 22.132400 -9.768000 5.270000
17.550300 1.556420 15.850300 -7.015200 11.740000
7.225330 1.208860 22.538800 -9.768000 7.730000
17.869400 1.584720 16.138500 -7.015200 11.100000
17.389200 1.309710 17.296200 -7.459200 9.480000
6.041400 -0.436754 23.802700 -9.945600 8.880000
17.517800 1.487030 17.763100 -7.459200 12.240000
6.331540 -0.811444 24.163300 -9.945600 7.110000
17.851700 1.919370 19.783000 -7.725600 12.020000
6.207810 -1.836950 25.919500 -9.856800 12.150000
18.139700 1.950320 20.102100 -7.725600 12.210000
5.595240 -1.866570 26.498200 -9.945600 10.470000
17.992700 1.839400 21.385800 -7.992000 9.490000
18.105200 1.779930 21.859400 -8.080800 7.780000
-7.942130 1.099170 27.285800 -9.679200 10.190000
18.379600 1.806900 22.190600 -8.080800 8.060000
-8.062460 1.115820 27.699200 -9.679200 8.250000
-8.182800 1.132470 28.112600 -9.679200 10.490000
17.942700 1.860830 23.634600 -8.258400 4.260000
18.017400 1.887800 24.116700 -8.258400 7.370000
18.274800 1.914770 24.461200 -8.258400 9.230000
7.753540 0.544028 29.590100 -9.856800 8.680000
18.532200 1.941740 24.805700 -8.258400 6.840000
8.036070 0.551690 29.960900 -9.856800 7.690000
8.147680 0.559352 30.377000 -9.856800 11.490000
18.190500 2.290860 26.088600 -8.436000 7.480000
5.561600 0.567015 31.392700 -9.945600 11.970000
18.436300 2.321810 26.441100 -8.436000 4.960000
18.888000 2.352770 26.648900 -8.436000 17.810000
18.107700 2.207290 28.229100 -8.702400 13.500000
18.339900 2.235580 28.591000 -8.702400 11.120000
-8.359650 2.025440 32.936500 -9.768000 4.870000
18.572000 2.263880 28.952900 -8.702400 6.430000
-5.927800 2.025440 33.459800 -9.768000 4.310000
-7.562770 2.051080 33.569600 -9.856800 11.170000
-7.198180 2.076710 34.089400 -9.856800 6.750000
-6.818280 2.320480 34.592000 -9.856800 13.070000
-6.697520 2.459140 35.045800 -9.856800 5.370000
-6.575750 2.265360 35.521100 -9.856800 7.560000
18.733800 1.999030 32.410200 -8.880000 9.680000
18.949100 2.022010 32.782700 -8.880000 7.010000
19.164400 2.044990 33.155300 -8.880000 7.460000
7.912830 1.956150 37.473900 -9.945600 7.050000
18.601700 1.978130 33.971000 -9.057600 13.020000
7.574290 1.878990 38.427500 -9.945600 5.130000
18.808400 2.000110 34.348500 -9.057600 6.600000
-6.152320 2.236340 39.098600 -9.945600 12.810000
-6.219190 2.260650 39.523600 -9.945600 7.100000
-6.286070 2.284960 39.948600 -9.945600 8.100000
-6.354020 2.182850 40.380400 -9.945600 6.210000
18.574700 2.688360 36.379500 -9.235200 8.180000
-6.656670 2.205830 40.767700 -9.945600 7.060000
18.770200 2.716660 36.762500 -9.235200 9.970000
8.141420 3.294300 41.304800 -9.945600 12.640000
8.224490 3.327920 41.726300 -10.034400 12.180000
19.015100 1.852520 40.060200 -9.324000 10.060000
19.197200 2.008970 40.443700 -9.324000 7.200000
19.381700 2.028290 40.832600 -9.324000 8.740000
19.566300 2.047600 41.221500 -9.324000 7.490000
19.375000 2.966550 43.156400 -9.412800 12.830000
-23.257500 -2.698190 41.707400 -8.702400 12.680000
-23.467100 -2.722500 42.083100 -8.702400 8.220000
-24.298500 -3.648380 42.037500 -8.613600 6.600000
-24.816400 -4.248520 42.179700 -8.613600 6.290000
19.408900 2.050360 45.079100 -9.412800 6.650000
-25.034100 -4.285790 42.549700 -8.613600 7.060000
19.826700 1.650870 46.792200 -9.501600 8.500000
19.969400 2.248290 54.590200 -9.679200 6.160000
20.114800 2.446040 54.987700 -9.679200 9.070000
20.262700 2.464030 55.392100 -9.679200 7.530000
20.238200 2.129800 56.332100 -9.679200 8.800000
-11.316700 2.145120 59.216200 -10.922400 8.760000
20.383800 2.145120 56.737400 -9.679200 5.140000
-11.053700 1.972650 59.710300 -10.922400 8.930000
20.529400 2.160440 57.142600 -9.679200 9.760000
10.672800 0.898843 60.243100 -10.034400 6.120000
20.675000 2.175770 57.547900 -9.679200 7.190000
10.748000 0.905173 60.667300 -10.034400 7.570000
10.469800 0.911503 61.153100 -10.034400 8.130000
20.513400 2.398180 58.511600 -9.679200 8.020000
10.068000 0.724615 61.659700 -10.034400 6.450000
20.655800 2.414830 58.917900 -9.679200 5.220000
20.798300 2.431490 59.324200 -9.679200 9.960000
20.938100 2.643880 59.723100 -9.679200 9.920000
10.758700 1.528410 62.840600 -10.034400 7.340000
20.404600 2.679860 60.816400 -9.679200 15.450000
20.538800 2.897550 61.216400 -9.679200 12.310000
10.979200 -0.754599 64.128500 -10.034400 11.040000
20.485100 1.172340 62.653400 -9.768000 13.180000
20.619000 1.180000 63.062900 -9.768000 13.570000
20.752800 1.187670 63.472400 -9.768000 8.460000
21.142100 2.631340 64.662800 -9.768000 15.390000
20.899400 2.647990 65.193900 -9.768000 5.850000
21.407000 2.877700 65.473200 -9.768000 12.980000
18.988700 1.241300 67.162000 -8.524800 5.690000
18.715000 1.248960 67.685900 -8.524800 8.520000
21.032000 2.113950 68.785700 -9.768000 8.960000
21.283900 2.139270 69.609500 -9.768000 8.580000
20.992300 2.164590 70.597100 -9.856800 6.880000
21.115000 2.177240 71.010000 -9.768000 7.930000
21.237800 2.189900 71.422800 -9.768000 6.310000
21.358500 2.434330 71.828800 -9.768000 10.770000
22.293300 2.004750 72.910900 -9.768000 12.510000
22.040500 2.174640 79.713200 -9.856800 8.400000
22.151300 2.700150 80.113900 -9.856800 10.100000
22.266100 2.714140 80.529000 -9.856800 7.390000
22.380800 2.728130 80.944100 -9.856800 6.040000
22.501000 2.024110 81.378700 -9.856800 10.860000
22.615800 2.034440 81.793900 -9.856800 6.420000
22.730600 2.044760 82.209100 -9.856800 7.040000
-1.767450 2.979960 91.716300 -10.123200 6.170000
23.318900 1.392570 91.874700 -9.856800 11.710000
23.422300 1.987840 92.282100 -9.856800 16.010000
23.095600 2.005830 93.252300 -9.945600 15.690000
23.200500 1.716370 93.676100 -9.945600 10.920000
23.304100 1.724030 94.094300 -9.945600 8.550000
23.616000 1.443210 95.353700 -9.945600 10.620000
23.719600 1.449540 95.771900 -9.945600 5.090000
23.823200 1.455870 96.190100 -9.945600 5.810000
24.440300 2.437190 98.681700 -9.945600 7.020000
24.543800 2.447520 99.099800 -9.945600 6.760000
24.647400 2.457850 99.518000 -9.945600 9.610000
-26.675300 1.831300 99.453500 -9.768000 9.670000
21.039300 1.110420 128.852000 -10.034400 9.150000
21.108700 1.114090 129.277000 -10.034400 7.670000
21.178900 0.304844 129.706000 -10.034400 11.530000
21.248300 -0.305844 130.132000 -10.034400 15.950000
-55.247700 -15.081100 123.060000 -9.057600 11.070000
-54.469900 -15.129000 123.874000 -9.057600 7.770000
-54.660900 -14.756900 124.309000 -9.057600 9.180000
-55.560500 -19.323500 123.757000 -9.057600 11.790000
-54.776700 -19.384300 124.572000 -9.057600 10.100000
-3.586440 1.583170 186.108000 -10.123200 4.540000
-3.594750 1.586840 186.538000 -10.123200 4.010000
-3.603050 1.590500 186.969000 -10.123200 6.790000
6.172140 -0.774878 8.261530 -8.258400 5.430000
5.679930 -0.233864 9.654010 -8.968800 2.440000
6.400440 0.536854 9.179450 -8.524800 10.660000
5.898390 -0.242859 10.025300 -8.968800 11.630000
6.572940 0.557502 9.583450 -8.613600 4.560000
5.141630 -1.340540 10.832200 -9.235200 10.270000
6.816380 0.578151 9.938400 -8.613600 7.080000
5.411570 -1.388420 11.177600 -9.235200 7.950000
6.734980 0.743515 10.499500 -8.791200 7.960000
5.505480 -1.505810 11.598700 -9.235200 8.450000
6.543580 0.769153 11.121900 -8.968800 2.200000
6.761700 0.794792 11.492700 -8.968800 6.100000
6.953590 1.447260 11.818800 -8.968800 8.270000
7.170880 1.492480 12.188100 -8.968800 11.890000
6.084630 -1.142920 13.278200 -9.412800 11.240000
6.266500 -1.083510 13.675100 -9.412800 6.850000
6.661910 -0.990448 13.494100 -9.235200 8.170000
6.336940 -1.114470 14.115100 -9.412800 11.840000
6.932370 -1.018750 13.839800 -9.235200 10.910000
5.682780 -1.477130 14.822700 -9.679200 11.170000
7.124940 -1.047050 14.224200 -9.235200 11.770000
5.720490 -1.466620 15.272200 -9.679200 9.840000
6.954270 2.258950 14.650900 -9.412800 11.330000
5.750050 -1.505210 15.718900 -9.679200 9.520000
7.499600 -1.414600 14.972200 -9.324000 10.630000
6.458090 -1.384470 15.920300 -9.590400 6.000000
6.620760 1.378230 16.321300 -9.590400 7.360000
-8.349060 1.854300 15.458800 -8.791200 4.860000
6.781000 1.453690 16.716300 -9.590400 5.970000
-8.552690 1.899530 15.835800 -8.791200 5.810000
7.070490 1.602510 17.051500 -9.590400 12.530000
-8.769570 1.659590 16.237400 -8.791200 9.160000
-9.064190 1.814960 16.553300 -8.791200 10.700000
6.932820 1.704780 18.952200 -9.679200 5.820000
7.080320 1.741050 19.355400 -9.679200 6.230000
13.939500 1.979950 15.151400 -7.814400 5.190000
14.080200 2.021200 15.603400 -7.814400 4.160000
7.130490 1.646620 20.721600 -9.768000 3.820000
6.958940 0.796759 21.283900 -9.768000 4.450000
13.800400 2.006950 17.538100 -8.258400 9.880000
17.768900 1.922410 14.217300 -6.660000 9.650000
6.966450 0.882664 21.731300 -9.768000 9.510000
14.065800 2.045550 17.875400 -8.258400 9.660000
18.104200 1.958680 14.485500 -6.660000 11.990000
6.787600 1.599920 22.199000 -9.768000 11.770000
14.155000 2.084140 18.349900 -8.258400 4.540000
17.694600 1.702660 15.673800 -7.104000 10.970000
7.822280 1.629550 22.311900 -9.768000 10.780000
18.020200 1.659180 15.962300 -7.104000 10.110000
7.844790 -1.007190 22.797400 -9.768000 10.250000
18.342000 1.688810 16.247300 -7.104000 10.970000
6.360700 -0.645597 23.714600 -9.856800 11.300000
6.472660 -0.598971 24.132100 -9.856800 7.330000
6.735560 -2.746560 24.360300 -9.856800 13.430000
14.180900 1.826490 21.021400 -8.613600 8.580000
7.846250 -2.793110 24.475800 -9.856800 9.980000
14.421200 1.857450 21.377700 -8.613600 9.800000
17.633800 -3.545680 19.167000 -7.814400 9.550000
18.154400 1.615220 20.118400 -7.814400 10.340000
-8.097630 1.274920 27.232400 -9.679200 7.710000
17.921200 0.835454 22.066500 -8.080800 6.280000
-8.220320 1.294240 27.645000 -9.679200 5.060000
-8.179510 1.404080 28.101300 -9.679200 6.490000
7.754250 0.354811 29.592800 -9.945600 6.650000
7.863460 0.359809 30.009600 -9.945600 12.250000
17.702700 2.133230 25.389000 -8.524800 5.470000
7.972680 0.364806 30.426400 -9.945600 13.210000
17.952300 2.065790 25.747000 -8.524800 9.650000
8.082320 0.172578 30.844800 -9.945600 18.340000
7.727460 0.384795 32.264600 -9.945600 6.440000
7.828330 0.077960 32.685700 -9.945600 9.710000
7.562770 2.051080 33.569600 -10.034400 10.290000
-7.200690 1.861170 34.101300 -9.945600 10.720000
-6.823310 1.884150 34.617500 -9.945600 8.480000
-6.703860 1.907120 35.079000 -9.945600 6.100000
-6.646790 2.857300 35.904800 -9.945600 11.610000
5.039660 2.776650 36.608000 -10.123200 5.370000
18.767100 1.890220 31.897900 -9.057600 12.380000
5.312250 2.808930 37.003500 -10.034400 7.360000
18.736000 1.912200 32.414100 -9.057600 10.180000
-6.679350 2.163410 37.701900 -9.945600 7.350000
-6.754400 2.187720 38.125600 -9.945600 9.870000
8.396530 0.212224 38.301800 -10.034400 8.380000
-6.677910 2.358740 39.005000 -9.945600 5.800000
-6.218080 2.384380 39.516500 -9.945600 8.430000
-6.516890 2.284960 39.911500 -9.945600 7.960000
-6.586210 2.309260 40.336100 -9.945600 4.950000
18.593500 1.961580 36.416300 -9.235200 6.740000
18.786300 2.110010 36.794000 -9.235200 6.730000
19.086100 1.912380 38.103300 -9.324000 11.990000
19.278800 1.931700 38.488200 -9.324000 8.230000
19.471600 1.951020 38.873100 -9.324000 7.420000
18.700600 2.126770 40.194400 -9.412800 9.330000
19.197200 2.008970 40.443700 -9.412800 10.920000
19.381700 2.028290 40.832600 -9.412800 5.250000
19.566300 2.047600 41.221500 -9.412800 5.760000
-22.433800 -4.245470 41.537500 -8.791200 13.190000
-22.631300 -4.431380 41.903300 -8.791200 5.130000
-23.079200 -4.471300 42.148100 -8.702400 5.330000
19.574000 2.483660 44.514800 -9.501600 9.550000
-24.031000 -1.430400 42.324300 -8.613600 5.610000
19.747200 2.505640 44.908800 -9.501600 5.790000
-24.572100 -1.443060 42.510700 -8.613600 7.020000
19.920500 2.527610 45.302700 -9.501600 5.920000
-25.117400 -1.455720 42.691300 -8.613600 5.170000
-25.080500 -1.342520 50.070600 -8.968800 8.380000
-24.981400 -1.352850 50.601100 -9.057600 7.250000
-26.245500 -1.495070 50.439400 -8.880000 8.880000
-25.657800 -1.506390 51.223100 -8.968800 7.650000
20.391900 2.068510 54.440900 -9.679200 6.470000
20.542900 2.083830 54.844200 -9.679200 6.460000
20.694000 2.099150 55.247500 -9.679200 6.670000
20.845000 2.114480 55.650700 -9.679200 6.480000
20.555800 2.685070 56.193200 -9.679200 7.020000
-10.974200 2.145120 59.280600 -11.100000 7.010000
20.706400 2.517990 56.605000 -9.679200 5.750000
-11.052600 2.160440 59.704100 -11.100000 11.210000
20.854300 2.535970 57.009400 -9.679200 6.250000
10.323900 1.088060 60.300800 -10.034400 10.810000
21.004900 2.364870 57.420800 -9.679200 5.660000
10.396600 1.095720 60.725400 -10.034400 6.650000
10.469300 1.103380 61.150100 -10.034400 5.450000
20.513400 2.398180 58.511600 -9.679200 6.460000
20.658200 2.221730 58.924700 -9.679200 6.180000
20.798300 2.431490 59.324200 -9.679200 17.030000
9.909570 1.676290 62.976300 -10.034400 9.120000
20.877700 2.283020 60.671900 -9.768000 7.220000
21.017900 2.298340 61.079100 -9.768000 7.440000
20.967300 1.172340 62.493700 -9.768000 13.340000
21.103100 1.385190 62.898400 -9.768000 10.630000
21.240200 1.394190 63.306800 -9.768000 16.370000
21.130300 3.472720 64.626900 -9.768000 15.070000
21.264100 3.494700 65.035900 -9.768000 8.750000
10.917300 0.597355 69.380500 -10.123200 9.970000
20.003900 2.714610 67.273100 -9.856800 11.520000
10.984500 0.382470 69.807600 -10.034400 7.640000
20.126600 2.731260 67.685800 -9.856800 9.660000
11.051500 0.384802 70.233300 -10.034400 7.040000
21.035000 1.724620 68.795600 -9.856800 7.560000
21.162500 1.511120 69.212400 -9.856800 8.410000
21.287000 1.745280 69.619500 -9.856800 8.370000
20.990300 2.392360 70.590400 -9.856800 7.420000
21.113000 2.406350 71.003200 -9.856800 8.680000
21.235800 2.420340 71.416000 -9.856800 5.550000
21.181400 2.696720 72.770400 -9.856800 8.940000
21.301800 2.712050 73.183900 -9.856800 8.830000
-31.040300 -1.610060 70.591200 -9.146400 8.070000
-31.213700 -1.619060 70.985500 -9.146400 8.790000
21.561500 2.329140 76.261900 -9.856800 8.530000
21.680600 2.095360 76.683000 -9.856800 9.260000
21.797800 2.106680 77.097500 -9.856800 5.450000
21.916300 1.931160 77.516500 -9.856800 8.460000
21.423700 2.430410 79.873900 -9.856800 10.990000
21.535200 2.443070 80.289900 -9.856800 9.050000
21.648700 2.197290 80.712800 -9.856800 6.010000
-28.717200 -0.710963 78.504000 -9.412800 9.610000
21.760300 2.208620 81.128900 -9.945600 9.520000
21.871900 2.219950 81.544900 -9.945600 6.890000
21.983500 2.231270 81.961000 -9.856800 7.340000
22.095000 2.242600 82.377000 -9.856800 9.150000
21.857200 0.492080 88.252200 -9.945600 11.800000
21.960800 0.494412 88.670400 -9.945600 6.880000
22.683800 1.386240 91.589700 -9.945600 5.640000
22.787400 1.392570 92.007900 -9.945600 8.200000
22.891000 1.398900 92.426100 -9.945600 6.710000
22.994500 1.405230 92.844400 -9.945600 11.000000
22.380200 0.817241 93.444500 -9.945600 10.130000
22.480600 0.820905 93.863600 -9.945600 6.570000
22.579300 1.424220 94.275800 -9.945600 5.950000
23.717000 2.059800 95.761300 -9.945600 5.120000
23.820600 2.068800 96.179500 -9.945600 8.990000
20.428100 1.117750 129.822000 -10.123200 11.620000
20.495100 1.121420 130.248000 -10.123200 14.470000
20.561400 1.534180 130.670000 -10.123200 13.070000
-53.655900 -11.461900 124.621000 -9.146400 6.740000
-53.701200 -14.756900 124.726000 -9.146400 7.680000
-55.654100 -17.643900 123.966000 -9.057600 12.260000
-54.752300 -19.805000 124.517000 -9.057600 12.500000
-3.586440 1.583170 186.108000 -10.123200 9.510000
-3.594750 1.586840 186.538000 -10.123200 7.460000
-2.574660 1.229700 7.673820 2.397600 6.260000
-2.710170 1.294420 8.077710 2.397600 10.240000
-3.316470 1.331470 8.313290 2.308800 10.120000
-3.853310 1.162470 8.582970 2.220000 5.850000
-2.733350 1.602120 9.390630 2.397600 6.350000
6.742560 -1.287920 8.302160 -8.169600 3.570000
-2.157860 1.003470 10.947700 2.486400 8.400000
6.326690 -0.632009 9.224410 -8.702400 9.100000
6.945510 -1.339440 8.688040 -8.169600 3.650000
5.817140 -0.485611 10.063900 -9.057600 7.390000
6.577030 0.377741 9.589420 -8.702400 10.600000
5.871000 -0.503597 10.528400 -9.146400 5.830000
6.512410 -0.289158 10.152500 -8.880000 9.210000
6.819910 0.429024 9.943530 -8.702400 8.500000
6.744990 -0.299485 10.515100 -8.880000 10.000000
6.284690 0.769153 11.270200 -9.146400 3.840000
6.977170 -0.339788 10.877100 -8.880000 7.040000
6.583750 0.794792 11.595500 -9.146400 8.990000
6.947960 -0.351114 11.403300 -8.968800 6.700000
6.850910 1.648540 11.852400 -9.146400 8.630000
6.612890 1.700060 12.473100 -9.235200 4.550000
6.342380 1.672820 13.100200 -9.412800 6.850000
5.881350 -0.443044 13.880400 -9.590400 10.800000
6.049910 -0.407745 14.278200 -9.590400 12.730000
7.054780 -0.468361 14.289800 -9.590400 11.190000
7.244590 -0.616199 14.188900 -9.324000 8.330000
5.942120 -0.835212 15.235100 -9.679200 8.700000
7.143290 -2.215400 15.049100 -9.679200 6.530000
7.082780 -0.701439 15.223500 -9.501600 6.020000
6.665760 -2.272210 15.731600 -9.679200 5.860000
7.486470 -1.384470 15.463400 -9.412800 5.310000
6.623840 1.269260 16.328900 -9.679200 9.430000
-8.356870 1.691210 15.473300 -8.880000 6.910000
14.091900 -1.269260 10.579600 4.528800 5.080000
6.785400 1.300220 16.727200 -9.679200 10.080000
7.269050 1.188540 16.531100 -9.501600 8.930000
-8.560700 1.732460 15.850700 -8.880000 7.410000
7.442130 1.216840 16.924700 -9.501600 8.590000
-8.606800 2.385810 16.234000 -8.968800 6.620000
-8.990230 1.602510 16.122000 -8.791200 5.950000
6.626780 1.975560 18.115600 -9.856800 3.870000
-8.623600 1.118170 17.812100 -9.146400 4.640000
-8.811070 1.142480 18.199300 -9.146400 8.360000
6.662760 2.128770 20.378000 -9.856800 5.730000
7.115600 2.171340 20.678300 -9.856800 3.320000
13.850200 0.526681 17.053900 -8.169600 4.780000
7.122780 0.796759 21.229600 -9.856800 7.550000
14.121800 0.537008 17.388300 -8.169600 7.360000
7.256000 1.094360 21.626700 -9.856800 7.200000
13.892900 2.045550 18.010100 -8.347200 10.180000
7.216990 1.456310 22.073100 -9.856800 7.950000
14.331200 2.084140 18.212700 -8.347200 8.520000
17.380300 1.528120 15.395400 -7.192800 9.450000
6.299560 1.702660 22.783400 -9.945600 7.610000
17.702100 1.556420 15.680500 -7.192800 5.280000
6.424240 -1.081750 23.234400 -9.945600 4.960000
17.938800 7.380000 14.353200 -7.192800 8.570000
8.113010 -1.385560 23.141200 -9.945600 9.020000
18.700700 7.511780 14.039700 -7.192800 7.350000
7.932500 -1.641310 23.643000 -9.856800 11.080000
8.058030 -2.140040 24.017100 -9.856800 6.620000
6.677370 -2.016920 24.895300 -10.034400 14.480000
8.198730 -2.016920 24.436500 -9.856800 14.450000
-14.270200 1.458480 21.509600 -12.076800 11.280000
6.642240 -2.050540 25.349000 -10.034400 11.150000
-14.508000 1.482790 21.868100 -12.076800 7.000000
17.862900 1.672050 19.795300 -7.903200 6.070000
19.084600 1.672050 18.620300 -7.903200 5.860000
18.151000 1.699020 20.114600 -7.903200 8.950000
6.254590 1.811110 26.797800 -10.034400 9.110000
-7.938940 1.362780 27.274800 -9.768000 10.100000
-8.060380 1.294240 27.692000 -9.768000 7.750000
-8.935780 1.313560 27.874500 -9.679200 7.670000
17.756500 1.952600 23.767400 -8.436000 6.430000
-18.421200 0.443092 23.880300 -10.123200 6.160000
18.013900 1.980900 24.111900 -8.436000 8.040000
7.753930 0.449422 29.591600 -10.034400 10.200000
18.271200 2.009200 24.456400 -8.436000 6.260000
7.863140 0.455751 30.008400 -10.034400 5.620000
18.528500 2.037490 24.800800 -8.436000 13.960000
7.972350 0.462081 30.425100 -10.034400 12.750000
8.081890 0.369803 30.843200 -10.034400 13.020000
5.345650 -0.692597 32.738500 -10.123200 7.810000
6.498290 -0.701592 32.968600 -10.123200 5.890000
5.025510 1.736360 33.623300 -10.212000 5.760000
7.833920 -0.612989 33.564500 -10.123200 7.810000
6.550600 -0.620651 34.277100 -10.123200 6.710000
-8.022960 1.584000 34.374400 -9.945600 7.820000
-12.977300 1.907120 33.272600 -13.586400 8.640000
-6.377080 2.358740 39.055400 -10.123200 9.210000
-6.218080 2.384380 39.516500 -10.123200 7.730000
-6.284940 2.410010 39.941400 -10.123200 9.200000
18.669800 2.159870 35.880300 -9.324000 8.360000
-6.351800 2.435650 40.366300 -10.123200 7.900000
18.868400 2.182850 36.262000 -9.324000 8.850000
-6.418660 2.461290 40.791200 -10.123200 13.030000
19.069400 2.110010 36.648100 -9.324000 13.750000
19.268000 2.131990 37.029900 -9.324000 10.860000
19.157300 2.903560 37.520500 -9.324000 6.620000
19.060000 2.933190 38.051400 -9.324000 5.750000
19.453000 2.723830 38.835900 -9.324000 5.750000
19.386000 0.395794 42.305300 -9.501600 6.870000
19.564900 0.544710 42.695700 -9.501600 7.140000
-22.935400 -2.698190 41.885400 -8.791200 8.490000
-24.360000 -1.166960 42.143900 -8.702400 9.020000
-24.902600 -1.177290 42.326200 -8.702400 8.150000
-25.088200 -2.795420 42.641700 -8.702400 9.830000
-26.754100 -0.421447 41.708400 -8.436000 7.890000
-25.306400 -2.819730 43.012500 -8.702400 7.890000
-26.886600 -4.323050 41.914900 -8.436000 11.680000
-25.189400 -2.844040 43.578700 -8.702400 9.000000
-27.118400 -4.360320 42.276300 -8.436000 9.040000
20.644200 2.725570 52.930000 -9.768000 14.300000
19.969400 2.248290 54.590200 -9.768000 6.150000
20.117300 2.264950 54.994600 -9.768000 10.130000
20.265200 2.281600 55.399000 -9.768000 6.820000
20.413200 2.298260 55.803300 -9.768000 7.200000
20.389600 1.585680 56.753600 -9.768000 8.540000
20.535300 1.597000 57.159000 -9.768000 17.250000
10.671600 1.277260 60.236500 -10.212000 16.500000
10.747400 1.095720 60.664300 -10.212000 10.870000
10.821900 1.295250 61.084900 -10.212000 6.740000
10.541300 1.304240 61.571000 -10.212000 7.270000
20.650500 2.800970 58.902700 -9.856800 7.360000
9.297740 1.313240 62.206700 -10.212000 13.180000
20.792900 2.820280 59.308900 -9.856800 16.330000
9.554550 0.000000 63.924900 -10.212000 5.850000
21.003800 3.296890 61.038100 -9.856800 7.660000
20.485100 1.172340 62.653400 -9.856800 5.890000
20.617700 1.385190 63.059100 -9.856800 7.520000
20.751600 1.394190 63.468600 -9.856800 7.140000
20.270300 2.420920 64.949500 -9.945600 6.150000
20.901800 2.436250 65.201400 -9.945600 5.790000
21.033200 2.451570 65.611500 -9.945600 10.160000
20.789500 1.834850 66.612900 -9.945600 12.750000
10.916500 1.031770 69.375500 -10.212000 10.920000
20.914000 2.280440 67.011900 -9.945600 8.090000
10.982900 1.256630 69.797600 -10.212000 10.930000
21.042300 2.294430 67.423000 -9.945600 9.610000
21.168400 2.528180 67.827000 -9.945600 6.750000
21.032000 2.113950 68.785700 -9.945600 6.650000
21.157900 2.126610 69.197600 -9.945600 12.660000
21.283900 2.139270 69.609500 -9.945600 7.090000
21.405500 2.604790 70.007300 -9.945600 13.290000
21.531400 2.620110 70.419100 -9.945600 9.440000
21.113000 2.406350 71.003200 -9.945600 11.790000
21.785600 2.420340 71.250200 -9.945600 14.480000
21.909200 2.666080 71.654500 -9.945600 12.770000
21.665100 2.518270 74.432200 -9.945600 6.130000
21.785500 2.532260 74.845700 -9.945600 6.930000
22.340500 2.546260 75.131300 -9.945600 7.480000
22.026200 2.560250 75.672700 -9.945600 7.760000
21.563400 2.084030 76.268500 -10.034400 7.180000
21.680600 2.095360 76.683000 -10.034400 10.200000
21.797800 2.106680 77.097500 -10.034400 13.000000
21.917800 1.682020 77.521900 -10.034400 11.640000
22.034200 2.941880 79.690400 -10.034400 6.240000
22.153400 2.443070 80.121500 -10.034400 8.540000
22.268200 2.455730 80.536700 -10.034400 12.460000
