VERSION .7
FIELDS x y z velocity intensity
SIZE 4 4 4 4 4
TYPE F F F F F
COUNT 1 1 1 1 1
WIDTH 974
HEIGHT 1
VIEWPOINT 0 0 0 1 0 0 0
POINTS 974
DATA ascii
20.257000 2.453260 50.777800 -10.656000 6.150000
20.416500 2.472580 51.177600 -10.656000 11.430000
20.576100 2.491890 51.577400 -10.656000 7.160000
20.334300 2.511210 52.135500 -10.656000 7.740000
-4.922820 2.068510 57.925900 -11.277600 16.670000
-5.633590 2.083830 58.293800 -11.277600 9.790000
-10.735000 2.646430 57.988700 -11.100000 8.590000
-10.814800 2.482010 58.419800 -11.100000 7.500000
-10.893200 2.500000 58.843100 -11.100000 5.860000
20.703700 2.704380 56.597400 -10.744800 5.360000
20.851500 2.723700 57.001700 -10.744800 5.960000
-21.457200 -1.642310 58.657500 -10.567200 7.660000
-12.157000 2.431490 61.677700 -11.011200 8.710000
-21.259600 -2.042600 59.175200 -10.567200 10.670000
-12.240300 2.448140 62.100200 -11.100000 7.970000
-19.674500 -2.056590 60.174200 -10.656000 6.060000
-12.323600 2.464800 62.522600 -11.100000 8.920000
21.293000 2.733810 61.878600 -10.833600 8.450000
20.955000 2.548070 62.456800 -10.833600 8.290000
21.092000 2.564720 62.865100 -10.833600 7.990000
-17.907900 -1.766900 64.767000 -10.833600 8.780000
-18.022700 -1.778220 65.182200 -10.833600 8.560000
-18.136000 -2.000030 65.591700 -10.833600 6.540000
21.300400 2.050660 66.445000 -10.922400 7.540000
21.298900 2.322410 68.245300 -10.922400 6.930000
21.427200 2.336400 68.656400 -10.922400 8.210000
21.555500 2.350390 69.067500 -10.922400 6.370000
21.531400 2.620110 70.419100 -11.011200 10.140000
21.110800 2.635430 70.995700 -10.922400 6.820000
-27.713800 -0.176910 71.055800 -10.478400 6.840000
-27.870300 -0.177909 71.457200 -10.478400 9.330000
-28.026900 -0.178909 71.858700 -10.478400 8.910000
-11.527300 -1.386890 77.123900 -11.100000 6.400000
-29.311200 -1.628050 72.257100 -10.389600 7.460000
-11.591000 -1.394550 77.550000 -11.100000 6.050000
-29.473100 -1.637050 72.656400 -10.389600 9.060000
-29.635100 -1.646040 73.055600 -10.389600 6.230000
-17.425200 -0.183906 77.346800 -11.011200 8.600000
-17.519900 -0.184906 77.767200 -11.011200 5.610000
-18.216700 -0.185905 78.049500 -11.011200 8.380000
21.917800 1.682020 77.521900 -11.011200 5.440000
22.032200 2.129340 77.926500 -11.011200 11.750000
22.149400 2.140660 78.341000 -11.011200 12.960000
22.270700 1.455850 78.770300 -11.011200 9.770000
19.769100 0.613351 111.587000 -11.188800 5.710000
19.843200 1.319300 112.006000 -11.188800 7.120000
19.919000 0.971160 112.434000 -11.188800 6.180000
-60.204600 -5.592640 145.192000 -10.300800 7.610000
-59.028100 -14.611600 145.514000 -10.300800 8.190000
-61.431500 -14.651500 144.982000 -10.212000 5.830000
-6.324910 1.396270 164.045000 -11.277600 5.520000
-6.341520 1.399940 164.476000 -11.277600 5.200000
-6.357660 2.424340 164.894000 -11.277600 6.810000
-6.374260 2.430670 165.325000 -11.277600 6.140000
-5.180030 0.909532 167.969000 -11.277600 4.860000
-5.193310 0.911864 168.399000 -11.277600 4.870000
-5.206660 0.391800 168.832000 -11.277600 7.160000
-47.968900 -14.084800 173.487000 -10.744800 8.260000
-48.074500 -14.536900 173.869000 -10.744800 5.520000
6.090450 0.458466 4.044280 -6.304800 1.960000
6.285080 0.670819 4.495160 -6.571200 7.370000
6.441690 0.605076 4.277520 -6.127200 2.230000
6.522770 0.708086 4.897010 -6.748800 9.150000
6.799560 0.638691 4.515160 -6.216000 5.170000
6.755280 0.745354 5.299100 -6.926400 7.510000
6.102210 -0.439585 6.069580 -7.903200 5.240000
5.989410 -0.461564 6.767320 -8.347200 6.020000
6.588280 -0.278485 6.810550 -7.992000 9.720000
6.789770 0.367735 7.791820 -8.524800 5.920000
6.994150 0.383057 8.184240 -8.524800 7.070000
6.484360 1.154970 10.108800 -9.412800 7.820000
6.307590 1.196220 10.720800 -9.590400 8.340000
-8.581150 0.877254 10.199400 -8.258400 6.140000
-8.779960 0.820430 10.600500 -8.347200 3.990000
-9.054330 0.846069 10.931700 -8.347200 6.320000
6.909040 -0.977730 12.389900 -9.768000 10.350000
7.233210 0.169910 12.739400 -9.768000 11.480000
5.867350 -1.130030 13.847300 -10.212000 8.880000
7.344890 0.128266 13.171500 -9.768000 10.860000
6.034990 -1.162320 14.243000 -10.212000 11.240000
7.554740 0.131931 13.547800 -9.768000 18.160000
-8.996380 1.096240 13.116900 -8.968800 6.700000
5.373130 -1.280630 14.955900 -10.389600 9.090000
-9.243290 1.024810 13.476900 -8.968800 14.890000
5.607040 -1.315240 15.327900 -10.389600 6.420000
7.003260 -1.176390 14.754100 -10.034400 7.620000
6.815000 -0.306494 15.828500 -10.212000 8.820000
6.639950 -0.314157 16.368600 -10.300800 4.910000
-8.587450 1.105710 15.399800 -9.590400 4.750000
6.704860 -0.321819 16.806900 -10.389600 9.190000
-8.586500 1.020940 15.898400 -9.590400 4.180000
6.731280 -0.386775 17.258400 -10.389600 8.640000
-8.666700 0.988028 16.347000 -9.590400 7.640000
5.645490 -0.615578 18.089100 -10.567200 9.230000
7.463250 1.814960 17.334100 -10.212000 10.470000
-8.868250 1.011010 16.727200 -9.590400 8.800000
5.664810 -0.809352 18.526900 -10.567200 10.770000
7.530260 1.856210 17.771900 -10.300800 9.020000
5.533200 -0.949819 19.009700 -10.567200 9.240000
7.809110 1.714310 18.137400 -10.212000 8.180000
4.580630 -2.001040 19.625700 -10.744800 8.890000
-7.222690 1.751580 18.839300 -10.123200 10.190000
4.682200 -1.852570 20.060900 -10.744800 7.250000
-7.370100 1.979950 19.223800 -10.123200 9.150000
5.734240 -1.256280 20.281700 -10.656000 9.630000
-7.372170 2.021200 19.681700 -10.212000 9.490000
5.851260 -1.281920 20.695600 -10.656000 8.500000
4.114450 -1.578830 21.529500 -10.744800 8.280000
-7.528420 1.646620 20.580400 -10.212000 8.240000
18.490600 -3.507320 17.091800 -7.814400 9.640000
-8.105750 -0.065966 27.259700 -10.478400 7.420000
18.364800 1.424730 23.338800 -8.791200 6.410000
18.399200 1.538550 23.851800 -8.880000 7.910000
18.662000 1.560530 24.192600 -8.880000 7.720000
7.669120 7.721600 28.592800 -10.744800 7.850000
8.000380 7.830360 28.934700 -10.744800 6.260000
18.360600 1.677350 25.486000 -9.146400 9.560000
18.608900 1.798790 25.830800 -9.057600 5.820000
18.860400 1.823100 26.179800 -9.057600 7.340000
19.111800 1.847410 26.528900 -9.057600 5.580000
18.797400 1.631210 28.333600 -9.412800 6.390000
7.735530 0.710586 33.142900 -10.744800 6.710000
19.032500 1.758340 28.687800 -9.412800 9.360000
7.375240 1.438850 33.643000 -10.744800 8.540000
8.839280 1.456830 33.733600 -10.744800 7.890000
8.948410 1.474820 34.150100 -10.744800 8.650000
18.828800 1.584000 29.857100 -9.501600 10.140000
18.824900 1.603310 30.367200 -9.590400 7.850000
19.051700 1.622630 30.733000 -9.590400 6.880000
18.540100 2.179270 31.512100 -9.679200 15.670000
18.758300 2.204910 31.882900 -9.679200 6.850000
18.976400 2.230550 32.253600 -9.679200 14.760000
19.194500 2.256180 32.624300 -9.679200 9.670000
18.910600 1.956150 33.306000 -9.768000 11.850000
19.123100 1.978130 33.680300 -9.768000 16.460000
19.335600 2.000110 34.054500 -9.768000 16.510000
19.548100 2.022090 34.428700 -9.768000 11.940000
19.220700 2.159870 35.588200 -9.856800 12.590000
19.425100 2.182850 35.966900 -9.856800 18.580000
19.629600 2.205830 36.345400 -9.856800 11.550000
19.550500 2.228810 36.875800 -9.856800 6.510000
19.180700 2.023530 37.566300 -9.945600 6.800000
19.376400 2.044180 37.949700 -9.945600 5.740000
19.572100 2.064820 38.333000 -9.945600 13.350000
19.767800 2.085470 38.716300 -9.945600 16.540000
8.499050 0.509729 43.119200 -10.833600 5.200000
9.503260 0.514726 43.350300 -10.833600 15.360000
19.624900 2.126770 39.751300 -10.034400 6.800000
9.847990 0.658308 43.713200 -10.833600 9.690000
20.050000 2.008970 40.027700 -10.034400 7.180000
9.943080 0.524721 44.135300 -10.833600 11.370000
9.780690 -0.105946 44.615800 -10.744800 9.370000
8.914860 -0.819872 45.228800 -10.833600 16.030000
19.187900 2.066920 41.872900 -10.123200 9.420000
9.349760 -0.827535 45.580800 -10.833600 15.650000
-24.851400 -2.550490 40.787300 -9.235200 8.810000
20.092000 1.716100 43.846000 -10.123200 9.450000
19.927600 1.881910 44.387300 -10.123200 7.450000
9.220830 0.000000 48.249400 -10.833600 14.670000
19.590600 1.187610 45.501100 -10.212000 9.290000
20.115500 1.043390 45.746200 -10.212000 9.660000
20.290100 0.896496 46.143400 -10.212000 8.210000
20.101600 1.218600 46.688100 -10.212000 7.990000
19.793300 1.838680 47.734300 -10.212000 6.030000
19.955900 2.015140 48.126600 -10.212000 13.280000
20.123200 1.869320 48.529900 -10.212000 11.460000
20.285800 2.048450 48.922000 -10.212000 6.180000
17.960700 0.797565 51.230400 -9.501600 15.710000
18.103200 0.803895 51.637000 -9.501600 7.170000
18.244900 0.980782 52.040900 -9.501600 5.660000
-21.805200 -1.321870 50.644700 -9.945600 6.670000
20.183100 2.148370 51.747900 -10.389600 9.670000
19.242900 0.649655 52.604100 -9.501600 5.370000
20.337100 2.338130 52.142500 -10.389600 8.550000
19.390900 0.654652 53.008800 -9.501600 6.690000
20.493500 2.356110 52.543600 -10.389600 6.960000
-4.808800 3.208660 56.584300 -10.922400 6.980000
-5.174720 3.232970 56.984000 -10.922400 10.060000
20.500200 2.214990 53.471800 -10.389600 6.920000
20.654400 2.231640 53.873900 -10.389600 7.810000
-4.921650 2.428060 57.912000 -10.922400 8.110000
20.808500 2.248290 54.275900 -10.389600 9.910000
-4.958720 2.264950 58.348300 -10.922400 8.400000
20.960000 2.446040 54.671200 -10.389600 15.520000
20.998300 1.944670 56.059900 -10.478400 16.330000
21.149400 1.958660 56.463200 -10.478400 5.940000
21.013300 1.608330 57.443900 -10.478400 12.660000
21.159500 1.810150 57.843500 -10.478400 6.780000
21.309300 1.630980 58.253000 -10.478400 7.380000
-20.951800 -1.322230 59.762200 -10.300800 12.290000
-21.094400 -1.331230 60.168700 -10.300800 11.250000
20.678500 2.715830 61.632700 -10.567200 7.030000
20.611300 2.154520 63.039600 -10.567200 11.290000
20.745200 2.168510 63.449000 -10.567200 9.940000
20.879000 2.182500 63.858300 -10.567200 5.690000
-17.855600 -1.652330 66.571200 -10.567200 10.490000
-17.579700 -1.662660 67.090000 -10.567200 4.720000
21.812100 2.378370 69.889700 -10.656000 7.600000
21.110800 2.635430 70.995700 -10.656000 6.960000
21.235800 2.420340 71.416000 -10.656000 10.820000
21.360600 2.202560 71.835700 -10.656000 11.790000
22.042700 1.807240 72.091200 -10.656000 9.020000
22.294600 1.827890 72.915100 -10.656000 6.420000
22.419300 2.016070 73.322800 -10.656000 11.280000
22.221800 2.050050 74.732100 -10.656000 6.480000
22.344600 2.061380 75.145000 -10.656000 6.560000
21.680600 2.095360 76.683000 -10.656000 7.040000
21.797800 2.106680 77.097500 -10.656000 8.170000
-13.112600 -3.399280 80.305600 -10.744800 9.620000
22.386600 1.718000 79.180100 -10.656000 11.860000
22.276300 0.969484 80.566000 -10.656000 5.190000
21.766300 0.974482 81.151500 -10.656000 7.360000
21.878000 0.979479 81.567600 -10.656000 8.600000
22.096300 2.044760 82.381800 -10.656000 5.430000
22.207900 2.055090 82.797900 -10.656000 5.830000
-27.406700 1.798950 81.686200 -10.389600 7.210000
-27.545300 1.540130 82.099500 -10.389600 5.570000
-27.682400 1.547800 82.508000 -10.389600 6.900000
-27.819400 1.555460 82.916400 -10.389600 5.100000
31.343100 2.095190 139.126000 -10.744800 8.810000
31.439100 1.659120 139.552000 -10.744800 8.950000
31.533800 1.664120 139.972000 -10.744800 7.080000
31.628500 1.669110 140.392000 -10.744800 5.610000
21.185700 1.268010 147.573000 -10.922400 6.970000
21.246900 1.271670 148.000000 -10.922400 10.670000
21.308600 0.811583 148.429000 -10.922400 10.200000
-60.193300 -13.275500 145.165000 -10.034400 5.440000
-59.234100 -13.311800 146.022000 -10.034400 6.170000
-59.367500 -14.203000 146.351000 -10.034400 7.260000
-5.100400 0.383804 165.387000 -11.011200 8.610000
-6.390860 2.437000 165.755000 -10.922400 9.970000
-6.407460 2.443330 166.186000 -10.922400 9.570000
-5.206670 0.000000 168.833000 -10.922400 5.800000
-5.219940 0.392800 169.263000 -10.922400 4.500000
-5.233240 0.000000 169.694000 -10.922400 6.850000
-48.240800 -11.913700 174.471000 -10.478400 5.380000
-48.334800 -13.064100 174.811000 -10.478400 8.700000
-48.438300 -13.657200 175.185000 -10.478400 10.540000
-46.991500 -21.843100 175.199000 -10.478400 8.290000
6.452190 0.413593 4.284490 -6.304800 3.800000
6.757910 0.436570 4.600950 -6.393600 3.440000
5.831220 -0.306446 6.338210 -8.169600 5.070000
7.020100 -0.622568 6.340120 -7.548000 6.790000
6.794050 0.023988 7.796730 -8.436000 11.830000
4.729920 -1.395020 9.090130 -9.856800 4.190000
7.139060 0.124934 8.066290 -8.436000 11.550000
6.459690 1.390950 9.575730 -9.324000 4.130000
-8.581150 0.877254 10.199400 -8.258400 6.790000
-8.776550 0.905553 10.596400 -8.347200 8.500000
7.020190 0.208886 12.364200 -9.768000 9.870000
7.232550 0.260520 12.738200 -9.768000 15.590000
4.567410 -1.895670 14.247700 -10.478400 5.610000
7.445280 0.268183 13.112900 -9.768000 16.820000
-7.709770 1.490140 12.876000 -9.324000 5.700000
4.499830 -1.949830 14.716800 -10.567200 6.520000
7.449190 0.275845 13.604000 -9.768000 13.620000
-8.031890 1.532710 13.182300 -9.324000 5.580000
-8.985720 1.342060 13.101300 -8.968800 5.070000
6.626030 -1.096240 14.459700 -10.123200 8.720000
-8.073240 0.850163 13.721800 -9.324000 7.400000
-9.228570 1.378330 13.455400 -8.968800 4.190000
6.690450 -1.125870 14.902500 -10.212000 4.800000
-8.288530 0.974261 14.087800 -9.412800 6.490000
-8.721890 0.873141 13.830400 -9.235200 5.950000
6.867950 -1.103640 15.297900 -10.212000 6.720000
-7.606830 1.344610 15.408000 -9.768000 6.500000
-7.816710 0.573607 15.833200 -9.768000 5.520000
7.042430 -1.300220 16.620600 -10.300800 6.490000
-8.472740 0.587597 15.981200 -9.679200 7.040000
7.308350 -1.331170 16.974400 -10.212000 4.440000
-8.545170 0.773381 16.422400 -9.679200 8.160000
7.106890 -1.420610 17.519700 -10.300800 9.260000
-7.982120 1.186620 17.156500 -9.945600 6.240000
6.551170 -0.749431 18.234900 -10.478400 9.700000
-8.063490 1.153730 17.596600 -9.945600 7.550000
5.645260 -0.766086 18.985000 -10.567200 9.410000
-8.105250 1.118170 18.053900 -10.034400 8.110000
4.297090 -2.731920 19.601700 -10.744800 8.690000
-7.220720 1.813970 18.834200 -10.212000 6.540000
6.105650 -2.790040 19.563500 -10.656000 4.890000
-7.223830 1.916270 19.285700 -10.212000 8.230000
6.159120 1.451780 20.143600 -10.567200 5.280000
-7.222370 1.956190 19.743800 -10.212000 8.500000
-7.135150 1.443220 20.735200 -10.300800 4.910000
-7.839320 1.609790 20.928900 -10.300800 9.410000
6.801890 0.547335 21.794400 -10.567200 5.570000
5.100710 -1.671710 22.641000 -10.744800 5.520000
-6.909810 1.869030 22.140200 -10.389600 9.550000
7.000420 -0.056971 23.542500 -10.656000 6.530000
7.307660 -0.057970 23.899900 -10.656000 12.310000
7.573970 -0.137596 24.268300 -10.744800 10.430000
7.559560 -0.139928 24.723700 -10.656000 12.450000
8.312390 4.636780 25.423400 -10.567200 6.700000
7.945150 4.710380 25.984800 -10.656000 4.650000
-7.824940 0.736207 26.883200 -10.567200 4.650000
7.736850 0.329825 27.364800 -10.744800 5.280000
-7.945320 0.747533 27.296700 -10.567200 5.050000
7.854080 0.334822 27.779400 -10.744800 7.530000
-8.065700 0.758859 27.710300 -10.567200 10.520000
6.824700 -0.067965 28.495200 -10.833600 7.750000
18.353400 1.769050 23.324300 -8.880000 10.350000
7.147700 -0.068965 28.860100 -10.833600 9.360000
18.390500 1.794690 23.840600 -8.968800 7.210000
7.813560 -0.349814 29.131300 -10.744800 8.710000
18.653200 1.820330 24.181200 -8.968800 9.710000
7.854960 1.486670 29.977100 -10.744800 6.540000
18.533800 1.589910 27.474300 -9.324000 6.990000
-7.384660 0.805513 32.779000 -10.744800 4.900000
18.559500 1.610560 27.974900 -9.412800 5.390000
-7.480680 0.500061 33.205200 -10.744800 7.100000
18.797400 1.631210 28.333600 -9.412800 9.830000
7.575370 0.506391 33.625500 -10.833600 9.080000
19.035400 1.651860 28.692200 -9.412800 13.400000
9.038880 0.917427 33.699700 -10.744800 7.990000
18.604000 1.348980 29.500600 -9.590400 12.580000
9.148810 1.147210 34.109500 -10.744800 7.240000
18.833700 1.365630 29.864800 -9.590400 7.340000
19.061000 1.492810 30.225200 -9.590400 9.390000
19.290600 1.510790 30.589400 -9.590400 13.540000
18.775200 2.405370 31.356100 -9.679200 5.550000
18.999800 2.319300 31.731300 -9.679200 13.250000
19.220800 2.346270 32.100300 -9.679200 5.980000
19.441700 2.373240 32.469300 -9.679200 8.420000
18.656200 1.837690 33.455900 -9.856800 11.320000
18.862900 1.978130 33.826600 -9.856800 16.720000
19.072500 2.000110 34.202500 -9.856800 17.070000
19.282100 2.022090 34.578400 -9.856800 12.790000
19.225900 1.940930 35.598000 -9.945600 7.530000
19.430500 1.961580 35.976700 -9.945600 14.180000
19.635000 1.982230 36.355400 -9.945600 12.570000
19.177700 2.153970 37.560600 -10.034400 7.120000
19.373400 2.175950 37.943800 -10.034400 12.180000
19.569100 2.197930 38.327100 -10.034400 9.390000
19.770700 1.951020 38.721900 -10.034400 7.200000
8.826140 1.562870 43.028100 -10.833600 12.000000
9.753290 0.651978 43.292900 -10.833600 6.450000
9.848390 0.519724 43.715000 -10.833600 7.140000
10.283000 0.524721 44.057400 -10.833600 6.290000
19.566300 2.047600 41.221500 -10.123200 11.940000
19.750900 2.066920 41.610300 -10.123200 16.020000
19.611200 2.086240 42.151600 -10.123200 7.680000
20.120100 2.105550 42.388100 -10.123200 14.820000
9.158270 1.978420 46.463700 -10.833600 8.490000
9.241530 1.996400 46.886100 -10.833600 16.430000
19.574900 1.848600 43.601700 -10.212000 10.840000
8.142280 1.007410 47.558300 -10.922400 13.600000
19.751200 1.865250 43.994500 -10.212000 10.940000
7.843910 1.279870 48.038700 -10.922400 7.870000
19.927600 1.881910 44.387300 -10.212000 8.980000
7.980450 1.762060 48.874900 -10.833600 6.940000
19.589400 1.302520 45.498400 -10.212000 12.240000
19.759800 1.313850 45.894100 -10.212000 6.540000
19.930100 1.325170 46.289700 -10.212000 11.060000
20.092400 1.965180 46.666600 -10.212000 7.110000
7.103530 2.337360 51.599800 -10.922400 6.900000
19.953400 2.176260 48.120600 -10.300800 10.830000
6.761040 2.356680 52.079900 -10.922400 11.070000
20.120900 2.031790 48.524300 -10.300800 7.270000
19.940700 2.248200 49.984800 -10.389600 5.850000
20.100200 2.266190 50.384700 -10.389600 10.190000
-23.072400 -1.776780 49.590900 -9.856800 7.810000
-22.962300 -1.961250 50.109700 -9.945600 8.320000
20.192400 1.332190 51.771700 -10.478400 9.020000
20.349000 1.342520 52.173000 -10.478400 7.610000
18.532200 0.476418 52.860500 -9.412800 7.600000
20.505500 1.352850 52.574300 -10.478400 7.800000
20.662000 1.363180 52.975700 -10.478400 14.970000
20.089800 2.037870 53.634400 -10.478400 14.080000
-4.436280 3.792000 57.444900 -10.922400 7.690000
20.238500 2.231640 54.031500 -10.478400 8.340000
-4.469390 3.820300 57.873600 -11.011200 8.180000
20.389600 2.248290 54.434700 -10.478400 9.640000
-4.502490 3.848600 58.302300 -11.011200 7.250000
20.540600 2.264950 54.837900 -10.478400 15.150000
20.563400 2.129800 56.214200 -10.478400 4.420000
20.677100 1.986640 57.553900 -10.567200 6.330000
20.822700 2.000630 57.959300 -10.567200 5.840000
20.968400 2.014620 58.364600 -10.567200 6.000000
-31.051800 0.000000 53.720900 -9.412800 6.780000
21.116000 1.835470 58.775500 -10.567200 10.860000
-30.849600 0.000000 54.333400 -9.501600 14.140000
-30.422300 0.146925 55.558200 -9.501600 12.750000
-18.985200 -2.464800 60.831800 -10.389600 6.030000
-20.555000 1.349210 61.264600 -10.389600 5.370000
-20.694300 0.955812 61.679800 -10.389600 7.160000
-19.896700 -0.774588 63.752300 -10.478400 7.020000
-18.249000 -2.224480 66.000500 -10.567200 7.940000
-18.363800 -2.238470 66.415600 -10.567200 5.500000
-18.480300 -2.038000 66.837100 -10.567200 8.510000
-19.890300 -1.672990 66.891200 -10.478400 9.040000
-19.623700 -1.683310 67.418600 -10.478400 7.470000
21.701900 1.044430 67.697400 -10.656000 6.930000
21.161000 1.734950 69.207600 -10.656000 10.140000
21.288400 1.520120 69.624400 -10.656000 9.490000
21.416700 1.076080 70.044000 -10.656000 7.360000
21.124100 0.171912 71.040500 -10.656000 6.020000
21.246900 0.172912 71.453500 -10.656000 11.010000
21.309100 1.827890 73.209200 -10.656000 11.050000
21.429500 1.838220 73.622800 -10.656000 6.280000
21.203300 3.014380 74.994800 -10.744800 5.580000
21.903500 2.788660 75.251300 -10.744800 6.230000
22.021400 3.047690 75.656000 -10.744800 7.640000
-11.890200 -4.794390 79.551900 -10.833600 6.750000
22.730600 2.044760 82.209100 -10.744800 5.410000
22.848400 1.524810 82.634900 -10.744800 6.310000
22.964300 1.265980 83.054400 -10.744800 7.700000
-27.545300 1.540130 82.099500 -10.389600 7.270000
22.539500 2.557000 84.034000 -10.744800 5.500000
-27.682400 1.547800 82.508000 -10.389600 6.550000
-27.819400 1.555460 82.916400 -10.389600 9.710000
19.340800 1.329290 112.968000 -10.922400 8.230000
19.413500 1.334290 113.393000 -10.922400 5.750000
19.484500 2.053510 113.807000 -10.922400 6.330000
-54.905800 -11.154000 111.215000 -9.768000 5.590000
-55.095800 -11.192600 111.599000 -9.768000 5.060000
-55.237300 -12.389400 111.886000 -9.679200 6.030000
30.539600 1.654120 139.310000 -10.833600 6.600000
30.631900 1.659120 139.731000 -10.833600 6.210000
30.724100 1.664120 140.152000 -10.833600 9.890000
22.100500 2.196470 147.864000 -10.922400 9.390000
21.306600 2.202800 148.415000 -10.922400 5.060000
22.227900 2.209130 148.716000 -10.922400 6.630000
-60.388100 -12.336800 145.635000 -10.034400 7.430000
-60.552700 -12.370400 146.031000 -10.034400 6.940000
-60.717200 -12.404100 146.428000 -10.034400 8.500000
-6.391120 1.923980 165.762000 -11.011200 9.320000
-6.407720 1.928970 166.193000 -11.011200 6.160000
-6.424320 1.933970 166.623000 -11.011200 5.590000
-5.219940 0.392800 169.263000 -11.011200 8.580000
-5.233220 0.393799 169.693000 -11.011200 7.260000
-5.246520 0.000000 170.125000 -11.011200 6.530000
-48.240800 -11.913700 174.471000 -10.478400 7.530000
6.030820 0.656118 4.105930 -6.482400 3.230000
6.334890 0.694713 4.420990 -6.660000 6.690000
6.634250 0.708086 4.744890 -6.660000 5.840000
4.930560 -0.733309 6.494650 -8.880000 2.270000
5.703510 -0.459548 6.444280 -8.436000 3.090000
6.983420 0.745354 4.994620 -6.660000 1.150000
5.475120 -0.771904 6.610380 -8.702400 6.820000
5.747250 -0.838368 6.938940 -8.702400 6.930000
6.653590 -0.278485 6.746770 -8.080800 6.690000
7.507050 -0.979233 6.395870 -7.459200 4.230000
7.187830 -0.271830 7.430330 -7.992000 5.010000
6.619700 1.479510 9.977960 -9.324000 4.400000
6.216890 1.350000 10.755500 -9.679200 5.180000
6.345320 1.396560 11.175600 -9.768000 6.680000
-8.575540 1.000880 10.192700 -8.258400 6.160000
6.467630 1.443110 11.598300 -9.768000 5.440000
-8.668390 1.033170 10.673500 -8.436000 8.630000
-8.939280 1.065460 11.007000 -8.436000 8.130000
7.020690 0.120937 12.365100 -9.768000 9.580000
7.233440 0.124602 12.739800 -9.768000 16.060000
5.851390 -1.582940 13.809700 -10.300800 10.210000
7.344890 0.128266 13.171500 -9.768000 17.760000
6.100580 -1.628160 14.169200 -10.212000 9.520000
7.554740 0.131931 13.547800 -9.768000 15.390000
-8.426280 1.675870 12.916000 -9.235200 6.950000
7.551880 -1.280630 13.982800 -10.034400 6.200000
6.803630 -1.176390 14.847300 -10.123200 9.200000
-8.276420 1.315240 14.067200 -9.324000 8.490000
-8.610820 1.207340 14.380800 -9.324000 10.160000
-8.831610 1.238300 14.749500 -9.324000 5.910000
-8.718390 0.573607 15.355100 -9.501600 10.380000
5.290620 -0.377780 17.303100 -10.567200 3.660000
-8.931030 0.587597 15.729600 -9.501600 4.700000
5.518890 -0.386775 17.683500 -10.567200 9.130000
7.457050 -0.329481 16.958700 -10.300800 6.320000
-8.670320 0.830632 16.353800 -9.679200 8.280000
-9.265490 0.716123 16.029700 -9.501600 5.140000
5.890780 -0.395770 18.016900 -10.567200 6.870000
-8.612960 0.849949 16.868900 -9.768000 9.050000
6.007610 -1.512690 18.374200 -10.567200 7.980000
-7.788270 1.273430 17.711900 -10.034400 6.130000
-8.675480 0.869266 17.319700 -9.856800 5.550000
6.032440 -1.546310 18.817700 -10.567200 8.030000
7.810670 1.668510 18.141000 -10.300800 9.530000
-7.961350 1.301730 18.105500 -10.034400 8.720000
-7.335270 1.626750 18.807000 -10.123200 10.060000
7.210120 -2.298070 19.249100 -10.478400 5.520000
7.890480 1.852570 19.029000 -10.300800 8.290000
-7.492710 1.613540 19.210700 -10.123200 8.470000
4.225640 -1.891160 20.600300 -10.833600 5.840000
7.887670 -2.345950 19.444400 -10.389600 6.150000
-7.648810 1.647150 19.610900 -10.123200 5.040000
5.439150 -1.929760 20.757600 -10.744800 8.050000
-7.800980 1.813590 20.001100 -10.212000 5.520000
-7.838940 1.849860 20.446700 -10.212000 6.180000
-7.830180 1.937920 20.904500 -10.212000 10.150000
6.669010 -1.164900 21.811200 -10.656000 6.080000
6.018410 -1.312630 22.438400 -10.744800 5.310000
-6.906240 2.012460 22.128800 -10.478400 9.480000
6.129860 -1.336940 22.854000 -10.744800 6.120000
-7.034130 2.049720 22.538500 -10.478400 7.640000
6.114680 -0.578317 23.335600 -10.833600 7.290000
-7.162020 2.086990 22.948300 -10.478400 10.090000
6.223870 -0.588644 23.752400 -10.833600 5.260000
-7.293690 1.972870 23.370200 -10.478400 10.410000
6.006920 -0.521696 24.254000 -10.744800 8.660000
-7.287140 1.872620 23.832800 -10.567200 10.980000
7.899000 -0.530691 24.159000 -10.656000 5.810000
-7.672050 1.563950 25.091600 -10.478400 7.720000
18.452200 1.450630 21.591900 -8.613600 7.800000
18.731800 1.472610 21.919100 -8.613600 5.500000
6.751930 1.241010 28.928700 -10.833600 5.430000
18.525400 1.952600 23.173200 -8.880000 8.840000
7.015440 1.608420 29.291700 -10.833600 6.580000
18.383400 1.980900 23.831400 -8.968800 5.440000
6.943810 1.631390 29.750800 -10.833600 8.920000
18.646000 2.009200 24.171800 -8.968800 8.110000
18.339200 2.259900 25.456400 -9.146400 9.510000
18.590400 2.290860 25.805100 -9.146400 4.750000
18.841600 2.321810 26.153800 -9.146400 10.170000
-6.666850 0.282186 32.501400 -10.744800 5.600000
18.541300 1.282360 27.485300 -9.324000 10.300000
-6.752940 0.493731 32.921100 -10.744800 9.900000
18.782100 1.299010 27.842300 -9.324000 8.340000
19.022900 1.315670 28.199200 -9.324000 6.120000
19.265900 1.225780 28.559400 -9.324000 6.390000
7.657300 2.076710 33.989200 -10.833600 9.700000
18.363600 1.861170 29.623100 -9.590400 4.350000
7.751840 2.102350 34.408800 -10.833600 9.440000
18.590300 1.884150 29.988800 -9.590400 10.660000
18.817100 1.907120 30.354500 -9.590400 11.650000
19.046100 1.846260 30.723900 -9.590400 8.500000
18.543500 2.066180 31.517800 -9.679200 4.600000
18.758300 2.204910 31.882900 -9.679200 7.300000
18.976400 2.230550 32.253600 -9.679200 6.880000
19.197900 2.139110 32.630200 -9.679200 7.100000
18.905100 2.163410 33.296300 -9.768000 10.570000
18.945800 2.159870 35.735300 -9.945600 4.810000
19.147400 2.182850 36.115500 -9.945600 8.540000
19.437200 1.970340 39.371000 -10.123200 12.940000
9.503560 0.377470 43.351600 -10.833600 11.870000
19.627700 1.989650 39.757000 -10.123200 14.580000
9.595830 0.381135 43.772500 -10.833600 6.200000
19.508300 2.008970 40.294500 -10.123200 6.610000
9.943390 0.384799 44.136700 -10.833600 8.630000
20.006000 2.168060 40.523100 -10.123200 6.140000
19.245300 2.188710 41.365100 -10.212000 7.840000
8.640850 -2.600960 45.214600 -10.922400 7.050000
19.426800 2.209360 41.755300 -10.212000 5.780000
8.721610 -2.625270 45.637200 -10.833600 5.500000
19.608400 2.230010 42.145600 -10.212000 6.270000
8.802360 -2.649580 46.059700 -10.833600 5.210000
19.790000 2.250660 42.535800 -10.212000 8.950000
8.897160 0.256535 46.555800 -10.922400 14.460000
8.978040 0.258867 46.979000 -10.922400 14.930000
19.572400 1.996400 43.596200 -10.300800 15.360000
19.748800 2.014390 43.989000 -10.300800 7.210000
19.925100 2.032370 44.381800 -10.300800 14.020000
19.762300 1.043390 45.899900 -10.300800 9.330000
19.931300 1.208270 46.292400 -10.300800 12.650000
19.791000 1.998480 47.728800 -10.389600 8.610000
19.953400 2.176260 48.120600 -10.389600 9.310000
20.118400 2.194240 48.518300 -10.389600 7.540000
20.283300 2.212230 48.915900 -10.389600 9.630000
20.448200 2.230220 49.313600 -10.389600 6.790000
6.624680 0.791235 53.447700 -10.922400 6.450000
20.620200 1.748800 49.728500 -10.389600 12.140000
20.398200 1.762790 50.285000 -10.389600 10.650000
20.560100 1.776780 50.684100 -10.389600 9.770000
-22.785300 -1.776780 49.723400 -9.945600 9.290000
-24.021700 -1.790770 49.617000 -9.856800 6.320000
16.834600 0.980782 52.514100 -9.590400 9.660000
20.185500 1.976580 51.753800 -10.478400 9.750000
-24.209400 -1.804760 50.004600 -9.856800 12.450000
20.341900 1.991900 52.155000 -10.478400 16.750000
20.498400 2.007220 52.556200 -10.478400 16.480000
-4.377210 1.846730 56.680000 -10.922400 6.220000
20.654900 2.022540 52.957400 -10.478400 11.550000
-4.078770 2.392090 57.114300 -10.922400 7.290000
20.502600 2.037870 53.478000 -10.478400 5.960000
20.656700 2.053190 53.880100 -10.478400 13.880000
20.810900 2.068510 54.282200 -10.478400 5.830000
20.542900 2.083830 54.844200 -10.478400 15.310000
-8.784630 2.114480 58.773700 -11.011200 12.290000
-6.172160 2.114480 59.105200 -11.011200 12.020000
20.677100 1.986640 57.553900 -10.567200 9.710000
20.822700 2.000630 57.959300 -10.567200 7.530000
20.519900 1.822810 58.530000 -10.567200 13.540000
-19.097300 -3.621900 61.191000 -10.478400 15.900000
-17.737900 -2.436250 66.132300 -10.656000 7.350000
-17.849500 -2.451570 66.548200 -10.656000 8.850000
-19.758400 -2.681300 66.447700 -10.478400 14.940000
-19.881100 -2.697950 66.860400 -10.478400 4.480000
20.923600 0.814567 67.042800 -10.656000 5.250000
-20.537000 0.162917 67.166900 -10.478400 10.730000
21.571200 0.819564 67.289800 -10.656000 13.520000
21.701900 1.044430 67.697400 -10.656000 11.890000
21.562200 1.511120 69.088900 -10.656000 6.800000
21.690500 1.520120 69.500100 -10.656000 7.800000
21.818900 1.529110 69.911400 -10.656000 9.030000
21.119500 1.547100 71.025200 -10.656000 7.950000
21.792300 1.556090 71.272300 -10.656000 5.390000
21.918300 1.565090 71.684200 -10.656000 8.640000
22.044200 1.574080 72.096200 -10.656000 8.230000
21.724500 2.712050 73.059600 -10.744800 7.890000
21.844700 2.964420 73.463900 -10.744800 10.780000
21.540000 2.981070 74.002300 -10.744800 7.070000
21.211800 2.050050 75.025000 -10.744800 11.860000
21.329000 2.061380 75.439500 -10.744800 8.830000
-28.072900 0.666986 73.224000 -10.212000 13.050000
-28.652300 0.670650 73.462000 -10.212000 6.900000
22.026200 2.560250 75.672700 -10.744800 9.440000
22.387800 1.753980 80.969100 -10.744800 8.460000
22.730600 2.044760 82.209100 -10.744800 9.320000
22.845400 2.055090 82.624300 -10.744800 4.590000
22.961800 1.798950 83.045200 -10.744800 7.140000
22.432700 1.807950 83.635800 -10.744800 5.010000
-27.546700 1.272310 82.103600 -10.389600 6.850000
22.544300 1.816940 84.051900 -10.744800 10.350000
-27.683800 1.278640 82.512100 -10.389600 12.500000
22.655900 1.825940 84.468000 -10.744800 11.650000
-27.819400 1.555460 82.916400 -10.389600 8.470000
22.765900 2.106720 84.878300 -10.744800 8.970000
23.534200 2.117050 85.115500 -10.744800 8.310000
23.649000 2.127380 85.530700 -10.744800 6.540000
23.763800 2.137710 85.945900 -10.744800 6.650000
19.268100 1.324300 112.543000 -10.922400 10.640000
19.341400 0.974825 112.972000 -10.922400 10.690000
19.414600 0.622680 113.399000 -10.922400 10.170000
22.099400 2.658840 147.856000 -11.011200 8.610000
22.163100 2.666500 148.282000 -11.011200 8.170000
21.366800 2.674160 148.834000 -11.011200 6.080000
-60.124500 -9.843540 144.999000 -10.123200 5.440000
-60.289300 -9.870510 145.396000 -10.123200 9.300000
-60.416200 -11.361400 145.702000 -10.034400 12.310000
-60.567100 -11.881500 146.066000 -10.034400 11.060000
-6.374520 1.918980 165.332000 -11.011200 4.990000
-6.391120 1.923980 165.762000 -11.011200 6.090000
-6.407920 1.414600 166.198000 -11.011200 5.690000
-5.206660 0.391800 168.832000 -11.011200 4.780000
-5.219940 0.392800 169.263000 -11.011200 6.160000
-5.233220 0.393799 169.693000 -11.011200 7.270000
-5.246520 0.000000 170.125000 -11.011200 8.470000
-48.250400 -11.353800 174.506000 -10.567200 5.450000
5.322320 -0.439585 6.763850 -8.880000 0.450000
5.647090 -0.619150 6.480500 -8.524800 3.420000
5.119200 -1.331470 7.341910 -9.324000 5.660000
5.588430 -0.461564 7.102040 -8.968800 5.830000
5.926690 -0.705922 6.801370 -8.613600 5.790000
5.303530 -1.394870 7.732630 -9.324000 7.760000
5.544600 -1.458270 8.084110 -9.324000 8.570000
5.444080 -0.431655 8.782050 -9.501600 7.270000
5.529240 -0.449640 9.234290 -9.501600 4.220000
6.928280 0.482925 8.234830 -8.702400 6.880000
7.215350 -0.224869 7.995930 -8.524800 5.500000
-8.324660 0.836027 10.413200 -8.436000 10.140000
-8.583830 1.075690 10.737400 -8.436000 7.070000
6.882550 1.579920 12.342400 -9.945600 7.200000
7.134520 0.215216 12.794200 -9.945600 6.760000
7.344360 0.221546 13.170500 -9.945600 8.650000
5.078630 -2.235050 14.486100 -10.567200 17.850000
-7.940760 1.305790 13.261700 -9.324000 7.290000
-8.640270 1.389430 12.808200 -8.968800 6.830000
4.714000 -1.955070 15.104500 -10.567200 6.430000
-8.056040 1.342060 13.692600 -9.412800 6.730000
-8.901920 0.899397 13.196000 -8.968800 7.540000
4.841410 -2.007910 15.512700 -10.567200 6.440000
5.185050 -2.009160 15.858400 -10.567200 7.760000
7.069030 -1.259180 15.193900 -10.123200 7.180000
5.443200 -2.060670 16.223600 -10.567200 7.610000
7.250280 -1.291460 15.583500 -10.123200 7.460000
-9.161390 1.450870 14.527300 -9.235200 7.240000
6.536940 -0.942073 16.386000 -10.389600 3.200000
-7.521390 2.112190 15.845700 -9.856800 10.380000
6.793300 -0.965050 16.746600 -10.389600 7.060000
7.274420 -0.965050 16.543300 -10.212000 11.920000
-7.704840 2.163710 16.232200 -9.856800 10.660000
4.791570 -1.102450 17.864400 -10.744800 7.380000
6.961950 -0.544311 17.162400 -10.389600 7.560000
7.455010 -0.544311 16.954000 -10.212000 11.460000
-7.588620 -0.100282 16.903100 -9.945600 9.850000
-8.782210 1.331170 16.260800 -9.590400 7.940000
6.259130 -1.245140 17.853300 -10.567200 7.310000
-7.876090 1.420610 17.187700 -9.945600 9.170000
-8.986440 1.362130 16.639000 -9.590400 9.080000
6.541920 -1.273430 18.209200 -10.567200 6.170000
-8.291450 1.452900 17.468000 -9.856800 9.640000
-9.190680 1.393090 17.017100 -9.590400 9.180000
5.484200 -2.795220 18.841400 -10.744800 4.420000
5.631230 -1.592140 18.937900 -10.567200 6.080000
-7.306360 2.019460 18.314700 -10.212000 6.450000
-8.613070 1.485180 17.790400 -9.856800 6.640000
4.820080 -2.855990 19.461900 -10.744800 7.010000
-7.323030 2.001040 18.775600 -10.212000 8.640000
4.390350 -2.726650 20.027100 -10.833600 7.590000
6.403620 -1.788850 19.585400 -10.656000 6.680000
8.029850 2.043620 18.951000 -10.389600 7.010000
-7.221720 1.979950 19.280100 -10.212000 8.900000
5.722890 -1.826120 20.241500 -10.744800 6.290000
8.197140 2.086190 19.345800 -10.389600 9.110000
5.839680 -1.863390 20.654600 -10.744800 6.390000
-7.097370 1.996110 20.244300 -10.389600 10.050000
7.123800 -1.900650 20.702200 -10.656000 5.530000
-7.235010 2.171340 20.636900 -10.389600 7.060000
7.575880 0.051973 21.087200 -10.567200 6.870000
-7.538830 2.213920 20.984000 -10.389600 7.390000
-8.550350 1.937920 20.620400 -10.212000 5.170000
-7.076590 2.012460 22.074900 -10.478400 5.470000
-7.205660 2.122740 22.477500 -10.478400 9.990000
6.111870 -0.932626 23.324900 -10.833600 13.480000
-7.336680 2.161330 22.886200 -10.478400 9.280000
6.358140 -0.949280 23.705100 -10.833600 12.590000
-7.461140 2.426800 23.274400 -10.478400 8.400000
6.790660 -1.274800 24.018200 -10.744800 7.360000
7.564230 -1.296780 24.237100 -10.656000 5.370000
-8.912950 0.825434 23.795200 -10.300800 8.660000
-8.030390 0.839425 24.560900 -10.389600 7.030000
-7.016030 1.866570 26.157900 -10.656000 6.670000
-6.982180 1.321490 26.646300 -10.567200 5.210000
-8.054380 1.321490 26.342100 -10.478400 6.430000
17.866000 2.066340 20.906000 -8.613600 6.430000
17.981000 2.098630 21.371900 -8.702400 8.560000
18.080300 1.924300 22.977300 -8.968800 10.380000
18.117000 2.044340 23.486000 -8.968800 10.410000
7.251210 0.163249 29.278000 -10.833600 12.610000
18.379600 2.073970 23.826400 -8.968800 7.580000
18.642100 2.103600 24.166800 -8.968800 10.580000
18.171200 1.410140 25.637500 -9.235200 7.220000
18.420100 1.429460 25.988700 -9.235200 7.620000
18.671500 1.348920 26.343400 -9.235200 9.640000
-7.010570 0.784858 31.979600 -10.744800 7.320000
-7.289990 0.795185 32.358800 -10.744800 4.980000
7.378480 -1.012670 33.657900 -10.922400 14.620000
18.591400 1.861170 29.480600 -9.590400 8.030000
18.817700 1.993260 29.839500 -9.590400 13.430000
19.047200 2.017570 30.203400 -9.590400 18.770000
8.427620 0.951406 35.187900 -10.833600 5.770000
19.276700 2.041870 30.567300 -9.590400 19.320000
8.320460 1.189190 35.649100 -10.833600 6.340000
18.785800 2.066180 31.373900 -9.679200 15.280000
19.006800 2.090490 31.743000 -9.679200 5.840000
19.227900 2.114800 32.112100 -9.679200 12.200000
19.448900 2.139110 32.481200 -9.679200 18.580000
18.901700 2.281820 33.290400 -9.768000 16.510000
19.114100 2.307460 33.664400 -9.768000 6.730000
19.326500 2.333100 34.038500 -9.768000 8.930000
19.273100 2.358740 34.562100 -9.856800 16.540000
19.489400 2.136900 34.950000 -9.856800 18.390000
19.165100 2.642920 37.535800 -10.034400 7.830000
19.360600 2.669890 37.918800 -10.034400 7.010000
19.559900 2.563840 38.309100 -10.034400 10.740000
19.755500 2.589480 38.692200 -10.034400 14.480000
9.410140 0.781561 42.925500 -10.922400 13.670000
19.434400 2.106120 39.365300 -10.123200 8.280000
9.752800 0.789223 43.290700 -10.922400 6.730000
19.317900 2.126770 39.901400 -10.123200 8.830000
9.847990 0.658308 43.713200 -10.922400 14.050000
19.505500 2.147420 40.288700 -10.123200 13.130000
9.942680 0.664638 44.133500 -10.922400 16.660000
19.693000 2.168060 40.676100 -10.123200 13.550000
8.294600 -3.140590 44.806000 -10.922400 15.340000
6.800870 -3.027940 45.501300 -10.922400 9.620000
19.426800 2.209360 41.755300 -10.212000 10.880000
6.598830 -3.056240 45.965500 -10.922400 8.380000
19.608400 2.230010 42.145600 -10.212000 10.930000
9.682680 -3.084540 45.855600 -10.922400 13.090000
19.790000 2.250660 42.535800 -10.212000 6.820000
9.967840 1.156630 47.206000 -10.922400 8.720000
10.056800 1.166960 47.627500 -10.922400 5.580000
20.112900 1.313850 45.740400 -10.300800 8.150000
20.286300 1.325170 46.134700 -10.300800 7.590000
19.788500 2.158270 47.722900 -10.389600 5.700000
19.953400 2.176260 48.120600 -10.389600 5.390000
20.118400 2.194240 48.518300 -10.389600 10.380000
20.283300 2.212230 48.915900 -10.389600 10.340000
10.029600 0.123937 52.481700 -10.922400 16.540000
7.345720 0.124936 53.359100 -10.922400 20.840000
19.945500 1.915290 49.996800 -10.389600 20.480000
9.804540 0.124936 52.962500 -10.922400 20.490000
6.989730 0.125936 53.841400 -11.011200 15.560000
20.105000 1.930610 50.396800 -10.389600 7.340000
20.185500 1.976580 51.753800 -10.478400 7.530000
20.341900 1.991900 52.155000 -10.478400 8.230000
19.244200 0.000000 52.607700 -9.235200 6.160000
20.191900 2.181680 52.667700 -10.478400 9.040000
19.392200 0.000000 53.012300 -9.235200 14.990000
20.649900 2.374100 52.944700 -10.478400 18.030000
20.654400 2.231640 53.873900 -10.478400 6.900000
20.808500 2.248290 54.275900 -10.478400 16.620000
20.538000 2.446040 54.831100 -10.478400 7.510000
21.013300 1.608330 57.443900 -10.567200 10.290000
21.157400 2.000630 57.837900 -10.567200 9.580000
21.305400 2.014620 58.242400 -10.567200 10.540000
-19.589200 -2.084570 61.107100 -10.389600 5.750000
-4.269910 1.766900 67.061400 -11.011200 10.430000
21.436500 1.466150 66.869400 -10.656000 7.190000
21.568000 1.475140 67.279700 -10.656000 8.280000
21.965800 0.834556 68.520700 -10.744800 6.430000
21.565400 0.839554 69.099300 -10.656000 6.620000
21.692900 1.069750 69.507800 -10.656000 6.460000
21.822200 0.849548 69.921900 -10.656000 5.480000
22.206400 1.095070 71.152900 -10.744800 12.040000
22.885600 1.101400 71.390000 -10.744800 8.090000
21.299300 2.947760 73.175500 -10.744800 5.940000
21.844700 2.964420 73.463900 -10.744800 7.900000
-29.638300 1.158370 73.063600 -10.123200 6.270000
-17.802900 0.939500 79.023200 -10.744800 8.090000
-18.509300 0.944498 79.303200 -10.744800 9.300000
-14.823500 0.944498 80.074100 -10.744800 8.220000
-27.683800 1.278640 82.512100 -10.389600 6.650000
23.306200 1.825940 84.290900 -10.744800 5.220000
19.268700 0.971160 112.547000 -11.011200 4.720000
19.341400 0.974825 112.972000 -11.011200 6.080000
19.411800 2.045850 113.382000 -11.011200 6.900000
-55.623200 -18.688800 106.899000 -9.590400 7.990000
-55.819700 -18.754900 107.276000 -9.501600 4.890000
21.245400 2.196470 147.989000 -11.011200 6.730000
-59.223500 -7.070030 145.996000 -10.123200 5.940000
-5.113350 1.923980 165.807000 -11.011200 7.970000
-6.507520 1.436580 168.781000 -11.011200 5.010000
-5.219770 1.440250 169.257000 -11.011200 6.080000
-5.233050 1.443910 169.688000 -11.011200 4.850000
-5.246440 0.921193 170.122000 -11.100000 4.820000
0.454078 0.411500 1.138220 0.000000 0.000000
5.317750 -0.565971 6.758040 -8.968800 3.630000
5.588430 -0.461564 7.102040 -8.968800 6.260000
5.722980 -0.534777 7.538440 -9.146400 4.930000
5.854550 -0.483544 7.440230 -8.968800 5.800000
5.983120 -0.559085 7.881100 -9.235200 5.480000
-1.937400 1.015610 11.865200 2.752800 10.090000
-2.101240 1.051880 12.273200 2.752800 15.370000
-2.174390 1.038350 12.700400 2.752800 16.000000
-2.227530 2.047190 13.010800 2.752800 13.250000
-1.955600 0.862996 13.622100 2.752800 9.970000
6.829050 -0.164912 12.471400 -10.123200 7.390000
-2.016710 0.889964 14.047800 2.752800 7.060000
7.035990 0.169910 12.849400 -10.034400 14.580000
5.559190 -1.536550 13.935100 -10.389600 10.240000
7.242930 0.174907 13.227300 -10.034400 17.290000
5.800780 -1.580450 14.299900 -10.478400 8.210000
7.449560 0.227876 13.604700 -10.034400 15.440000
5.245610 -1.673390 14.962400 -10.567200 5.470000
6.270040 -1.673390 14.562800 -10.389600 6.160000
7.764040 0.234206 13.923100 -10.034400 8.640000
7.208540 -1.718620 14.601300 -10.389600 5.240000
5.743210 -1.712150 15.700200 -10.567200 5.270000
-8.386220 1.259180 14.508500 -9.590400 6.210000
-8.705130 1.543810 14.795800 -9.501600 4.440000
5.968100 -0.737410 16.612000 -10.744800 6.010000
-7.521390 2.112190 15.845700 -10.034400 6.950000
5.387020 -0.755396 17.260900 -10.744800 7.780000
-9.295750 -0.321819 15.524700 -9.501600 5.850000
5.755120 -0.601588 17.602000 -10.833600 7.550000
-9.515850 -0.444065 15.892300 -9.501600 5.700000
5.871150 -1.595960 17.956900 -10.833600 10.160000
5.256760 -1.632230 18.592800 -10.833600 9.030000
4.746000 -1.775380 19.162800 -10.922400 6.980000
-7.407270 2.141390 18.260200 -10.212000 5.940000
4.673970 -2.731920 19.515300 -10.922400 9.030000
-7.854980 2.187940 18.538300 -10.212000 5.730000
4.958350 -1.549760 20.020200 -10.922400 7.040000
6.427380 -1.582040 20.049700 -10.744800 7.080000
-7.220260 2.021200 19.738000 -10.389600 5.480000
5.427290 2.393830 20.712300 -10.922400 7.420000
-7.946580 2.062450 19.919500 -10.300800 5.650000
7.422740 0.985168 20.660900 -10.744800 7.540000
-8.105510 2.103700 20.317900 -10.300800 6.250000
7.568290 1.004480 21.066000 -10.744800 9.220000
-8.264440 2.144950 20.716200 -10.300800 4.880000
6.501710 1.094360 21.865300 -10.833600 7.420000
7.713830 1.023800 21.471100 -10.656000 7.620000
6.312780 -1.743480 22.327900 -10.922400 7.870000
-7.074650 2.084140 22.068800 -10.567200 9.520000
6.606270 -1.702660 22.696400 -10.922400 8.670000
-7.205660 2.122740 22.477500 -10.567200 13.020000
5.934640 -0.578317 23.382100 -10.922400 9.950000
-7.332450 2.309950 22.873000 -10.567200 11.950000
6.998430 -0.588644 23.535800 -10.922400 11.350000
7.121710 -0.521696 23.950300 -10.922400 11.170000
-8.127760 0.811444 23.619700 -10.478400 8.520000
7.572890 -0.452079 24.264800 -10.833600 7.680000
-8.267890 0.825434 24.027000 -10.567200 8.660000
7.890180 -0.619625 24.612800 -10.744800 6.100000
7.489550 -0.629952 25.187400 -10.833600 7.400000
-7.207440 2.347870 26.066900 -10.744800 11.160000
-7.321840 2.385130 26.480700 -10.744800 6.190000
18.428500 2.043200 21.564200 -8.880000 8.790000
19.253300 -9.801460 19.150400 2.486400 9.680000
6.816870 -1.404080 28.462600 -10.922400 5.550000
18.127800 1.769050 23.500000 -9.146400 8.360000
6.852800 -0.886088 29.360900 -11.011200 8.380000
18.390500 1.794690 23.840600 -9.146400 9.490000
-6.715120 1.560530 29.807000 -10.833600 7.140000
18.656600 1.725870 24.185500 -9.146400 10.090000
-7.044550 1.390830 30.182400 -10.833600 9.310000
-7.142390 1.410140 30.601600 -10.833600 7.330000
18.343200 2.162860 25.461900 -9.324000 6.200000
18.598400 2.094090 25.816100 -9.324000 9.750000
18.849700 2.122390 26.165000 -9.324000 7.820000
-6.763490 0.860796 32.030800 -10.922400 7.630000
-7.289560 0.872122 32.356900 -10.922400 6.240000
18.310100 1.974160 27.599100 -9.590400 8.130000
-7.635980 0.987355 32.716400 -10.833600 11.020000
18.547900 1.999800 27.957500 -9.590400 4.460000
9.949270 1.000010 32.539300 -10.922400 9.440000
18.782200 2.130520 28.310600 -9.590400 5.110000
7.572920 1.012670 33.614600 -11.011200 6.370000
19.016100 2.263880 28.663200 -9.590400 10.160000
18.584900 2.076710 29.470300 -9.768000 15.650000
18.814400 2.102350 29.834200 -9.768000 6.030000
19.043800 2.127990 30.198000 -9.768000 16.380000
19.037100 2.153630 30.709500 -9.768000 9.010000
18.778900 2.292330 31.362400 -9.856800 12.640000
19.003400 2.204910 31.737300 -9.856800 7.820000
19.224400 2.230550 32.106400 -9.856800 11.040000
19.194500 2.256180 32.624300 -9.856800 4.900000
19.412600 2.281820 32.995100 -9.856800 17.280000
18.857500 2.187720 33.816800 -9.945600 18.420000
19.070200 2.090940 34.198400 -9.945600 15.070000
19.279800 2.113920 34.574200 -9.945600 10.670000
18.935600 2.535050 35.716100 -10.123200 17.600000
19.137000 2.562020 36.096000 -10.123200 19.130000
-13.302400 2.088030 38.657500 -13.586400 16.260000
19.338500 2.588990 36.476000 -10.123200 8.170000
-13.139300 2.205830 39.162100 -13.586400 12.500000
-14.113600 2.131990 39.284500 -13.497600 14.490000
19.168700 2.512570 37.542900 -10.212000 12.240000
19.364300 2.538210 37.926000 -10.212000 6.850000
19.559900 2.563840 38.309100 -10.212000 7.730000
19.751800 2.723830 38.684800 -10.212000 11.470000
9.410610 0.645648 42.927700 -11.011200 11.140000
19.127500 2.241880 39.507900 -10.300800 12.300000
9.502880 0.651978 43.348500 -11.011200 10.150000
19.315000 2.263860 39.895200 -10.300800 8.440000
9.847490 0.796885 43.711000 -11.011200 6.340000
19.502500 2.285840 40.282600 -10.300800 11.140000
9.941580 0.944450 44.128700 -11.011200 15.200000
19.687600 2.412630 40.665000 -10.300800 14.640000
6.470870 -3.563230 45.074100 -11.100000 9.480000
9.583980 -3.583810 46.722600 -11.011200 17.920000
9.670320 -3.616100 47.143500 -11.011200 15.850000
19.587800 1.455720 45.494500 -10.478400 6.830000
19.754100 1.777390 45.880900 -10.478400 8.180000
19.922100 1.948520 46.271100 -10.478400 7.600000
20.089900 2.122300 46.660800 -10.478400 6.400000
19.785900 2.318040 47.716500 -10.567200 7.210000
19.950800 2.337360 48.114100 -10.567200 5.620000
20.115700 2.356680 48.511800 -10.567200 7.620000
20.115700 2.356680 48.511800 -10.478400 6.770000
20.280500 2.375990 48.909400 -10.478400 9.270000
10.029700 0.000000 52.481800 -11.100000 13.560000
10.110500 0.124936 52.904900 -11.100000 13.290000
19.940700 2.248200 49.984800 -10.567200 8.660000
10.191400 0.125936 53.328200 -11.100000 14.910000
20.100200 2.266190 50.384700 -10.567200 7.260000
17.957500 1.301210 51.221200 -9.768000 19.050000
20.257000 2.453260 50.777800 -10.567200 18.590000
17.801300 1.311540 51.731500 -9.768000 18.590000
17.941400 1.321870 52.138800 -9.768000 13.160000
20.180600 2.320140 51.741400 -10.567200 9.550000
20.337100 2.338130 52.142500 -10.567200 9.060000
20.493500 2.356110 52.543600 -10.567200 6.290000
20.649900 2.374100 52.944700 -10.656000 9.140000
20.492000 2.746220 53.450300 -10.656000 11.090000
20.230400 2.766860 54.009700 -10.656000 8.820000
20.381400 2.787510 54.412800 -10.656000 15.320000
20.532300 2.808160 54.815900 -10.656000 18.270000
20.407900 2.665750 55.788900 -10.656000 16.690000
20.561100 2.314910 56.207700 -10.656000 7.010000
20.709000 2.331560 56.612100 -10.656000 8.700000
-20.581200 -3.377680 59.810100 -10.478400 9.180000
21.089300 2.769780 62.857200 -10.744800 7.360000
21.231400 2.374960 63.280500 -10.744800 7.890000
21.368300 2.390280 63.688800 -10.744800 8.030000
-19.102400 -1.846180 67.563900 -10.744800 7.410000
-19.043300 -3.206620 68.873300 -10.744800 9.200000
21.036500 1.502130 68.800400 -10.833600 6.330000
21.162500 1.511120 69.212400 -10.833600 5.980000
21.288400 1.520120 69.624400 -10.833600 5.940000
21.415700 1.302600 70.040500 -10.833600 5.970000
21.239600 1.959440 71.429000 -10.833600 5.580000
-28.898900 -0.422116 72.440100 -10.300800 14.220000
