VERSION .7
FIELDS x y z velocity intensity
SIZE 4 4 4 4 4
TYPE F F F F F
COUNT 1 1 1 1 1
WIDTH 900
HEIGHT 1
VIEWPOINT 0 0 0 1 0 0 0
POINTS 900
DATA ascii
-6.221560 1.605040 9.699120 -11.810400 3.220000
-6.451990 1.664490 10.058300 -11.810400 5.510000
-6.659860 0.521583 10.560600 -11.988000 4.670000
-6.889510 0.539568 10.924800 -11.988000 6.450000
-7.203630 1.088160 10.678500 -11.721600 3.670000
-5.943330 1.525220 11.865200 -12.520800 2.440000
7.884030 1.124430 10.724300 -11.721600 3.120000
-6.135050 1.574420 12.248000 -12.520800 4.820000
-7.309680 1.532050 11.591100 -11.988000 3.900000
8.045650 0.820430 11.168100 -11.810400 3.730000
8.511700 0.820430 10.817100 -11.632800 4.630000
-6.149600 1.743710 12.702000 -12.698400 5.000000
8.777690 0.846069 11.155100 -11.632800 7.590000
-6.057170 1.796550 13.218300 -12.787200 4.230000
8.934140 0.826473 11.581800 -11.632800 6.190000
-6.237670 1.803090 13.612200 -12.787200 3.970000
-5.945420 0.632853 15.243600 -13.142400 4.050000
-6.583420 0.784633 14.971900 -12.964800 4.310000
-6.218820 0.857191 15.588500 -13.142400 6.420000
-6.548810 0.805281 15.455600 -12.876000 3.450000
-10.676500 1.505210 12.890200 -11.455200 3.170000
-6.378280 0.879170 15.988300 -13.142400 4.430000
-6.808240 0.825929 15.812800 -12.964800 3.930000
-10.950200 1.543810 13.220800 -11.455200 7.210000
-6.632360 0.901150 16.349900 -13.142400 4.480000
7.795570 1.419080 15.790300 -12.964800 4.640000
-11.224000 1.582400 13.551300 -11.455200 6.890000
7.282690 0.433738 16.562100 -13.142400 8.030000
-11.497700 1.621000 13.881800 -11.544000 3.360000
-6.730420 0.487029 17.256200 -13.231200 10.220000
0.380670 1.592140 19.753700 0.976800 16.780000
0.505607 1.626750 20.180500 0.976800 16.470000
-5.913340 6.934530 18.085900 -13.586400 6.560000
0.635609 1.613540 20.610400 0.976800 14.130000
-6.039160 7.082080 18.470700 -13.586400 7.120000
0.000000 1.386630 21.068500 0.888000 7.990000
0.124272 1.414930 21.498100 0.888000 4.520000
-5.549450 1.900650 21.178600 -13.764000 4.170000
8.990250 1.053060 20.025200 -13.320000 6.820000
-5.658270 1.937920 21.593800 -13.764000 4.480000
-5.601210 1.781610 22.068400 -13.764000 7.920000
-9.495200 1.429340 20.721000 -13.053600 9.380000
-5.704020 1.958680 22.473400 -13.764000 9.390000
-9.511350 1.456310 21.185900 -13.053600 10.750000
-5.500400 1.994950 22.965900 -13.852800 7.870000
-9.693880 1.208860 21.592400 -13.053600 9.180000
-6.227840 2.086990 23.219300 -13.764000 5.580000
-9.403420 1.156300 22.192700 -13.231200 7.460000
-9.563560 1.537210 22.570600 -13.231200 8.070000
-9.727380 1.718430 22.957200 -13.231200 5.420000
-9.214080 1.826490 23.624100 -13.320000 5.260000
-9.370250 1.857450 24.024500 -13.320000 5.260000
-5.266870 1.969480 25.676400 -13.941600 5.540000
11.052000 -2.111310 23.754800 -13.142400 5.890000
9.293080 -3.440000 24.810100 -13.497600 8.580000
11.089900 -2.248860 24.201000 -13.231200 7.660000
10.199100 -0.881396 25.142500 -13.586400 8.160000
11.823200 -0.881396 24.420900 -13.408800 7.230000
11.268800 -2.285130 24.591400 -13.231200 9.030000
9.118110 -0.980627 26.008100 -13.675200 10.370000
10.743800 -1.470550 25.356100 -13.408800 9.680000
11.447700 -2.321400 24.981700 -13.231200 8.050000
-5.163430 2.043200 27.892000 -14.030400 6.660000
10.176300 0.835454 26.543300 -13.586400 16.190000
-9.404940 0.835454 26.826300 -13.408800 16.340000
-5.786240 2.074150 28.208400 -14.030400 6.610000
10.331300 0.758859 26.947800 -13.586400 16.370000
-4.938170 1.494590 28.843400 -14.030400 7.730000
10.487500 0.521040 27.355100 -13.586400 11.590000
-5.405900 1.424730 29.201800 -14.030400 6.880000
-8.856430 0.528703 28.377500 -13.586400 6.770000
-5.652890 1.701560 29.579700 -14.030400 4.690000
10.189400 1.258990 28.361900 -13.675200 6.060000
10.335000 1.276980 28.767100 -13.675200 8.360000
-4.572210 2.420300 30.590400 -14.119200 6.300000
10.646100 1.486670 29.103100 -13.675200 8.270000
-4.635710 2.453920 31.015300 -14.119200 6.630000
9.994120 1.507320 29.787700 -13.764000 6.800000
11.923400 -2.994170 29.887900 -13.408800 8.870000
10.169600 -1.265710 31.103600 -13.764000 5.360000
-20.511700 0.795185 26.067300 -11.100000 5.130000
10.790300 -1.077260 31.357200 -13.764000 5.040000
-20.778100 0.805513 26.405800 -11.100000 5.680000
-21.044500 0.815840 26.744300 -11.100000 6.920000
-21.309700 0.906101 27.081300 -11.100000 6.680000
10.839900 1.241110 33.153700 -13.764000 6.590000
10.973700 1.256430 33.563000 -13.764000 16.840000
-18.911000 -4.658020 29.481400 -0.355200 11.990000
11.103400 1.603310 33.959600 -13.764000 7.770000
19.058400 1.603310 30.221200 -12.432000 10.730000
18.951400 1.934170 32.786700 -12.698400 7.900000
19.164400 2.044990 33.155300 -12.698400 8.310000
-4.019970 2.427180 38.495600 -14.208000 9.250000
19.379800 2.067960 33.527800 -12.698400 6.180000
-3.764520 2.454140 38.953500 -14.208000 6.330000
-17.333700 2.090940 35.110400 -12.698400 7.080000
-18.631700 -0.576019 34.497800 -12.432000 11.040000
-3.578180 2.481110 39.402900 -14.208000 6.850000
19.306600 -0.337158 34.622200 -12.787200 10.270000
-18.836500 -0.582349 34.876900 -12.432000 7.690000
19.517100 -0.092953 34.999700 -12.787200 8.540000
11.019900 -0.093952 38.976600 -13.941600 13.170000
19.727000 0.000000 35.376100 -12.787200 11.380000
11.137100 -0.094951 39.391300 -13.941600 9.720000
9.941800 -0.991400 40.141700 -14.030400 8.430000
10.825000 -1.001730 40.358800 -13.941600 13.470000
-3.815700 1.762590 42.018500 -14.296800 8.110000
-30.531700 0.494737 29.788800 -9.856800 8.430000
-3.854640 1.780580 42.447300 -14.296800 7.860000
-30.838800 0.632988 30.088500 -9.856800 5.790000
-8.653990 1.399040 42.188900 -14.030400 7.970000
-31.147200 0.639318 30.389300 -9.856800 7.980000
-8.740530 1.413030 42.610700 -13.941600 6.470000
-16.968500 -1.547550 40.046800 -13.053600 9.000000
-8.827910 1.291160 43.036700 -13.941600 6.100000
-17.680400 -1.562870 40.208500 -13.053600 9.350000
-8.914460 1.303810 43.458700 -13.941600 5.370000
-17.818900 -3.188630 40.523400 -12.964800 7.580000
-16.794100 -3.496000 41.400400 -13.142400 6.020000
-17.974500 -3.772270 40.877200 -12.964800 7.610000
-16.164700 -2.831700 42.163300 -13.231200 7.710000
-15.990100 -2.858670 42.689400 -13.231200 5.490000
-16.141000 -2.885640 43.092100 -13.320000 9.240000
23.287900 -1.146310 41.761900 -12.787200 5.880000
-7.256040 1.898560 48.546600 -14.119200 8.230000
-7.318770 2.068350 48.966400 -14.119200 8.590000
-15.247300 -1.931870 47.562900 -13.497600 6.560000
-15.378800 -1.948520 47.972900 -13.497600 4.940000
-15.508300 -2.122300 48.376900 -13.497600 10.380000
-7.577330 1.347820 50.696200 -14.119200 13.750000
-15.637600 -2.298720 48.780300 -13.497600 11.960000
-7.641000 1.359150 51.122300 -14.119200 9.880000
-15.769000 -2.318040 49.190300 -13.497600 6.880000
-7.704680 1.370480 51.548300 -14.119200 6.080000
13.044400 1.169320 54.464500 -14.030400 11.440000
13.567400 1.178310 54.780500 -14.030400 7.620000
-2.519500 1.011430 56.814000 -14.296800 8.920000
13.670900 1.187310 55.198700 -14.030400 6.700000
-2.538580 1.019090 57.244400 -14.296800 5.740000
13.343700 1.506390 55.714200 -14.030400 7.000000
-2.223820 1.517720 57.677800 -14.296800 8.780000
-2.240420 1.529040 58.108200 -14.296800 9.510000
34.851800 0.333495 50.814400 -12.165600 8.090000
35.095900 0.143927 51.170400 -12.165600 5.800000
35.339700 0.000000 51.525900 -12.165600 5.750000
15.328900 1.134030 61.893100 -14.030400 9.780000
15.569900 1.218320 66.709400 -14.119200 8.270000
15.667800 1.225980 67.128900 -14.119200 6.470000
15.341200 0.593690 68.096600 -14.119200 8.040000
15.960700 1.466150 68.383500 -14.119200 9.570000
16.256200 1.050760 69.649700 -14.119200 7.480000
16.551200 0.619344 70.913600 -14.119200 8.270000
17.060600 0.849548 71.233500 -14.119200 10.120000
16.190600 1.538100 71.866700 -14.119200 9.220000
16.285300 1.547100 72.286900 -14.119200 7.150000
16.379900 1.556090 72.707200 -14.119200 18.320000
16.475600 1.333250 73.131900 -14.119200 17.470000
16.143900 1.574080 73.642300 -14.119200 7.680000
26.276600 1.924880 88.368500 -13.941600 19.990000
26.401000 1.647410 88.786800 -13.941600 9.190000
26.523800 1.655070 89.199700 -13.941600 10.650000
26.646600 1.662730 89.612700 -13.941600 10.290000
16.505100 1.134400 96.405000 -14.208000 11.160000
16.577800 1.139390 96.829700 -14.208000 10.300000
16.650600 1.144390 97.254400 -14.208000 9.010000
-13.631500 1.777670 99.019100 -14.119200 8.040000
-13.691000 1.474860 99.450900 -14.119200 6.570000
-11.859400 0.971160 113.567000 -14.208000 14.040000
-11.904200 0.974825 113.995000 -14.208000 13.570000
-11.948900 0.978490 114.424000 -14.208000 8.550000
-11.108100 0.982155 114.942000 -14.208000 5.450000
-11.315300 1.000480 117.086000 -14.296800 11.120000
-11.356800 1.004140 117.515000 -14.208000 12.010000
-11.398200 1.007810 117.944000 -14.208000 9.520000
-11.439700 1.011470 118.373000 -14.208000 7.710000
-53.880800 -13.884600 120.016000 -12.787200 8.450000
-54.056300 -13.929900 120.407000 -12.787200 5.960000
23.636200 -8.076110 133.415000 -14.208000 4.730000
22.937200 -8.101750 133.974000 -14.208000 7.430000
15.664600 3.400020 162.090000 -14.385600 11.740000
15.706000 3.409020 162.518000 -14.296800 11.080000
-6.434800 0.674215 8.613100 -11.100000 3.160000
-7.016690 0.835853 9.242530 -11.011200 8.680000
7.855730 0.936311 9.672820 -11.011200 4.040000
8.509200 0.897768 9.107140 -10.389600 4.570000
-5.909170 1.234690 10.941200 -12.165600 5.750000
8.101830 1.396560 9.975840 -11.100000 4.880000
-6.112940 1.277260 11.318500 -12.165600 4.540000
8.029790 1.443110 10.577000 -11.455200 8.900000
-6.237920 1.042080 11.765900 -12.254400 5.150000
8.288820 1.489660 10.918200 -11.366400 9.070000
-6.538380 0.905553 12.106200 -12.165600 6.280000
-6.182990 0.933851 12.771000 -12.520800 5.380000
-6.367630 1.052560 13.152400 -12.520800 8.960000
9.045960 1.066610 12.556600 -11.632800 15.560000
9.297240 1.096240 12.905400 -11.632800 16.870000
8.996380 1.096240 13.116900 -11.810400 14.230000
-5.994490 1.414600 15.635700 -12.964800 7.600000
-6.240790 1.450870 16.000900 -12.964800 8.840000
-6.396810 1.487150 16.400900 -13.053600 8.250000
-6.556130 1.411840 16.809400 -12.964800 8.070000
-6.244450 1.488300 17.381200 -13.053600 7.560000
9.361350 -2.556230 16.787600 -12.520800 8.910000
-6.292540 1.240560 18.755100 -13.231200 6.870000
7.575830 -1.301730 18.270200 -12.964800 7.360000
9.569380 -2.613040 17.160600 -12.520800 7.390000
8.524660 -1.330030 18.322600 -12.876000 8.210000
9.669240 -1.294490 18.238000 -12.609600 7.950000
10.162300 -2.043620 17.898200 -12.254400 10.950000
-5.620720 0.991115 19.880100 -13.408800 7.090000
10.482400 -2.653940 18.135100 -12.343200 9.350000
18.542700 1.358840 13.262000 -8.524800 5.330000
-5.894060 1.011760 20.249500 -13.408800 5.050000
18.892600 1.384480 13.512200 -8.524800 7.430000
-6.256360 1.053060 21.040200 -13.320000 6.820000
19.082100 1.410110 13.984000 -8.702400 10.390000
-6.379030 1.073710 21.452700 -13.320000 4.410000
18.296800 1.483270 14.989800 -9.146400 9.140000
18.629400 1.510240 15.262400 -9.146400 6.110000
-6.198640 1.570290 21.924200 -13.497600 7.040000
9.525920 0.683553 21.218300 -12.964800 4.140000
9.532470 0.915972 21.678500 -13.053600 6.340000
-5.379010 1.263760 23.046400 -13.586400 8.530000
9.705780 0.932626 22.072700 -13.053600 8.160000
-5.477470 1.230840 23.468200 -13.586400 8.340000
-5.711610 1.385560 23.847800 -13.586400 5.300000
-5.340160 1.641310 24.359800 -13.586400 8.780000
-5.097520 1.669610 24.850800 -13.675200 7.820000
-5.179300 2.016920 25.249500 -13.675200 4.550000
-5.677320 2.321400 26.886900 -13.586400 3.940000
9.244510 -1.925830 26.368700 -13.320000 5.040000
11.448900 -1.752960 25.501500 -12.964800 8.500000
9.742650 -2.130910 26.633400 -13.231200 7.890000
8.813250 2.130910 26.955200 -13.497600 4.950000
10.821900 -2.163200 26.677700 -13.142400 7.940000
10.792000 0.979329 28.149300 -13.320000 8.440000
10.946100 0.993319 28.551400 -13.320000 17.280000
-8.833780 1.390830 29.708000 -13.408800 8.320000
-8.956470 1.410140 30.120700 -13.408800 8.750000
19.062500 1.527970 25.515500 -11.455200 13.110000
18.906800 1.847410 26.675400 -11.721600 6.730000
18.946700 1.871720 27.173200 -11.721600 7.900000
11.846700 -2.383730 30.900500 -13.231200 8.380000
19.192800 1.896030 27.526100 -11.721600 7.230000
12.181300 -2.414690 31.231900 -13.231200 6.050000
19.438800 1.920330 27.879000 -11.721600 7.820000
-20.241300 0.962732 30.510000 -11.632800 8.880000
18.972100 -0.344487 35.785000 -12.609600 8.230000
-18.418300 -0.344487 36.073100 -12.343200 8.960000
19.173900 -0.348152 36.165600 -12.609600 7.240000
-17.552900 -0.348152 36.979600 -12.520800 5.610000
19.376500 0.000000 36.547700 -12.609600 8.350000
-17.738300 0.000000 37.370200 -12.520800 6.300000
11.918700 1.022380 40.947500 -13.586400 10.080000
-3.891420 2.297740 42.852400 -13.941600 8.250000
11.719900 1.032710 41.452700 -13.586400 10.040000
-3.931420 2.085470 43.292800 -13.941600 8.010000
-3.971440 1.834530 43.733500 -13.941600 8.660000
-16.422100 -2.366670 41.164800 -12.876000 9.460000
-3.755030 1.852520 44.184700 -13.941600 8.110000
-17.458700 -2.389650 41.203700 -12.787200 7.670000
-4.910580 1.074020 44.530800 -13.852800 6.330000
-16.980400 -2.552340 41.859500 -12.787200 7.890000
-7.632410 1.189260 44.580200 -13.852800 9.630000
-17.132400 -2.999640 42.234200 -12.787200 7.870000
-17.243500 0.251870 43.223900 -12.876000 10.590000
-2.710770 2.105550 46.842500 -13.941600 12.220000
-3.558650 1.622890 49.831100 -13.941600 6.110000
-3.200750 2.104320 50.269600 -13.941600 10.790000
-3.228510 1.965180 50.705500 -13.941600 6.180000
-6.302660 1.981830 50.849700 -13.852800 11.170000
15.571800 0.582696 66.717500 -13.764000 4.570000
16.057600 0.586361 67.045400 -13.764000 6.350000
16.156800 1.019110 67.459600 -13.764000 7.730000
16.257100 1.025440 67.878600 -13.764000 7.590000
16.358100 0.814567 68.300400 -13.764000 6.630000
16.459000 0.601020 68.721500 -13.764000 8.270000
16.159400 0.604685 69.235100 -13.852800 7.010000
16.256900 0.829559 69.652600 -13.764000 6.650000
16.354800 0.834556 70.072200 -13.764000 6.060000
16.452700 0.839554 70.491800 -13.764000 6.550000
16.550000 1.069750 70.908500 -13.764000 7.140000
16.648600 0.849548 71.331000 -13.764000 7.860000
16.746500 0.854546 71.750500 -13.764000 6.380000
16.938000 -18.249400 70.721600 -13.764000 6.000000
16.477100 0.869538 73.138500 -13.764000 7.800000
16.571800 0.874535 73.558800 -13.764000 9.510000
16.666500 0.879532 73.979200 -13.764000 15.460000
16.330800 0.884530 74.495100 -13.764000 16.930000
16.365900 6.456390 74.655200 -13.764000 14.900000
16.457900 6.492660 75.074600 -13.764000 10.520000
17.628500 0.659656 75.529200 -13.852800 8.150000
16.699200 1.145710 76.175600 -13.764000 17.150000
27.211900 1.367250 88.997100 -13.586400 10.820000
26.647900 1.373580 89.617200 -13.586400 10.570000
26.770700 1.379910 90.030200 -13.586400 10.740000
26.893500 1.386240 90.443200 -13.586400 9.450000
17.286100 1.762340 97.571900 -13.852800 8.200000
16.795300 1.462200 98.099800 -13.852800 8.370000
16.868700 1.159380 98.528500 -13.941600 7.810000
16.942500 0.232881 98.959600 -13.941600 8.160000
15.786900 4.315300 163.355000 -14.030400 6.960000
17.088700 4.835510 163.643000 -14.030400 5.520000
7.757780 1.336850 5.281690 -8.347200 4.000000
8.046030 1.397610 5.615160 -8.436000 5.870000
8.573020 1.021810 5.692800 -7.814400 3.050000
8.927440 1.097530 5.928150 -7.903200 2.430000
-7.393610 0.495558 7.213710 -9.768000 8.740000
-7.628930 0.516206 7.588130 -9.856800 8.380000
-6.541190 1.163800 8.479690 -11.011200 7.510000
-7.780560 0.536854 8.043060 -9.945600 4.190000
-6.734660 1.210350 8.871050 -11.100000 9.440000
-7.199890 0.666600 8.557650 -10.656000 6.240000
-6.337540 0.907614 9.714360 -11.632800 5.380000
-6.868930 0.934516 9.343530 -11.188800 8.670000
-7.970450 0.969127 9.005660 -10.389600 6.820000
-6.565860 1.080670 10.064300 -11.632800 5.420000
-7.197800 0.969127 9.634390 -11.188800 4.950000
-7.902260 0.941229 9.068490 -10.478400 5.410000
-6.401460 0.936311 10.691000 -11.899200 4.780000
-6.960220 1.119260 10.317700 -11.455200 4.450000
-6.930820 1.000880 11.375200 -11.899200 5.070000
-6.437960 1.107570 12.143200 -12.343200 6.730000
-7.154400 1.033170 11.742200 -11.899200 5.080000
-6.542430 1.142190 12.573500 -12.343200 7.640000
-6.741300 0.977730 12.481900 -12.165600 5.730000
-6.741930 1.142920 12.956900 -12.343200 7.560000
-6.943440 1.083510 13.344100 -12.343200 4.630000
8.918800 0.850781 12.131900 -11.544000 6.180000
-5.923460 1.756770 13.757800 -12.787200 6.200000
8.761520 0.827186 12.774400 -11.810400 5.500000
9.269530 0.875089 12.407400 -11.544000 6.370000
-6.359120 1.596890 15.940200 -13.053600 4.920000
-6.516190 1.691210 16.334000 -13.053600 6.480000
-6.801500 0.377780 16.766900 -12.964800 7.240000
-6.495880 0.601588 17.342300 -13.142400 5.990000
-6.147240 1.595960 17.864200 -13.231200 5.400000
8.895000 -2.154440 17.094700 -12.609600 5.260000
-6.445470 0.704826 18.730900 -13.231200 8.070000
9.815820 -5.954930 16.683700 -12.609600 6.870000
-6.585590 0.720148 19.138100 -13.231200 6.270000
9.203640 -0.720148 18.025800 -12.698400 9.900000
9.399460 -0.735470 18.409300 -12.698400 10.830000
-5.998480 1.695970 20.172900 -13.408800 6.590000
9.590330 -1.011760 18.783200 -12.698400 8.500000
10.329400 -1.281920 18.863900 -12.520800 8.910000
18.351800 1.975190 13.448800 -8.702400 5.830000
-6.120900 1.730580 20.584600 -13.408800 8.980000
10.536000 -1.307560 19.241200 -12.520800 4.830000
18.698100 2.012460 13.702600 -8.702400 6.670000
19.044300 2.049720 13.956300 -8.702400 9.770000
-6.261690 0.259862 21.512500 -13.497600 4.410000
9.028180 0.600292 20.968800 -13.142400 3.880000
9.360220 0.827404 21.286800 -13.053600 4.310000
-5.371530 1.775760 23.014300 -13.586400 6.190000
9.527180 1.208860 21.666500 -13.053600 5.390000
-9.689320 1.410110 21.582300 -12.787200 4.160000
-5.288430 1.808050 23.474200 -13.675200 7.970000
-9.397550 1.435750 22.178800 -12.964800 8.820000
-5.703280 1.916070 23.813000 -13.586400 7.330000
-6.132470 1.795540 24.161500 -13.586400 7.920000
9.865800 1.487030 22.914300 -13.142400 10.590000
-5.908660 1.669610 24.670500 -13.675200 6.850000
-9.238740 1.538310 24.097900 -13.053600 7.610000
-10.581000 0.999242 23.568500 -12.698400 6.060000
-10.759700 0.853415 23.966600 -12.698400 6.890000
-5.236200 1.950320 26.565400 -13.764000 6.290000
8.828430 -0.881396 25.655900 -13.408800 7.140000
10.709900 -1.866570 24.874800 -13.053600 4.250000
-5.527150 1.981280 26.945300 -13.764000 6.370000
8.968560 -0.895386 26.063100 -13.408800 6.500000
10.879900 -1.896200 25.269700 -13.053600 5.090000
-5.615910 1.839400 27.378000 -13.764000 5.480000
9.221100 -2.767400 26.301900 -13.408800 5.170000
9.362960 -2.809970 26.706500 -13.408800 8.270000
10.275700 0.611644 27.433500 -13.408800 7.810000
-5.408700 1.057240 29.216900 -13.852800 7.700000
10.426100 0.712569 27.835000 -13.408800 4.660000
10.577200 0.722896 28.238400 -13.408800 9.130000
10.728300 0.733223 28.641800 -13.408800 4.980000
9.996890 1.312950 29.796000 -13.497600 15.850000
18.943300 1.974160 27.168400 -11.810400 6.930000
19.189300 1.999800 27.521200 -11.810400 6.010000
-20.008800 -0.419777 30.159500 -11.632800 6.940000
-20.248300 0.084957 30.520500 -11.632800 8.630000
-17.458700 -0.836513 36.061000 -12.520800 6.430000
-17.929500 -0.469750 36.317100 -12.520800 6.530000
19.172600 0.601339 36.163000 -12.698400 7.060000
20.146000 0.351817 36.127500 -12.609600 6.710000
11.555800 -1.215210 39.700900 -13.675200 5.890000
20.355800 0.355481 36.503800 -12.609600 4.120000
9.597030 0.620328 41.118500 -13.764000 8.420000
9.934910 0.626658 41.481400 -13.852800 5.360000
-17.950400 -0.233213 39.172400 -12.698400 11.050000
-3.249980 -8.669310 42.083600 -14.030400 7.670000
10.487700 -8.756000 41.320800 -13.764000 11.120000
-4.558980 2.241880 43.657200 -13.941600 10.560000
-4.264410 2.126770 44.126100 -13.941600 9.390000
-8.409570 1.074020 44.004400 -13.764000 9.810000
-8.747700 0.944450 44.380700 -13.764000 6.010000
-18.113000 -3.199840 42.748000 -12.787200 9.070000
21.670500 1.379770 41.647200 -12.698400 8.760000
21.666200 1.670130 41.638800 -12.698400 7.070000
21.865000 1.685450 42.020800 -12.698400 6.500000
-7.160430 1.636880 49.877400 -13.941600 7.670000
-7.512290 1.650870 50.261100 -13.852800 8.400000
15.664900 1.812200 67.116300 -13.764000 5.300000
15.241800 1.823530 67.655300 -13.852800 5.750000
15.862700 1.457150 67.964000 -13.852800 4.940000
15.958600 1.846180 68.374800 -13.852800 6.690000
16.062000 -0.163916 68.817800 -13.852800 9.480000
15.224700 0.164916 69.449100 -13.852800 5.950000
15.719500 0.829559 69.775800 -13.852800 8.410000
15.814200 0.834556 70.196100 -13.852800 6.630000
16.003000 1.069750 71.033900 -13.852800 5.910000
16.098300 0.849548 71.457200 -13.852800 6.060000
16.193500 0.626673 71.879700 -13.852800 6.960000
16.288200 0.630338 72.300100 -13.852800 5.530000
16.054600 0.637667 73.234800 -13.852800 7.170000
16.146800 0.641332 73.655700 -13.852800 6.130000
16.666500 0.879532 73.979200 -13.852800 5.700000
16.330800 0.884530 74.495100 -13.852800 7.520000
17.046200 0.419784 75.664500 -13.852800 8.220000
17.437700 -14.034000 74.711900 -13.852800 7.490000
17.183300 6.117990 76.273200 -13.852800 7.020000
17.529600 1.202680 79.963300 -13.852800 20.830000
17.623700 0.000000 80.392800 -13.852800 18.490000
17.716000 0.000000 80.813700 -13.852800 17.230000
16.710800 0.450102 81.466200 -13.852800 9.210000
16.353900 20.892700 79.726600 -13.941600 9.920000
26.646600 1.662730 89.612700 -13.675200 5.370000
26.770700 1.379910 90.030200 -13.675200 14.670000
26.893500 1.386240 90.443200 -13.675200 19.850000
17.287600 1.149390 97.580800 -13.941600 20.420000
17.362800 1.154390 98.005100 -13.941600 16.240000
17.438000 1.159380 98.429300 -13.941600 10.500000
17.512400 1.474860 98.849600 -13.941600 10.440000
15.788900 3.427010 163.376000 -14.030400 9.230000
15.830300 3.436000 163.805000 -14.030400 7.420000
-6.694660 0.632009 8.960930 -11.100000 3.940000
-6.831990 0.632009 8.856670 -11.100000 5.180000
-7.633380 0.593440 8.759930 -10.478400 6.220000
-6.850860 1.256900 9.318950 -11.366400 4.030000
-7.524010 0.615419 9.411680 -10.833600 5.030000
-7.916090 0.615419 9.084370 -10.478400 4.400000
-6.161870 1.303450 10.290800 -11.988000 2.790000
-6.551540 1.340540 10.042400 -11.721600 3.430000
-6.393710 1.119260 10.678000 -11.988000 5.810000
-6.614180 1.157860 11.046200 -11.988000 6.110000
-6.143960 1.124430 11.807700 -12.432000 4.070000
-6.659720 1.155300 11.521600 -12.076800 6.280000
-6.261350 0.735276 12.263200 -12.432000 8.420000
-6.796120 0.820430 11.969600 -12.165600 7.420000
-6.457020 0.758254 12.646400 -12.432000 9.490000
-6.553860 0.702040 13.084100 -12.432000 7.150000
8.229720 0.769274 12.614700 -12.076800 6.050000
-5.806040 1.437200 14.312900 -12.964800 5.150000
8.411920 1.902230 12.894000 -12.165600 6.140000
9.461290 0.827186 12.265200 -11.544000 4.640000
-6.080520 1.477130 14.664000 -12.964800 6.220000
9.626650 0.850163 12.680400 -11.544000 3.570000
-6.244860 1.517050 15.060400 -12.964800 3.120000
-6.355340 1.703010 15.930800 -13.053600 5.090000
-6.678970 1.621000 16.742000 -13.053600 6.380000
-6.339800 1.659590 17.331100 -13.142400 6.920000
-6.485400 1.756580 17.729100 -13.142400 4.720000
8.469430 -1.668510 17.843000 -12.964800 7.920000
7.282260 -2.917980 18.671100 -13.320000 6.550000
8.657900 -1.579920 18.240100 -12.964800 8.640000
8.597720 -1.358330 18.762400 -12.964800 8.280000
9.595290 -0.750793 18.792900 -12.876000 6.290000
-6.297550 0.566313 20.596300 -13.408800 6.170000
-6.423500 0.577639 21.008200 -13.408800 6.580000
8.849360 1.142920 20.553500 -13.142400 9.160000
9.019540 1.164900 20.948800 -13.142400 8.280000
9.359150 0.899318 21.284400 -13.142400 5.130000
-5.990330 1.775760 22.861100 -13.586400 8.140000
9.989770 0.915972 21.471600 -13.053600 9.340000
-9.519000 1.556420 21.647900 -12.876000 4.880000
-5.288430 1.808050 23.474200 -13.764000 8.940000
-9.861670 1.584720 21.966200 -12.787200 8.850000
-5.384090 1.764580 23.898900 -13.764000 8.800000
-9.385490 1.688810 22.634400 -12.964800 9.360000
-10.209800 1.613020 22.280400 -12.787200 10.290000
-5.810770 1.487030 24.261800 -13.675200 8.670000
-6.093190 1.983300 24.602300 -13.675200 6.020000
-5.321430 2.236060 25.201400 -13.852800 10.800000
-6.003450 2.016920 25.066300 -13.675200 10.870000
-10.763600 0.919338 23.488900 -12.787200 7.180000
-5.261930 2.273330 25.652300 -13.852800 6.630000
-10.758600 0.934660 23.964000 -12.787200 7.390000
-5.005000 1.672050 26.189500 -13.852800 8.250000
-9.161730 1.589580 25.045400 -13.231200 9.160000
-10.935000 0.949982 24.356900 -12.787200 4.730000
-5.085730 1.699020 26.611900 -13.852800 4.800000
9.127800 -2.849290 25.406900 -13.497600 7.830000
-5.691810 1.236290 26.955500 -13.764000 7.100000
9.073480 -2.894520 25.880800 -13.497600 7.680000
-5.993130 1.082510 27.338400 -13.852800 4.160000
10.324200 -2.853580 25.879400 -13.408800 5.090000
-4.795590 1.099170 28.010600 -13.852800 8.600000
8.800690 -1.539480 27.453100 -13.497600 8.670000
10.275000 0.702242 27.431600 -13.408800 7.780000
10.426100 0.712569 27.835000 -13.408800 10.300000
10.577200 0.722896 28.238400 -13.408800 11.170000
-5.330840 1.466020 30.090200 -13.852800 8.880000
10.507300 0.733223 28.723600 -13.408800 14.590000
-5.228650 1.582510 30.540100 -13.852800 19.010000
-5.295610 2.162860 30.931200 -13.941600 9.260000
-20.369500 0.710586 27.264900 -11.277600 6.560000
-20.412500 0.826167 27.766300 -11.188800 6.160000
-17.455600 -1.838190 29.668800 -11.988000 5.050000
-17.441800 -1.861170 30.175000 -11.988000 6.470000
-20.922800 0.846821 28.460400 -11.188800 6.350000
-21.396300 1.050650 28.639300 -11.188800 6.460000
11.100100 1.824280 33.949600 -13.586400 7.210000
11.233800 1.846260 34.358600 -13.586400 5.520000
-9.104670 1.890220 35.871800 -13.675200 8.550000
-18.764500 -1.053340 35.393300 -12.343200 10.180000
19.242500 0.970746 35.628700 -12.698400 7.390000
11.969300 -0.221553 39.145900 -13.764000 8.160000
19.448600 0.854503 36.010200 -12.698400 5.440000
11.788900 -0.607669 39.646300 -13.764000 10.200000
19.864500 0.735587 36.277300 -12.698400 11.020000
11.911700 -0.613998 40.059300 -13.764000 8.680000
20.073900 0.355481 36.659600 -12.698400 12.690000
10.151700 -0.228549 40.989200 -13.852800 5.690000
10.255300 -0.230881 41.407400 -13.852800 16.670000
-4.179000 2.589480 43.242300 -14.030400 16.160000
-4.219580 2.750800 43.662200 -14.030400 10.860000
-3.750940 2.777770 44.136600 -14.119200 8.790000
-3.792800 1.455000 44.629100 -14.030400 9.510000
-10.432300 1.455000 43.558100 -13.852800 10.020000
-8.747700 0.944450 44.380700 -13.852800 8.460000
-18.191000 -2.168060 41.369700 -12.876000 7.270000
-9.176070 0.953445 44.734000 -13.852800 9.500000
-18.019800 -3.140590 41.852900 -12.876000 8.830000
-4.557050 1.636880 50.182200 -14.030400 9.290000
-6.597250 1.823350 50.818200 -14.030400 5.370000
-6.356350 1.838680 51.282900 -14.030400 7.210000
-2.576890 0.854534 58.108100 -14.119200 7.860000
14.087800 0.498407 56.881700 -13.852800 5.820000
-2.595980 0.860864 58.538500 -14.119200 7.810000
13.417200 0.502072 57.486100 -13.852800 8.050000
-3.750900 0.684636 58.910000 -14.119200 6.900000
15.766500 1.019110 67.551900 -13.852800 11.080000
15.865100 0.809569 67.974200 -13.852800 7.010000
15.963100 0.814567 68.393800 -13.852800 7.430000
16.061500 0.601020 68.815500 -13.941600 7.730000
16.559700 0.384802 69.142100 -13.852800 5.800000
16.254400 1.493130 69.642100 -13.941600 5.860000
16.354100 1.057090 70.069300 -13.941600 6.660000
16.451200 1.287280 70.485400 -13.941600 5.710000
16.549100 1.294940 70.904900 -13.941600 7.520000
16.648600 0.849548 71.331000 -13.941600 10.620000
16.746500 0.854546 71.750500 -13.941600 8.130000
16.288200 0.630338 72.300100 -13.941600 9.570000
16.478000 0.405791 73.142300 -13.941600 18.480000
16.146800 0.641332 73.655700 -13.941600 17.920000
16.238600 0.879532 74.074300 -13.941600 11.940000
16.330800 0.884530 74.495100 -13.941600 6.740000
17.273500 -13.174300 74.008600 -13.852800 18.610000
17.045300 0.899522 75.660500 -13.941600 19.390000
17.141100 -0.180908 76.085800 -13.941600 18.690000
16.202200 -0.424448 76.730700 -13.941600 17.650000
17.330300 -0.426781 76.925600 -13.852800 12.190000
17.802100 1.190020 79.020000 -13.941600 14.010000
17.091500 0.959490 80.942400 -13.941600 9.460000
26.649800 0.795252 89.623600 -13.675200 6.040000
26.772700 0.798917 90.036600 -13.675200 8.620000
26.895500 0.802581 90.449700 -13.764000 8.680000
27.015000 1.685720 90.851600 -13.764000 8.340000
16.795300 1.462200 98.099800 -14.030400 8.910000
16.868000 1.468530 98.524500 -14.030400 8.880000
16.940700 1.474860 98.949200 -14.030400 8.340000
-12.979600 1.481190 99.980700 -14.030400 9.730000
-13.035000 1.487520 100.408000 -14.030400 8.680000
-13.090500 1.493850 100.835000 -13.941600 6.090000
-13.147200 0.552716 101.272000 -13.941600 6.640000
15.787800 3.934620 163.365000 -14.119200 11.210000
15.829200 3.944950 163.793000 -14.119200 12.770000
15.828300 4.326630 163.784000 -14.119200 9.450000
-7.492500 1.533740 8.767380 -10.656000 3.220000
-6.517580 1.605040 9.502730 -11.544000 5.100000
-6.957170 0.485611 9.312300 -11.100000 5.050000
-6.682820 1.664490 9.906490 -11.632800 4.250000
-6.046430 1.278720 11.842300 -12.432000 2.880000
-6.572020 1.124430 11.574900 -12.165600 7.510000
-6.241480 1.319970 12.224300 -12.432000 7.830000
-6.875910 1.160700 11.895600 -12.165600 7.260000
-6.535410 1.317440 12.560000 -12.432000 9.810000
-7.185120 1.196970 12.212300 -12.076800 5.830000
-6.737200 1.267100 12.947800 -12.432000 8.740000
8.915510 0.943902 12.127400 -11.721600 4.900000
8.371090 0.503655 13.050100 -12.165600 7.520000
9.049640 0.970870 12.561700 -11.810400 6.990000
-5.616710 1.305790 14.400800 -12.964800 3.030000
8.706740 0.517645 13.345900 -12.165600 7.460000
9.008660 0.714730 13.134800 -11.988000 6.750000
8.942050 0.531636 13.706600 -12.165600 3.510000
9.252130 0.734047 13.489800 -11.988000 5.400000
-5.865880 1.660440 15.660300 -13.142400 4.050000
-6.019860 1.596890 16.071400 -13.142400 5.230000
-6.535830 0.996629 16.383200 -13.053600 8.590000
-6.699180 0.811315 16.792700 -13.053600 8.000000
-6.028180 0.556969 17.967100 -13.320000 5.670000
8.097370 -1.698190 17.059200 -12.964800 6.830000
7.637260 -1.736780 17.738300 -13.053600 10.020000
7.946500 -1.775380 18.071800 -13.053600 10.850000
8.285130 -0.970467 18.454500 -13.053600 9.920000
8.722610 -2.718710 19.035000 -13.142400 5.180000
-6.118950 1.813590 20.578100 -13.586400 4.520000
-6.241320 1.849860 20.989600 -13.586400 6.000000
-5.663580 1.678900 21.614100 -13.675200 6.440000
9.015360 0.658237 20.502600 -13.231200 7.550000
9.188730 0.670895 20.896800 -13.231200 8.270000
9.689180 0.683553 21.144300 -13.142400 7.600000
-9.349550 1.384480 21.262600 -12.964800 6.240000
-5.502150 1.903640 22.973200 -13.764000 9.840000
-9.522690 1.410110 21.656300 -12.964800 9.220000
-5.602190 1.938250 23.390900 -13.764000 11.350000
8.747470 1.659180 22.427800 -13.408800 6.160000
-9.694000 1.510240 22.045900 -12.964800 6.900000
-5.715730 1.025180 23.865000 -13.764000 8.940000
8.903680 1.688810 22.828300 -13.408800 6.090000
-6.002990 1.043170 24.238100 -13.675200 8.620000
-6.248920 1.061150 24.620300 -13.675200 5.440000
-8.866080 1.807320 24.678400 -13.320000 6.020000
-5.506430 1.836950 26.077600 -13.852800 6.260000
10.017900 -0.660933 25.685200 -13.497600 8.950000
8.888020 -1.925830 26.490900 -13.586400 9.550000
9.024760 -1.955460 26.898500 -13.675200 10.460000
10.524200 1.450630 26.380600 -13.320000 7.150000
8.960320 -1.472610 27.405100 -13.675200 11.030000
10.261600 1.652950 27.395800 -13.497600 15.740000
-5.399310 2.044340 29.166200 -13.941600 7.670000
10.426800 0.620639 27.836900 -13.497600 16.780000
-5.249350 2.073970 29.630200 -13.941600 12.180000
10.578000 0.629634 28.240300 -13.497600 13.490000
-5.406700 1.390830 30.518400 -13.941600 9.310000
-4.285600 1.410140 31.130500 -13.941600 5.540000
-20.370700 0.605326 27.266600 -11.188800 10.090000
10.390600 0.500061 32.412700 -13.675200 8.130000
-20.839500 0.719581 27.450300 -11.188800 16.490000
10.522100 0.506391 32.823000 -13.675200 5.480000
-18.612500 -0.836494 29.514200 -11.810400 8.440000
-20.669100 0.728576 28.115300 -11.277600 17.730000
-18.842300 -0.846821 29.878500 -11.810400 4.540000
-20.924200 0.737571 28.462400 -11.277600 8.330000
-19.524600 -1.492810 29.927800 -11.721600 14.650000
10.905300 1.713800 34.018400 -13.675200 7.420000
-19.280000 -1.930100 30.572500 -11.810400 6.800000
11.036700 1.734450 34.428200 -13.675200 11.000000
-9.273210 1.755100 35.389700 -13.675200 7.430000
19.070200 2.090940 34.198400 -12.609600 6.250000
19.282100 2.022090 34.578400 -12.609600 8.930000
19.491700 2.044070 34.954200 -12.609600 7.600000
-18.124500 -1.690650 36.183800 -12.520800 12.270000
-17.822500 -1.708630 36.812400 -12.609600 11.470000
-4.770990 -0.735587 41.083800 -14.119200 6.300000
11.556800 -1.087320 39.704400 -13.764000 8.820000
-4.340200 -0.872492 41.562200 -14.030400 10.350000
-4.061180 -0.881487 42.023200 -14.119200 8.500000
-3.608210 2.044180 42.457100 -14.119200 9.170000
-30.558400 0.237878 31.589400 -10.123200 6.790000
-30.858000 0.240210 31.899100 -10.123200 8.240000
-16.424100 -2.263860 41.169800 -13.053600 6.680000
-9.002310 1.074020 43.886900 -13.852800 11.290000
-17.460800 -2.285840 41.208700 -12.964800 8.420000
-9.088340 1.189260 44.306300 -13.852800 6.600000
-17.628700 -2.307820 41.604900 -12.964800 9.150000
-17.929800 -3.703450 42.315500 -12.876000 8.610000
-15.588600 -0.249538 43.390400 -13.231200 7.220000
21.471700 1.367110 41.265100 -12.787200 8.330000
20.833100 1.367110 41.591100 -12.964800 8.480000
-2.980250 2.504540 46.806500 -14.119200 6.220000
19.564900 -0.544710 42.695700 -13.142400 10.850000
-2.759350 2.550490 47.682100 -14.119200 7.740000
-2.784210 2.573470 48.111600 -14.119200 7.500000
-2.809410 2.483660 48.547100 -14.119200 7.810000
-7.446060 2.104320 49.818000 -13.941600 5.680000
-7.220040 1.965180 50.292600 -14.030400 7.780000
-6.987920 1.981830 50.760000 -14.030400 6.360000
12.714000 1.678850 50.092400 -13.941600 5.200000
-7.768350 1.381800 51.974300 -13.941600 12.870000
13.346900 0.841874 55.727500 -13.941600 9.050000
13.447200 0.848204 56.146500 -13.941600 9.180000
13.547600 0.854534 56.565500 -13.941600 8.940000
-3.046090 1.721540 58.497900 -14.119200 9.590000
-12.985000 -1.349210 63.302900 -13.852800 4.880000
33.366800 0.582696 59.836100 -12.698400 10.830000
33.575600 0.799575 60.210600 -12.698400 5.960000
15.669700 0.586361 67.137100 -13.941600 6.740000
33.786500 0.590026 60.588800 -12.698400 8.360000
15.244700 1.233640 67.668000 -13.941600 6.480000
15.864500 1.025440 67.971400 -13.941600 6.190000
15.435900 0.597355 68.516900 -13.941600 8.980000
14.200000 0.000000 69.226200 -14.030400 11.020000
15.624800 0.824561 69.355500 -13.941600 10.400000
15.718900 1.050760 69.773000 -13.941600 9.320000
15.813600 1.057090 70.193300 -13.941600 8.340000
15.908300 1.063420 70.613600 -13.941600 16.450000
16.003000 1.069750 71.033900 -13.941600 8.760000
16.097700 1.076080 71.454200 -13.941600 17.240000
15.870500 0.171912 72.395400 -13.941600 6.990000
15.962800 0.172912 72.816300 -13.941600 12.710000
16.146800 -0.641332 73.655700 -13.941600 11.120000
16.239100 -0.644997 74.076600 -13.941600 19.120000
16.331900 -0.176910 74.500000 -13.941600 21.190000
16.418500 2.016070 74.895200 -13.941600 20.160000
16.515400 0.894524 75.336900 -13.941600 19.430000
16.607600 0.899522 75.757800 -13.941600 16.330000
16.113100 0.422116 76.309100 -13.941600 7.990000
16.291400 0.000000 77.153400 -13.941600 16.420000
16.901200 19.298300 75.020900 -13.941600 18.240000
16.556700 19.403100 75.525600 -13.941600 16.010000
16.162400 19.310600 76.542400 -13.941600 11.450000
26.010100 1.079430 89.359700 -13.764000 7.100000
26.130500 1.084420 89.773400 -13.764000 7.590000
26.250900 1.089420 90.187100 -13.764000 7.090000
26.371400 1.094420 90.600800 -13.764000 7.050000
16.723300 1.149390 97.679100 -14.030400 6.370000
16.795300 1.462200 98.099800 -14.030400 7.370000
16.867200 1.777670 98.519500 -14.030400 8.550000
-12.978900 1.792990 99.975700 -14.030400 7.160000
-13.034400 1.800650 100.403000 -14.030400 6.510000
-12.506800 1.808320 100.904000 -14.030400 11.590000
-11.439700 1.011470 118.373000 -14.119200 12.220000
-11.481500 0.276859 118.805000 -14.119200 8.540000
-11.523000 0.277858 119.234000 -14.119200 10.250000
15.746300 3.924290 162.936000 -14.208000 11.460000
15.787800 3.934620 163.365000 -14.208000 7.410000
15.826900 4.835510 163.770000 -14.208000 7.570000
-6.980580 0.735762 8.731910 -11.011200 5.690000
-7.163550 1.077900 9.103770 -11.011200 6.120000
-6.332050 1.624860 11.152200 -12.165600 2.170000
-6.639260 1.556000 11.486200 -12.165600 3.160000
-6.361380 0.447693 12.225500 -12.520800 5.160000
-6.617600 0.532929 12.085300 -12.343200 6.900000
-6.944610 1.606190 11.803500 -12.165600 6.540000
-6.560180 0.461684 12.607600 -12.520800 6.980000
-6.920260 0.549583 12.410000 -12.343200 7.310000
-7.110720 0.549583 12.301800 -12.165600 6.580000
-7.129960 0.566237 12.786100 -12.343200 6.430000
8.453510 0.962150 11.927000 -11.899200 3.150000
-6.334520 1.397280 13.615200 -12.787200 4.490000
8.702150 0.990448 12.277800 -11.899200 6.220000
-6.436270 1.389430 14.045600 -12.787200 4.890000
9.047850 1.018750 12.559200 -11.899200 6.020000
9.314380 0.517645 12.929200 -11.899200 2.920000
-6.363930 1.450870 15.952300 -13.142400 6.740000
-6.298920 1.582400 16.429800 -13.231200 5.460000
-6.347930 0.153920 16.947300 -13.320000 7.150000
-6.907430 1.523420 16.658200 -13.142400 7.310000
-6.499070 0.157585 17.350800 -13.320000 7.100000
-6.955040 0.988028 17.145400 -13.142400 7.000000
0.483709 1.736780 19.306500 0.976800 11.390000
8.148910 1.677050 17.515000 -13.053600 6.610000
0.494458 1.775380 19.735500 0.976800 17.160000
6.785310 1.668510 18.549000 -13.497600 5.710000
7.450380 0.229878 18.366500 -13.231200 7.160000
8.467750 1.714310 17.839500 -13.053600 7.690000
-0.396176 2.234490 20.558300 0.976800 13.900000
-0.808709 2.281040 20.974900 0.976800 7.730000
8.498080 1.547880 19.737600 -13.231200 5.410000
-1.140750 1.307560 21.907300 0.799200 5.610000
0.422665 1.307560 21.932900 0.976800 6.960000
0.131779 1.358840 22.796900 0.976800 5.820000
0.134404 0.899318 23.250800 0.976800 4.840000
9.058410 1.528120 21.378400 -13.408800 8.100000
9.226160 1.556420 21.774300 -13.408800 3.530000
-5.910820 2.235650 23.288200 -13.764000 8.450000
9.403420 1.156300 22.192700 -13.408800 5.550000
-6.214630 1.461390 23.717100 -13.764000 8.400000
-9.381310 1.840340 22.624400 -13.231200 6.340000
-6.323660 1.487030 24.133200 -13.764000 9.600000
-9.545890 1.872620 23.021300 -13.231200 5.310000
-6.246230 1.296780 24.609700 -13.764000 5.420000
-9.200040 1.726210 24.561700 -13.408800 6.780000
-10.944100 0.853415 23.882900 -12.964800 4.960000
-5.150690 2.084150 26.131600 -13.941600 6.120000
-4.926440 2.117770 26.611800 -13.941600 4.680000
9.513940 -1.133090 25.399700 -13.497600 4.590000
11.092100 -1.866570 24.706800 -13.231200 6.180000
9.664960 -1.151080 25.802900 -13.497600 6.480000
11.268100 -1.896200 25.099000 -13.231200 8.580000
-5.617030 1.752960 27.383400 -13.941600 10.400000
9.614900 -1.082510 26.284200 -13.586400 7.800000
8.803110 -1.383430 27.460600 -13.852800 4.700000
-9.171280 1.472610 27.335200 -13.497600 3.810000
8.719430 -1.404080 27.938500 -13.852800 8.850000
10.424600 0.873429 27.831000 -13.586400 8.710000
-5.486460 1.165780 29.636900 -14.030400 15.580000
10.357800 0.886088 28.315000 -13.586400 18.570000
-5.565470 1.087880 30.063700 -13.941600 8.600000
10.726800 0.898746 28.637700 -13.586400 17.330000
-4.818340 1.294960 30.621000 -14.030400 8.740000
-9.069000 0.743550 29.660400 -13.586400 11.780000
-4.642480 1.774490 31.060600 -14.119200 6.420000
10.804000 0.656618 29.534800 -13.675200 6.800000
-4.522320 1.995680 31.501100 -14.119200 7.970000
10.952000 0.665613 29.939400 -13.675200 6.490000
-4.583440 2.022650 31.926800 -14.119200 6.770000
11.100700 0.574677 30.345800 -13.675200 9.050000
-4.644550 2.049610 32.352500 -14.119200 6.640000
11.446400 -2.756660 30.558800 -13.586400 8.230000
-20.370700 0.605326 27.266600 -11.277600 6.560000
10.826300 -0.605326 32.268000 -13.764000 5.000000
-20.628500 0.612989 27.611700 -11.277600 5.760000
-20.886400 0.620651 27.956800 -11.277600 14.350000
-18.608100 -1.133220 29.507100 -11.899200 5.860000
-21.361800 0.628313 28.138200 -11.277600 14.520000
-18.607000 -1.147210 30.015700 -11.988000 7.080000
-8.793700 1.868240 35.506100 -13.764000 9.750000
-21.979700 -4.491370 28.952100 -0.444000 8.740000
10.548300 1.890220 35.474100 -13.852800 6.400000
10.671000 1.912200 35.886600 -13.852800 5.900000
18.964100 1.348360 32.808700 -12.609600 7.240000
19.177400 1.482210 33.177700 -12.609600 5.940000
19.133700 1.498860 33.699000 -12.698400 10.250000
19.072500 2.000110 34.202500 -12.787200 9.660000
-3.847260 2.508080 39.809700 -14.208000 4.850000
-3.888630 2.535050 40.237700 -14.208000 7.090000
11.319900 -0.093952 38.890500 -13.852800 12.360000
-17.928800 0.595009 36.315700 -12.698400 10.200000
11.105800 3.067230 39.280600 -13.852800 7.290000
19.658600 0.601339 35.901200 -12.876000 11.230000
11.222700 3.099510 39.694100 -13.852800 10.950000
12.987300 -0.743249 39.721400 -13.852800 11.160000
-18.107600 0.228549 38.148200 -12.698400 9.850000
-30.555500 0.645648 31.586400 -10.034400 8.170000
-31.158500 0.645648 30.991800 -9.856800 8.320000
-3.127210 2.106120 43.789800 -14.208000 7.970000
-8.573090 2.126770 43.494900 -13.941600 6.220000
-8.663290 1.177930 43.952500 -13.941600 5.570000
-17.474400 -1.455000 41.240600 -12.964800 9.490000
-8.746590 1.189260 44.375100 -13.941600 5.020000
-16.434700 -1.189260 42.137300 -13.142400 6.690000
-3.310260 2.481560 46.352900 -14.208000 5.710000
-17.799900 -2.481560 42.926900 -13.053600 6.810000
-3.339110 2.939580 46.756900 -14.208000 4.930000
20.114100 2.395740 42.375500 -13.142400 7.580000
-3.005970 2.966550 47.210500 -14.296800 5.880000
20.298700 2.417720 42.764300 -13.142400 6.690000
-7.510630 1.965180 50.250000 -14.030400 7.300000
-16.818500 -1.061380 47.972400 -13.408800 6.150000
-7.574280 1.981830 50.675900 -14.119200 6.340000
-15.649900 -1.070380 48.818800 -13.497600 5.710000
-16.063700 -1.359150 49.130700 -13.497600 6.710000
-7.467780 1.381800 52.018300 -14.119200 11.230000
-15.654900 -1.544320 50.161000 -13.497600 8.200000
-7.529000 1.393130 52.444700 -14.119200 10.510000
-7.895700 1.404460 52.826300 -14.119200 8.600000
13.447800 0.669644 56.148800 -14.030400 8.100000
-3.022360 2.428060 58.042200 -14.296800 9.530000
13.548200 0.674641 56.567800 -14.030400 9.040000
-2.593990 2.446040 58.493800 -14.296800 10.660000
13.648500 0.679639 56.986800 -14.030400 5.820000
-14.487900 -0.968472 64.308800 -13.852800 12.490000
33.156900 0.579031 59.459800 -12.787200 11.670000
33.364400 1.006450 59.831800 -12.787200 7.100000
33.574200 1.012780 60.208100 -12.787200 10.660000
15.767200 0.804572 67.554600 -14.030400 6.910000
15.864500 1.025440 67.971400 -14.030400 7.150000
15.625700 0.384802 69.359100 -14.119200 8.420000
15.718900 1.050760 69.773000 -14.030400 6.530000
15.813600 1.057090 70.193300 -14.030400 9.010000
15.908300 1.063420 70.613600 -14.030400 10.880000
16.550000 1.069750 70.908500 -14.030400 8.650000
16.287700 0.859543 72.297800 -14.119200 7.190000
16.380900 1.325590 72.711500 -14.030400 10.730000
16.474600 1.565090 73.127500 -14.119200 9.970000
16.569300 1.574080 73.547800 -14.119200 16.070000
16.665000 1.348580 73.972400 -14.119200 18.010000
16.759700 1.356240 74.392700 -14.119200 10.180000
15.757500 -0.909516 76.819000 -14.119200 17.660000
16.825500 18.897600 74.685000 -14.119200 20.880000
17.454900 19.714200 74.785600 -14.119200 20.270000
17.549800 19.821300 75.192000 -14.119200 18.480000
17.715700 -0.447770 80.812500 -14.119200 21.690000
26.649000 1.084420 89.620800 -13.852800 6.930000
26.771800 1.089420 90.033800 -13.852800 6.860000
26.371400 1.094420 90.600800 -13.852800 12.190000
16.722600 1.455870 97.675100 -14.208000 13.740000
16.795300 1.462200 98.099800 -14.208000 11.920000
16.868000 1.468530 98.524500 -14.208000 7.400000
16.939900 1.785330 98.944200 -14.208000 6.900000
-12.979600 1.481190 99.980700 -14.119200 8.540000
-13.035000 1.487520 100.408000 -14.119200 6.850000
-13.090500 1.493850 100.835000 -14.119200 7.900000
-10.755500 0.643669 118.439000 -14.208000 11.270000
-10.794600 0.276859 118.870000 -14.208000 9.160000
-10.833500 0.277858 119.299000 -14.208000 8.200000
-10.872200 1.022470 119.724000 -14.208000 13.000000
23.856800 -8.576020 134.661000 -14.119200 9.650000
23.145900 -9.027230 135.193000 -14.119200 11.970000
23.218500 -9.055530 135.617000 -14.119200 10.020000
15.748400 2.911700 162.957000 -14.296800 4.750000
15.789800 2.919360 163.386000 -14.296800 9.560000
15.830300 3.436000 163.805000 -14.296800 13.320000
