VERSION .7
FIELDS x y z velocity SNR
SIZE 4 4 4 4 4
TYPE F F F F F
COUNT 1 1 1 1 1
WIDTH 243
HEIGHT 1
VIEWPOINT 0 0 0 1 0 0 0
POINTS 243
DATA ascii
0.0726655360856247 3.12188317395925 -0.316497161657505 0 5.27727496255709
-5.72296817395844 5.12990321348154 -1.58248580828753 3.55843826770973 12.5190294974436
-5.74088622165235 5.14596443340281 -1.46075613072695 3.71315297500145 62.8416062328231
-5.74088622165235 5.14596443340281 -1.46075613072695 3.86786768229318 17.2727762294307
-2.65211965087437 7.49622431867908 -1.83568353761353 3.55843826770973 121.883439951509
-2.65211965087437 7.49622431867908 -1.83568353761353 3.71315297500145 636.694091178516
-2.65690531881238 7.50975102376804 -1.77238410528203 3.86786768229318 181.34233967638
-2.75909398492055 7.79858760160527 -1.84055272471595 3.55843826770973 387.678285612125
-2.75909398492055 7.79858760160527 -1.84055272471595 3.71315297500145 2231.54552279063
-2.75909398492055 7.79858760160527 -1.84055272471595 3.86786768229318 683.193860824942
-2.86624682732443 8.10145543895143 -1.84055272471595 3.55843826770973 190.392601268045
-2.86128265102872 8.0874241794425 -1.90872134414988 3.71315297500145 880.66719103535
-2.86128265102872 8.0874241794425 -1.90872134414988 3.86786768229318 281.35466364847
-3.71486527126053 8.05354258434398 -2.04749317656894 3.403723560418 23.2209183697658
-3.70071324616432 8.02286208089511 -2.18869960253921 3.55843826770973 30.5721822097458
-2.60420561767119 8.44273105104565 -2.18869960253921 3.71315297500145 50.7569525382756
-2.87833252479447 8.35325064726965 -2.18869960253921 3.86786768229318 25.7488275748535
-2.53056821879719 8.44652447621702 -2.25930281552435 3.86786768229318 25.7488275748535
-4.00509221218946 7.95069736386768 -3.06758787452659 3.403723560418 10.0458883764417
-3.83861589472296 8.13796209081232 -2.7754366483812 3.403723560418 10.0458883764417
-3.72587369488928 8.4527059003524 -1.82594516340869 3.55843826770973 14.3216243017668
-2.80277810143567 8.83102037002873 -1.67986955033599 3.71315297500145 17.4188760724253
-2.8205743779144 8.88709305020764 -1.31468051765425 3.86786768229318 10.8617749213132
-3.88612469845984 8.81625944895396 -1.35850320157606 3.55843826770973 9.85974172475564
-3.89791050598477 8.84299732923774 -1.13208600131339 3.71315297500145 10.5185623772306
5.31808767263281 7.89908556119447 3.19418673918959 -4.48672651146009 6.28248889514325
-3.54458943749867 9.28036822894385 -1.48023287913664 3.71315297500145 5.45969709554966
-2.33376210370438 9.75379859756056 0.545348955471394 3.71315297500145 5.45969709554966
-1.94620950975787 9.84586050959371 0.389534968193853 3.71315297500145 5.45969709554966
-2.31680127740751 9.68291198770206 1.3244188918591 3.86786768229318 5.34896922891239
3.99963991807479 9.50564964175826 0.964099046279786 -4.64144121875182 9.18538081589779
5.66573849221886 8.41545981795246 2.08888126693954 -4.17729709687663 9.36621904042288
4.89552645771613 9.1151209819835 0.482049523139893 -4.02258238958491 7.96487854235268
5.41552298594005 8.72299625319198 1.3658069822297 -4.02258238958491 7.96487854235268
3.83674030532097 9.56412824829512 1.04444063346977 -3.71315297500145 6.52388732588983
4.13684242094112 9.38505038114454 1.44614856941968 -3.71315297500145 6.52388732588983
4.14128228336592 9.39512287806423 1.3658069822297 -3.55843826770973 5.01025432231814
-3.46792859293541 9.5510848172512 -2.00853967974955 3.71315297500145 6.1010646070261
-2.32491957536251 9.71684185702435 -2.73161396445939 3.86786768229318 8.7792623197833
5.04691607707593 9.39699765200047 0.331104722964775 -4.17729709687663 7.5713263396259
4.91622509264761 8.96298176827579 -3.06271868742417 -3.86786768229318 5.75193324489074
4.24687393882381 9.63467345927183 1.73829979556507 -3.55843826770973 9.26495285598785
3.88514520115737 9.68479073644492 2.23495688001223 -3.403723560418 5.13109302969707
4.25841971238065 9.44276159294803 2.56606160297701 -3.403723560418 5.13109302969707
5.03961619700483 9.38340579613435 0.662209445929551 -3.403723560418 5.13109302969707
-3.85237423581812 9.83990627545507 -1.48997125334149 3.71315297500145 5.63729068064499
-3.49715652335656 9.88472362774798 -1.98662833778865 3.71315297500145 5.63729068064499
-3.86747342600521 9.87847330118554 -1.15886653037671 3.86786768229318 5.17001260362643
-3.49715652335656 9.88472362774798 -1.98662833778865 3.86786768229318 5.17001260362643
-2.53896155786849 10.6114156379046 -1.27816161438608 3.86786768229318 7.92648757220129
-2.53896155786849 10.6114156379046 -1.27816161438608 4.02258238958491 5.79952311852934
6.04589282842683 9.54226645039881 0.262936103530851 -3.55843826770973 7.06248879333361
-3.83272345085499 10.0347545381004 3.50581471374468 4.48672651146009 7.03569334305012
3.19804154502799 10.3679235124632 3.15523324237021 4.48672651146009 7.03569334305012
-3.8427890409287 10.0611080506786 3.41816934590106 4.64144121875182 8.96919143615926
3.10645722172989 10.3687253964385 3.24287861021383 4.64144121875182 8.96919143615926
5.70864968111221 9.98252121231137 1.62143930510691 -4.95087063333527 17.4387061818476
6.57267132313505 9.56758264364487 -0.360319845579314 -3.55843826770973 20.4498925039003
3.19274770011128 10.6567455463396 3.33295857160865 4.48672651146009 5.79630348974416
3.15992275340031 10.5471825186507 3.69327841718797 4.64144121875182 7.29773755142946
6.37408774574257 10.0602583231572 -0.64760188462228 -3.71315297500145 32.6293339409279
6.66024638027378 9.89262668367651 -0.185029109892079 -3.55843826770973 20.9868476331067
2.91704293092098 11.384441686214 2.03532020881288 4.64144121875182 5.59702699007673
3.61851758931324 11.087111500235 2.49789298354308 4.64144121875182 5.59702699007673
2.77242929050988 11.587178008713 0.55508732967624 4.79615592604354 31.1893821757253
3.82327679477892 11.0955871448378 2.12783476375892 4.79615592604354 31.1893821757253
4.1466056795424 10.8565542737551 2.68292209343516 4.79615592604354 31.1893821757253
-2.08126385146554 12.0175039393996 -1.04444063346977 -4.48672651146009 6.1207495841282
-1.62035483775531 11.491848358907 -3.89291508838732 -4.48672651146009 6.1207495841282
4.15962551479778 11.4560998115037 1.13938978196702 4.79615592604354 18.5097362096331
6.20983153817223 10.8589208512453 1.0712211625331 -4.64144121875182 8.04117546940145
3.68284341350755 11.2842053563746 -4.09011716603545 4.79615592604354 14.4562753363803
4.25954520010586 11.7312904227622 1.36337238867849 4.79615592604354 14.4562753363803
6.478620839971 11.097059770596 0.698728349197723 -4.64144121875182 6.18833752802165
3.68783032429118 12.3092311311277 0.698728349197723 4.79615592604354 6.43457972370504
3.72562248091592 15.570983551287 4.51617103749748 4.17729709687663 12.2765116961463
3.98289252506546 15.5441687927951 4.38713757928327 4.33201180416836 5.71767442841029
5.14514495293798 15.3386572382688 3.87100374642641 4.33201180416836 5.71767442841029
5.8389459650067 14.5551753833174 5.54843870321119 4.33201180416836 5.71767442841029
4.01573179799483 16.2105313147724 2.89229713883936 4.02258238958491 12.5087349004782
3.81264605843334 15.9346926230029 4.33844570825903 4.17729709687663 24.2868507873023
4.06765550327198 16.4201346679631 -1.0517444141234 4.33201180416836 6.79582115044855
3.34665967757121 16.9307282660167 -0.401707935949912 4.02258238958491 12.2604207520759
3.92799606734661 16.4167900713165 3.6153714235492 4.02258238958491 12.2604207520759
3.88325061507099 16.2297795234289 4.41878729544902 4.17729709687663 21.0324073858051
4.02450188924097 16.8201295328475 3.13575649396051 4.02258238958491 9.64301758931132
3.98529607644808 16.6562715281141 3.9537799271676 4.17729709687663 9.78114877626161
14.1013014578752 12.6399989418412 -2.82169392585422 -2.32072060937591 6.26138252633793
5.27909329521822 18.7151615763972 -0.75472400087559 4.17729709687663 7.36548798630953
4.8279081470196 18.8420397188975 -0.603779200700473 4.33201180416836 5.57682752474968
5.87248524363038 18.5030833452811 -1.35850320157606 4.33201180416836 5.57682752474968
3.93484247667877 23.8339339977418 0.749854813773168 3.86786768229318 6.60693156650479
4.87346975632607 23.6687642123637 -0.374927406886582 3.86786768229318 6.60693156650479
-20.1237688830246 13.9312971123573 0.569694890983511 -2.16600590208418 9.83337547364292
4.87758242758126 23.6887380402705 -3.79796593989007 -2.16600590208418 9.83337547364292
16.9747715583208 17.410197855897 2.84847445491755 -2.16600590208418 9.83337547364292
17.1403805615096 16.0886137705076 -6.83633869180212 -2.16600590208418 9.83337547364292
17.4384683312188 17.5003566615924 2.11566179600286 -2.16600590208418 7.95583343837226
-7.46114646535406 24.1887401332677 2.36642493177766 3.71315297500145 5.94139127534503
-13.2926473291256 21.4109908032894 -3.35243532001834 3.86786768229318 6.16712429276762
5.11969061500147 24.8645741259451 1.38041454353696 3.86786768229318 6.16712429276762
2.87543209092429 24.5459163251984 -7.18692016317658 3.86786768229318 8.99010381237217
4.23723681953826 25.6655821137006 1.41449885325393 3.55843826770973 5.02334305796143
4.02388016000251 25.6243156773854 2.42485517700673 3.71315297500145 14.6809841800239
4.63868241084003 25.5841047263873 1.61657011800449 3.71315297500145 14.6809841800239
3.0252276592435 25.8246352688501 1.61657011800449 3.86786768229318 8.38062107040676
2.45141116213505 26.2223995276479 -1.22703514981064 3.71315297500145 10.5847322983486
5.31715231584609 25.8235776023074 -0 3.71315297500145 10.5847322983486
3.67401142231017 26.0567507500827 1.63604686641418 3.86786768229318 9.54772294331116
3.26248222537215 26.0846258531128 4.55268994076565 3.71315297500145 6.94449691222425
4.90492027098295 24.813957878967 8.48455852597236 3.71315297500145 6.94449691222425
3.71774965352815 26.3669501637741 1.65552361482388 3.86786768229318 6.7097516488569
4.17943098305126 26.6148728598029 1.67500036323357 3.71315297500145 7.12606316402622
5.2343761351049 26.4806728271515 -0 3.71315297500145 7.12606316402622
16.1007757386002 25.9341538769066 -7.30378065363474 -3.71315297500145 5.84237583179126
-16.7209434916361 26.9330825122623 4.46991376002446 3.55843826770973 7.81169175932698
-14.5518768145263 28.2724036024721 3.72492813335372 3.55843826770973 7.81169175932698
-13.1342119592346 28.4739627420199 6.45654209781311 3.55843826770973 7.81169175932698
-6.84165321170965 30.7494864655091 5.71155647114237 3.55843826770973 7.81169175932698
-16.7209434916361 26.9330825122623 4.46991376002446 3.71315297500145 13.9549544515102
-14.5381135534093 28.2456633765793 3.9732566755773 3.71315297500145 13.9549544515102
-13.1123650539061 28.42660032924 6.70487064003669 3.71315297500145 13.9549544515102
-9.10792502180827 30.4004100947806 4.22158521780088 3.71315297500145 13.9549544515102
-6.77500332996173 30.4499317273023 7.20152772448385 3.71315297500145 13.9549544515102
4.23001609039875 31.7988354838234 4.01221017239668 3.55843826770973 32.2800396204061
5.75904419132881 31.7633277437864 1.75534195042355 3.55843826770973 32.2800396204061
4.23001609039875 31.7988354838234 4.01221017239668 3.71315297500145 77.9473353639537
5.76130262212097 31.7757838519624 1.50457881464876 3.71315297500145 77.9473353639537
4.23001609039875 31.7988354838234 4.01221017239668 3.86786768229318 11.5114873253076
5.25825773990892 31.8500597314598 1.75534195042355 3.86786768229318 11.5114873253076
5.76321291077049 31.7863198232875 1.25381567887396 3.86786768229318 11.5114873253076
4.27512765172523 32.1379583349859 3.79796593989007 3.55843826770973 30.2844538529438
5.81723759903477 32.0842866078067 1.51918637595603 3.55843826770973 30.2844538529438
4.27108420778126 32.1075620419188 4.05116366921607 3.71315297500145 89.3273198944761
5.81495724173007 32.0717095665416 1.77238410528203 3.71315297500145 89.3273198944761
4.27108420778126 32.1075620419188 4.05116366921607 3.86786768229318 13.7588622977352
5.31315196163898 32.1825623069316 1.26598864663002 3.86786768229318 13.7588622977352
5.87087029213132 32.3800913892968 1.78942626014051 3.71315297500145 9.27439427966405
4.98874331125494 31.7686234077512 11.6763106716107 4.48672651146009 6.11732588683901
-16.7041705633913 42.6665382674276 0.710901316953779 4.48672651146009 10.4093915176409
-14.5295699908491 43.3154159790603 3.55450658476891 4.48672651146009 10.4093915176409
-13.1037148317212 43.7375476516928 3.9099572432458 4.48672651146009 10.4093915176409
-5.31231682367078 45.3482051126626 3.9099572432458 4.48672651146009 10.4093915176409
13.8609074887715 43.6730814750282 0.710901316953779 4.48672651146009 10.4093915176409
-16.6981379560728 42.6511295124685 1.42180263390756 4.64144121875182 13.4037201491132
-14.827535497952 43.0312062378983 5.33175987715336 4.64144121875182 13.4037201491132
-13.0846408644848 43.6738826100138 4.62085856019958 4.64144121875182 13.4037201491132
-5.30861298217199 45.316587539847 4.26540790172269 4.64144121875182 13.4037201491132
13.8421264775966 43.6139060832372 2.48815460933823 4.64144121875182 13.4037201491132
13.9571049435958 43.9761813467815 0.357885252028101 4.48672651146009 35.9187316708568
15.0293717660126 43.6169582044608 0.715770504056202 4.48672651146009 35.9187316708568
16.4622263437284 43.1010488046337 0.357885252028101 4.48672651146009 35.9187316708568
13.9537454047387 43.9655960792338 1.07365575608431 4.64144121875182 46.1933302650338
16.4582638107175 43.0906741854828 1.07365575608431 4.64144121875182 46.1933302650338
14.0524739775932 44.2766710221753 -0 4.48672651146009 22.259740341023
15.1293356769329 43.9070649229882 1.08095953673794 4.48672651146009 22.259740341023
16.5727183322017 43.390336564884 0.720639691158625 4.48672651146009 22.259740341023
14.0507829338232 44.2713428650971 0.720639691158625 4.64144121875182 29.2186732469372
15.1261477025574 43.8978130562264 1.44127938231726 4.64144121875182 29.2186732469372
16.566733198039 43.3746664146708 1.44127938231726 4.64144121875182 29.2186732469372
13.409337873596 46.1108792817566 0.372492813335371 4.33201180416836 6.66322603703722
16.3719245471162 45.0902133018794 2.23495688001223 4.33201180416836 6.66322603703722
13.4061101847725 46.0997801826736 1.11747844000612 4.48672651146009 11.2521778735231
16.3655067522269 45.0725379369794 2.6074496933476 4.48672651146009 11.2521778735231
13.4957624021337 46.4080685270387 0.749854813773164 4.33201180416836 7.30430143253673
16.0825464364435 45.457366775819 3.37434666197925 4.33201180416836 7.30430143253673
13.4957624021337 46.4080685270387 0.749854813773164 4.48672651146009 11.1095436735864
14.5688469602588 45.9036640139201 4.12420147575242 4.48672651146009 11.1095436735864
16.4565591442678 45.3233069755828 3.37434666197925 4.48672651146009 11.1095436735864
-25.098680505248 56.9401386549347 8.27761807411937 3.403723560418 5.39262730135201
-3.39600162243794 62.4533539342174 -5.35610581266548 3.403723560418 5.39262730135201
5.83669324317869 62.434284589638 2.92151226145389 3.403723560418 5.39262730135201
13.1325597971521 61.3159257730738 2.92151226145389 3.403723560418 5.39262730135201
-3.41298163055013 62.7656207038885 -5.3828863417288 3.403723560418 5.53355098971521
5.86357728555724 62.72185940004 3.42547312655469 3.403723560418 5.53355098971521
12.692145526556 61.6413797227555 4.40417973414175 3.403723560418 5.53355098971521
12.9970651176601 65.7520629413164 7.85156420265735 3.86786768229318 5.72451077859531
12.9716738188181 65.6236085353016 8.89843942967832 4.02258238958491 5.89433553876505
-7.59235085283753 2.7919688063468 -1.07609034963552 1.45350396060912 6.03834322604326
-5.84837001093272 5.36537823679343 -1.89898296994503 1.45350396060912 6.03834322604326
-7.57559671900192 2.78580773450581 -1.20268921429852 1.5573256720812 29.2139931162715
-5.84837001093272 5.36537823679343 -1.89898296994503 1.5573256720812 29.2139931162715
-7.58421110505871 2.78897554084439 -1.13938978196702 1.66114738355328 14.6942520102908
-5.82525955305597 5.34417637242738 -2.02558183460803 1.66114738355328 14.6942520102908
-2.68504113052539 7.79229688310887 -1.97202077648138 1.45350396060912 51.2523055694549
-2.68504113052539 7.79229688310887 -1.97202077648138 1.5573256720812 272.910232844795
-2.69007485160245 7.80690531819514 -1.90628675059867 1.66114738355328 109.065345989389
-2.76769862019605 8.03217838503592 -2.2495644413195 1.45350396060912 103.8431387143
-2.7790796791119 8.06520752150173 -2.11322720245165 1.5573256720812 397.731227450046
-2.78970725351365 8.09604995960977 -1.9768899635838 1.66114738355328 150.950411975308
-3.99004047653908 7.92081745383892 -2.04749317656894 1.45350396060912 70.1379629799865
-3.68194012128772 8.16445656207837 -1.62387389865812 1.45350396060912 70.1379629799865
-3.99004047653908 7.92081745383892 -2.04749317656894 1.5573256720812 125.513074795762
-3.34369260341784 8.33507152871756 -1.48266747268785 1.5573256720812 125.513074795762
-3.02828484203621 8.13016541971642 -2.7535253064203 1.5573256720812 125.513074795762
-2.63988159639497 8.55839115534152 -1.62387389865812 1.5573256720812 125.513074795762
-2.62779621987592 8.51921084526591 -1.83568353761353 1.66114738355328 37.2695473886594
-2.31972720509859 8.76062354012893 -2.55632322877216 -3.01082963269032 5.60627749563638
-1.59591869351734 9.21505419545965 -1.09556709804521 0.726751980304561 5.64928393630701
4.36803071734774 7.96354498523826 -2.48328542223581 0.830573691776641 15.3185762525873
4.31617609669528 7.86900659231482 -2.84847445491755 0.934395403248721 13.8481747120054
5.03824402368903 7.95188870866568 -0.219113419609043 0.934395403248721 13.8481747120054
-3.86300351742195 8.37469492412351 -1.89898296994503 1.45350396060912 28.4501825317769
-2.73091199627066 8.8535080917326 -1.67986955033599 1.5573256720812 44.9183164038293
-2.72692095528487 8.8405692955684 -1.75290735687234 1.66114738355328 22.782430913021
5.43590255857368 7.91283245655242 1.58492040183874 0.830573691776641 14.5941265655363
4.74559808715064 8.47281985315253 0.603779200700473 0.934395403248721 14.8524696885227
-4.09554302358291 8.68265405586095 -1.58492040183874 1.45350396060912 11.621365567796
-2.75518348859214 9.19624478012447 -1.58492040183874 1.5573256720812 30.864959829456
-2.83323081838793 9.18522164412423 -1.50944800175118 1.66114738355328 19.6100499942368
-5.21961154702065 8.58079389801699 0.0779069936387703 0.830573691776641 17.7631688884481
3.54458943749867 9.28036822894385 -1.48023287913664 1.0382171147208 10.473684562926
5.29703805682593 8.53214790938373 -0.155813987277541 1.0382171147208 10.473684562926
-2.8233309658195 9.42370726468333 -2.02558183460803 1.5573256720812 9.35019291663548
-2.80868485387769 9.37482150769051 -2.25930281552435 1.66114738355328 6.08078357457237
-7.67930864270359 6.88351024959026 -0.964099046279786 1.5573256720812 5.74127522491865
-2.36449676791051 9.88225201796464 -2.00853967974955 1.5573256720812 5.74127522491865
-2.26594740909417 9.81530286478152 -2.41024761569947 1.66114738355328 7.57546223445885
-3.41060745916788 9.89797346917418 -2.06940451852984 1.5573256720812 7.2065897098297
-2.3300787105479 10.0930975498455 -2.56606160297701 1.66114738355328 7.8223614580865
-3.50531800654954 10.1728343250357 -2.21548013160254 1.5573256720812 6.71066972414904
-2.37554370891715 10.6767687377887 -1.02252929150886 1.5573256720812 6.71066972414904
-2.45432950593954 10.6313091531088 -1.27816161438608 1.66114738355328 10.8525497059887
4.31166903067228 10.0103075539454 2.97994250668297 0.5191085573604 7.31599224674583
6.38250257248166 9.29076137133954 -0.788808310592553 1.14203882619288 6.50052901467924
-2.52206556160839 10.9247183904932 -1.40232588549787 1.5573256720812 6.21148348994329
-2.52445320610924 10.9350608431977 -1.31468051765425 1.66114738355328 14.8859318031371
4.62744999539761 10.4980675897134 -1.80159922789657 0.62293026883248 6.10019209380338
5.58478959368721 10.1818705133611 -0.0900799613948282 0.62293026883248 6.10019209380338
5.49471234217612 10.230762348591 -0.0900799613948282 0.726751980304561 13.1250321542844
-0.690323827051088 11.1033020552357 -3.33295857160865 0.830573691776641 5.96558472823666
6.08383550437821 9.79947355915718 1.35119942092243 0.830573691776641 5.96558472823666
-8.94464927133089 10.8517220558373 -1.31468051765425 -1.97261251796952 6.20586043191727
11.7371856837404 6.44647085670443 -4.49182510198537 -1.97261251796952 6.20586043191727
4.46655082489431 15.3591913213013 -0.620821355558953 0.10382171147208 9.16218940541712
4.55413025283341 15.6603519354444 -0.632994323315011 0.10382171147208 18.458069419509
4.51399678060552 16.0027819892652 -0.516133832856856 0.10382171147208 13.5197138719241
4.60013584771607 16.3081576416475 -0.394404155296277 0.10382171147208 5.1888397003283
19.2238881268835 16.0359417016748 -1.94767484096926 1.5573256720812 15.0808315776164
5.52149206559834 24.8160846927968 0.197202077648137 0 12.0525512447433
16.1642989680506 24.9999409442449 -6.37620051062313 1.0382171147208 32.9827300961935
-0.481991514361917 62.1374406720021 -0.964099046279782 -0.20764342294416 6.50412796983419
7.17484168388595 61.247512739068 -7.71279237023829 -0.20764342294416 6.50412796983419
