VERSION .7
FIELDS x y z velocity SNR
SIZE 4 4 4 4 4
TYPE F F F F F
COUNT 1 1 1 1 1
WIDTH 264
HEIGHT 1
VIEWPOINT 0 0 0 1 0 0 0
POINTS 264
DATA ascii
1.01251387925132 8.64325088276252 -1.22703514981064 -3.403723560418 10.1920783896959
-1.72719647225584 9.11588348221062 1.60683174379964 4.79615592604354 19.2498666622052
-1.35694409599246 9.10682624987282 1.97202077648138 4.79615592604354 19.2498666622052
0.49423189646358 9.08905324175344 2.41024761569946 4.79615592604354 19.2498666622052
0.833200750185867 8.91263093502474 2.9215122614539 4.79615592604354 19.2498666622052
3.98545047547538 8.83747052245737 0.830196400963149 4.64144121875182 12.0309911359659
4.56822411590179 8.50570737364279 1.20755840140094 4.79615592604354 73.4467643223954
7.76228942271529 6.31608198023897 0.856976930026476 -3.403723560418 8.11920026913509
-1.55939265428991 9.44547636130014 3.03837275191205 4.48672651146009 6.6073297758167
4.6546807814862 8.66668351651678 2.02558183460803 4.48672651146009 6.6073297758167
4.73998648994627 8.28865289080748 3.11627974555082 4.48672651146009 6.6073297758167
5.03623564556791 8.11206318956377 3.11627974555082 4.48672651146009 6.6073297758167
4.7545438295388 8.48879163633257 2.49302379644066 4.64144121875182 22.790795086273
4.71558618415669 8.78008503085707 1.24651189822033 4.79615592604354 75.7647938481805
4.89888957581001 8.56652130346991 1.86976784733049 4.79615592604354 75.7647938481805
5.98050174178657 8.19476390912336 2.08888126693954 -3.403723560418 7.76627518603291
7.9932089694187 6.50397845103407 1.04444063346977 -3.403723560418 7.76627518603291
4.31331230200758 9.14433039466832 2.2495644413195 4.33201180416836 6.7350467511156
4.84742683887349 8.47653016864653 3.45468824916923 4.48672651146009 5.31973124416005
5.19361800949191 8.36556516423764 3.21366348759929 4.48672651146009 5.31973124416005
5.06136772679848 9.0365968993114 0.0803415871899819 4.64144121875182 18.7281172058432
4.9803210879357 8.89189573453153 1.84785650536959 4.79615592604354 30.1279103366079
5.15176605516719 9.19799462773853 1.65552361482388 4.64144121875182 6.71735083694352
4.61004234414853 9.15161239019337 2.97994250668297 4.79615592604354 23.4964226576704
5.15795555375147 9.20904539637145 1.57274743408268 4.79615592604354 23.4964226576704
-4.23437708122608 9.8308605277714 2.47111245447975 3.403723560418 8.15672477917635
5.14109948985032 9.57236044686015 1.6190047115557 4.33201180416836 6.93742766752159
5.62432792201218 9.05932659095141 2.64153400306457 4.33201180416836 6.93742766752159
5.1349302183856 9.56087370355332 1.70421548584811 4.48672651146009 5.84691947133174
5.45086403695761 9.53174023874473 -0.340843097169622 4.48672651146009 5.84691947133174
5.78805413281887 9.32304684975633 0.511264645754432 4.79615592604354 16.8673682695026
-4.12379041332556 10.0357192224063 3.15523324237021 3.24900885312627 9.08936827308568
-3.73928039481994 10.0390054920155 3.59346008158829 3.24900885312627 9.08936827308568
2.60064985903435 10.8692376603132 1.66526198902872 3.24900885312627 9.08936827308568
3.5921723643464 10.1532861934124 3.41816934590106 3.24900885312627 9.08936827308568
3.60131963941281 10.1791409944127 3.33052397805744 3.403723560418 6.59781405090391
5.48892360410597 10.2199841313148 -0.540479768368971 4.64144121875182 6.13844668492558
-7.03737977470551 9.45033804029603 -1.8502910989208 4.33201180416836 13.8081626168262
-6.92797696093732 9.49303888100989 -2.03532020881288 4.48672651146009 27.8273120773472
5.54669710280992 10.548808368617 0.4625727747302 4.64144121875182 7.26678245195783
5.78883235194016 10.3354166908685 1.3877183241906 4.64144121875182 7.26678245195783
-2.16244035640104 11.9266842699653 -1.70908467295053 4.33201180416836 62.3420255933596
-2.16244035640104 11.9266842699653 -1.70908467295053 4.48672651146009 121.304739357884
-2.16476119357764 11.9394845731808 -1.61413552445328 4.64144121875182 15.4898839323964
-2.31914074630657 12.2400764254491 -1.55813987277541 4.33201180416836 128.625294094889
-2.32133628147976 12.2516641302305 -1.46075613072695 4.48672651146009 212.671453587664
-2.32133628147976 12.2516641302305 -1.46075613072695 4.64144121875182 25.6111226420365
-3.25001156064967 12.2739120881709 -2.09618504759317 4.17729709687663 15.8993780949931
-3.25412673792774 12.2894533633928 -1.9963667119935 4.33201180416836 41.8352321888329
-2.38690399748495 12.5977206842468 -1.09800169159642 4.48672651146009 56.7740030337143
-2.38842246424917 12.6057349236901 -0.998183355996748 4.64144121875182 7.57579585581166
-1.98456083186751 12.6378051071769 -1.39745669839545 4.64144121875182 7.57579585581166
-3.33750065242742 12.6043211962971 -1.94280565386684 4.17729709687663 5.0936055169242
-3.33750065242742 12.6043211962971 -1.94280565386684 4.33201180416836 6.37720892275759
4.55861185146533 14.3633183442969 4.38226839218084 3.24900885312627 22.9125718768596
5.21860599404035 14.7504058307597 1.21729677560579 3.24900885312627 22.9125718768596
4.74517181788721 14.9511332922086 -0.486918710242317 3.403723560418 22.8950548369597
5.22665471142126 14.7731555550962 0.852107742924052 3.403723560418 22.8950548369597
4.74731460666524 14.9578848118304 0.121729677560579 3.55843826770973 10.9085721473331
5.22870436368092 14.7789489034878 0.730378065363474 3.55843826770973 10.9085721473331
5.20484951493941 15.1050694126153 0.993314168894326 3.24900885312627 70.2045289839993
5.81813886870452 14.8609500690103 1.24164271111791 3.24900885312627 70.2045289839993
5.33504681862376 15.0795261781925 0.620821355558953 3.403723560418 59.2146272687231
5.33118780564968 15.0686186661982 0.869149897782533 3.55843826770973 28.0951779112306
3.08942478931672 15.6293787374812 3.54476821056406 2.78486473125109 7.71660213201878
3.7370374685809 15.6186917090727 2.91177388724905 2.78486473125109 7.71660213201878
4.08089366545781 14.9262141441404 5.19055345118309 2.78486473125109 7.71660213201878
5.31139085129261 15.4142645730726 0.759593187978013 3.24900885312627 31.55743260741
5.81232494852245 15.2177048258175 1.01279091730402 3.24900885312627 31.55743260741
6.4329973590753 14.935349072473 1.39258751129302 3.24900885312627 31.55743260741
5.31315196163898 15.4193755170008 0.632994323315011 3.403723560418 85.4694574406129
5.81495724173007 15.2245966395759 0.886192052641014 3.403723560418 85.4694574406129
5.43572089987811 15.3640817773001 0.886192052641014 3.55843826770973 27.6566545950268
4.06893284840634 15.3666296694733 4.90327141214012 2.93957943854282 5.14878770547667
3.74151998774883 16.2069744897871 -0.258066916428427 3.09429414583454 5.41013284124514
4.57339535421345 15.2650679447567 4.77423795392591 3.09429414583454 5.41013284124514
11.2722874739488 11.5614371914064 4.00003720464063 3.09429414583454 5.41013284124514
-2.9732283060063 17.1678294681402 -2.31773306075342 2.93957943854282 6.02200343447126
5.00042942373788 16.690421228507 2.31773306075342 2.93957943854282 6.02200343447126
5.54661161824988 16.5355058456718 2.18139582188558 2.93957943854282 6.02200343447126
5.02927982309377 16.7867180216533 1.36337238867849 3.09429414583454 12.0794457087157
5.87558065859733 16.182042887268 3.54476821056406 3.09429414583454 12.0794457087157
4.87911541103035 16.7778829827819 1.90872134414988 3.24900885312627 10.3624739004644
5.90260277088675 16.2564649751228 3.13575649396051 3.24900885312627 10.3624739004644
6.60353309658167 15.694130796673 4.36279164377115 3.24900885312627 10.3624739004644
4.36307352845579 17.027913998402 3.33052397805744 2.78486473125109 7.17954856557313
4.53461573064699 17.1253159544062 2.49789298354308 2.93957943854282 12.1277121624571
5.54268499629789 16.9827464003836 0.97140282693342 2.93957943854282 12.1277121624571
4.49941957622003 16.9923950409828 -3.33052397805744 3.09429414583454 10.1126091372987
5.46945549547683 16.758371744003 3.05298031321932 3.09429414583454 10.1126091372987
5.99005847870661 16.4973283207066 3.4692958104765 3.09429414583454 10.1126091372987
4.63958230496675 17.5217300844346 1.69447711164326 2.78486473125109 7.07817568131527
4.63225540511513 17.4940594983522 1.9768899635838 2.93957943854282 10.7018700774583
5.64672760142925 17.3015321836207 0.423619277910816 2.93957943854282 10.7018700774583
-6.21972811540098 17.5800805739927 2.62936103530851 2.78486473125109 5.4624878603678
5.21806667918978 17.9434394894364 2.33720980916312 2.78486473125109 5.4624878603678
-9.80868233346371 22.7726029429519 -0.192332890545714 2.78486473125109 7.42790938257752
-9.80868233346371 22.7726029429519 -0.192332890545714 2.93957943854282 8.02363497195484
-9.93194635654862 23.0587823256083 -0.389534968193852 2.78486473125109 11.6410802849743
-9.93284286933034 23.0608637396981 -0.194767484096926 2.93957943854282 15.8770846616577
-1.01927407496756 26.2615976959121 7.41333736343926 -4.17729709687663 10.580692834469
16.0977495087956 21.1849099602808 6.14247952970681 -4.17729709687663 10.580692834469
-1.05185550254552 27.101058214358 -3.17714458433111 -4.02258238958491 19.1840749651146
16.5473696837645 21.7766176966844 -3.85639618511914 -4.17729709687663 23.8599689267253
16.7533692372531 22.0477165847699 -3.68354004298312 -4.17729709687663 8.64557950186095
16.7354079756254 22.0240792614194 -3.90021886904095 -4.02258238958491 15.7378195466728
-3.38433527285776 33.3916455781432 6.63426742705156 4.17729709687663 5.79908512851954
0 32.3457185641425 -11.1455692774466 4.17729709687663 5.79908512851954
3.6265094065364 33.1979986397891 7.43037951829774 4.17729709687663 5.79908512851954
16.7430098014522 28.6786624955847 -8.22649160954393 4.17729709687663 5.79908512851954
-7.0500649166882 32.9167552864104 6.10352603288743 4.33201180416836 11.2859143866952
0 33.9133805387151 4.51130185039506 4.33201180416836 11.2859143866952
1.03234385618084 33.2569397859882 -7.96112091246187 4.33201180416836 11.2859143866952
3.9050022379128 33.3347667935046 6.63426742705156 4.33201180416836 11.2859143866952
16.8373651017761 28.8402812155608 -7.43037951829774 4.33201180416836 11.2859143866952
-5.76106089877502 33.2651585705475 7.23074284709839 4.17729709687663 23.6409095183197
-4.35043134735269 32.7040483397063 10.1766010440644 4.17729709687663 23.6409095183197
14.3496833677719 31.109011400295 -4.28488465013238 4.17729709687663 23.6409095183197
-7.13417171849927 33.3094499701975 5.62391110329875 4.33201180416836 49.174697809558
-5.78872694016612 33.4249061014389 6.42732697519857 4.33201180416836 49.174697809558
-4.40101736374712 33.0843250050268 8.83757459089803 4.33201180416836 49.174697809558
14.286410068951 30.971839748217 5.35610581266548 4.33201180416836 49.174697809558
-7.18798252517864 33.560692643302 3.74927406886584 4.48672651146009 7.09271287885015
-5.84616729798114 33.75657463344 4.28488465013238 4.48672651146009 7.09271287885015
14.3759650503573 31.1659880695505 3.74927406886584 4.48672651146009 7.09271287885015
14.5578002925068 30.862902190579 7.02623698879662 4.17729709687663 47.8012398163301
16.372674960312 30.4847526309884 4.05359826276728 4.17729709687663 47.8012398163301
14.5771413748388 31.6021228894881 -1.62143930510691 4.33201180416836 104.999609186156
15.9542753466338 30.3421279677472 -6.21551733624316 4.33201180416836 104.999609186156
14.5397383749236 31.5210360584448 2.97263872602934 4.48672651146009 14.7365479423908
16.2065868241686 30.8219784763261 1.08095953673794 4.48672651146009 14.7365479423908
15.0658333395378 31.2412720331537 5.72616403244964 4.17729709687663 16.1677097833098
16.1624033103284 30.7379494745773 -5.45348955471394 4.17729709687663 16.1677097833098
15.1030332554291 31.3184116553556 5.18081507697824 4.33201180416836 36.6207080961031
16.2002220680211 30.8098738685446 -4.90814059924254 4.33201180416836 36.6207080961031
15.2237659509866 31.5687690634193 2.72674477735697 4.48672651146009 6.25148329799635
16.3205545232408 31.038724297387 2.45407029962127 4.48672651146009 6.25148329799635
-9.79452131640821 34.7230175238774 1.11991303355733 4.02258238958491 10.0528086008109
-2.51859119564783 35.9899609915081 -1.11991303355733 4.02258238958491 10.0528086008109
-0.83902465370694 36.0464821433122 1.67986955033599 4.02258238958491 10.0528086008109
-9.77533213631609 34.6549890603024 2.51980432550399 4.17729709687663 6.86603770545807
-0.839302851083083 36.058434160106 1.39989129194666 4.17729709687663 6.86603770545807
14.6571672614914 33.2519925094621 2.25930281552435 4.02258238958491 54.4088700179685
14.6571672614914 33.2519925094621 2.25930281552435 4.17729709687663 35.4879071001329
-10.6038133159622 36.4634824141018 0.5891716393932 3.86786768229318 17.5116417052115
-7.95285998697165 37.1319057500543 0.5891716393932 3.86786768229318 17.5116417052115
-2.94585819696601 37.8641710500484 -0 3.86786768229318 17.5116417052115
14.4307965296871 35.1190064508698 0.883757459089806 3.86786768229318 17.5116417052115
-7.95285998697165 37.1319057500543 0.5891716393932 4.02258238958491 5.56511983665143
-2.94550369887839 37.8596145590943 -0.5891716393932 4.02258238958491 5.56511983665143
14.4134119925659 35.0766991762818 2.06210073787621 4.02258238958491 5.56511983665143
14.5535624198178 35.4177713928173 -0.297020413247812 3.71315297500145 14.3851570053049
16.6086069713628 34.4404452638127 -2.07914289273469 3.71315297500145 14.3851570053049
14.5535624198178 35.4177713928173 0.297020413247812 3.86786768229318 70.316939093796
16.6206292133322 34.4653751912419 -1.48510206623906 3.86786768229318 70.316939093796
14.5522488528058 35.4145746761098 0.594040826495624 4.02258238958491 20.9735461041503
16.6251353127207 34.4747192662513 -1.18808165299125 4.02258238958491 20.9735461041503
16.7447430940789 34.7227439954833 -2.09618504759317 3.71315297500145 9.07858112963808
16.4457298245418 34.8653602075291 -2.09618504759317 3.86786768229318 44.3670856919672
16.45763416689 34.890597712245 -1.49727503399512 4.02258238958491 13.8817645025215
0.612612552222396 39.4848656351804 -2.14731151216861 3.71315297500145 6.25168992557087
2.14627771455206 39.470605921506 1.22703514981064 3.71315297500145 6.25168992557087
-8.9209056467785 38.6422872833901 4.01951395305032 3.55843826770973 14.3992565826095
14.525092605625 37.1006400553664 -1.23677352401548 3.55843826770973 14.3992565826095
14.5316517370178 37.1173936816247 -0.30919338100387 3.71315297500145 34.7466432145713
14.5320889071819 37.1185103211767 -0 3.86786768229318 6.13536062463536
14.3310052229377 37.5211312635496 0.934883923665249 3.55843826770973 33.5687121530244
15.8925485909285 36.897381983517 0.311627974555081 3.71315297500145 83.4815329801055
15.8911141704778 36.8940517209733 0.623255949110162 3.86786768229318 13.3290383547325
16.0152634999347 37.1822865000434 0.628125136212586 3.71315297500145 27.4402016593637
18.6156252413604 35.4035310912543 6.28125136212588 3.71315297500145 27.4402016593637
-13.5849035234984 39.424945927282 1.94280565386684 3.403723560418 7.40912375657193
14.24552698003 39.2338633297925 0.647601884622278 3.403723560418 7.40912375657193
14.2403822965518 39.2196942640398 1.29520376924456 3.55843826770973 17.8778467580965
15.5349625053292 38.7251577927672 1.29520376924456 3.55843826770973 17.8778467580965
14.3526362054438 39.5288547833999 0.652471071724701 3.403723560418 11.5953428261451
15.6517667346926 39.0163243927128 1.30494214344941 3.403723560418 11.5953428261451
14.3504766974254 39.5229072433353 0.978706607587058 3.55843826770973 31.7341124421993
15.6517667346926 39.0163243927128 1.30494214344941 3.55843826770973 31.7341124421993
14.4545233837179 39.8094641025968 1.31468051765425 3.55843826770973 7.69964831075127
15.4358741742671 39.4269990029277 1.64335064706782 3.55843826770973 7.69964831075127
16.7440137413689 38.8742099744273 1.97202077648138 3.55843826770973 7.69964831075127
-14.2984356666522 42.6263605282842 7.06032129851359 2.16600590208418 5.39630212943679
3.17628427580395 45.3882104335401 -1.05904819477704 2.16600590208418 5.39630212943679
4.57801268992691 45.1690996516426 3.17714458433111 2.16600590208418 5.39630212943679
5.99242040169925 45.0475805366449 2.47111245447975 2.16600590208418 5.39630212943679
14.1100189457446 43.2329951314645 -1.7650803246284 3.24900885312627 10.2638728115745
4.58947527317561 45.2821955734091 5.33175987715336 2.01129119479245 15.1724153298756
4.58947527317561 45.2821955734091 5.33175987715336 2.16600590208418 25.2093603531036
14.1970527975349 43.4996662185265 -2.48815460933823 3.24900885312627 8.68433774596943
16.7041705633913 42.6665382674276 -0.710901316953779 3.24900885312627 8.68433774596943
4.60170544501356 45.4028649310368 6.79981978853395 2.01129119479245 15.5141592196352
4.60693815059351 45.4544935777438 6.44193453650584 2.16600590208418 24.8606186012317
-17.4762619335305 43.5643794294022 3.65189032681737 3.24900885312627 5.39515267091545
-13.7698981811952 44.6414623158965 5.84302452290779 3.24900885312627 5.39515267091545
-6.18557438372624 46.4996014193699 4.01707935949911 3.24900885312627 5.39515267091545
12.7781551325446 45.3004378934652 -1.09556709804521 3.24900885312627 5.39515267091545
13.8705022369011 44.9676166637733 1.46075613072695 3.24900885312627 5.39515267091545
13.9629722518137 45.2674007748651 1.4704945049318 3.09429414583454 14.5956165560564
16.5251377447497 44.3657418164391 2.20574175739769 3.09429414583454 14.5956165560564
13.9659150762935 45.2769412948013 1.10287087869885 3.24900885312627 17.6246711247899
14.041468657288 45.5218829998461 2.59040753848912 3.09429414583454 8.71986054696133
16.6345757430593 44.6595546761506 2.22034931870496 3.09429414583454 8.71986054696133
14.0617893169735 45.587761770455 0.370058219784159 3.24900885312627 11.2066152718576
16.6205278628317 44.6218397332031 2.96046575827328 3.24900885312627 11.2066152718576
13.7586668645129 47.312121810033 -0.764462375080434 3.09429414583454 5.06933360470971
16.42802817567 46.4338719702191 1.52892475016087 3.09429414583454 5.06933360470971
17.5296616227718 45.8957850145004 3.82231187540218 3.09429414583454 5.06933360470971
13.974016406377 51.1111483008748 2.46867786092854 2.78486473125109 5.15297100185171
14.0567028939887 51.4135811310574 2.48328542223581 2.78486473125109 6.80927167297737
16.550753314534 50.7113874347503 -1.24164271111791 2.78486473125109 6.80927167297737
14.0511926660534 51.393427005788 2.89716632594178 2.93957943854282 10.213491326873
16.5472658264785 50.7007017967858 -1.65552361482388 2.93957943854282 10.213491326873
13.4686694252737 52.5646297617264 8.52107742924053 2.93957943854282 6.64928434195296
16.5980964102894 52.2974428221358 2.55632322877216 2.93957943854282 6.64928434195296
16.2703115015758 52.7477028666341 2.14244232506619 2.78486473125109 8.94463450057258
13.545633250561 52.8649990746505 8.56976930026477 2.93957943854282 12.7598421001201
16.2649185043246 52.7302189840092 2.57093079007943 2.93957943854282 12.7598421001201
-14.3476120116485 54.1848314136327 -9.25389008815522 2.78486473125109 8.1903462034302
-10.5133320166249 55.487786834219 6.16926005877015 2.78486473125109 8.1903462034302
13.4780597685183 54.4076449649941 9.25389008815522 2.78486473125109 8.1903462034302
16.2966234176362 54.3948302022786 1.76264573107719 2.78486473125109 8.1903462034302
13.5859875043258 54.8433229507382 8.41882450008965 2.78486473125109 12.5582581057079
16.3822185483869 54.6805294225407 2.21548013160254 2.78486473125109 12.5582581057079
13.5859875043258 54.8433229507382 8.41882450008965 2.93957943854282 6.1782122231062
16.3767884581522 54.6624048804974 2.65857615792304 2.93957943854282 6.1782122231062
13.4853328721533 60.6091901772297 6.78277763367547 2.63015002395936 8.40839664304734
15.9802786297771 60.3507191854889 1.93793646676442 2.63015002395936 8.40839664304734
13.5530983639732 60.9137589720901 6.81686194339243 2.63015002395936 18.3621475208545
16.0562284555024 60.6375493910647 2.43459355121158 2.63015002395936 18.3621475208545
13.5283210201216 60.8023983731474 7.79069936387706 2.78486473125109 5.14922250349515
16.037351446592 60.5662589530063 3.89534968193853 2.78486473125109 5.14922250349515
4.62708925528833 6.87272872820308 2.93125063565874 0.62293026883248 13.2895749705845
-0.614931973042362 9.89068488230826 -1.63604686641418 0.62293026883248 13.6889141825687
5.90181092939464 8.25161707566831 -2.08888126693954 0.62293026883248 20.5252860029801
5.89199410101991 8.2378916768687 -2.16922285412952 0.726751980304561 19.6493638635452
5.59055154456376 9.00492164895525 1.24164271111791 0.31146513441624 12.0946408977493
6.12529895022664 8.56408685671801 -1.73829979556507 0.62293026883248 8.84906879415737
4.80291658030509 10.182303759433 0.964099046279786 0.31146513441624 6.67100611206897
-9.83184212588566 7.20274862300171 -1.13938978196702 1.86879080649744 5.29972988789865
-2.30891475861835 12.1861051988089 -1.94767484096926 1.76496909502536 49.0684795637196
-2.30891475861835 12.1861051988089 -1.94767484096926 1.86879080649744 44.273386977734
-2.30599489890885 12.1706946179493 -2.04505858301773 1.97261251796952 9.39725028420506
-2.78472133039911 12.5157981864334 -1.09800169159642 1.76496909502536 131.030608402244
-2.79281064650254 12.5521552346995 -0.499091677998374 1.86879080649744 82.0898337488929
-2.47101601483954 12.5008530053422 -1.79673004079415 1.86879080649744 82.0898337488929
-2.46212997018914 12.4558985666391 -2.09618504759317 1.97261251796952 14.749417088597
-2.07788114567486 12.5860393077203 -1.69691170519447 1.97261251796952 14.749417088597
-3.16373205810043 12.7712158528602 -0.818023433207092 1.76496909502536 125.137777674388
-3.26016155754042 12.7235423058164 -1.12478222065975 1.86879080649744 81.5406083847149
-1.9192853931015 12.8808538616401 -2.04505858301773 1.97261251796952 10.3058857833393
-3.10113635616103 12.5185322481022 -3.97812586267972 1.76496909502536 35.6159659895479
-3.05947915540642 12.3503722734605 -4.50156347619021 1.86879080649744 23.4666530233604
-3.26273700263909 13.1708747032253 -2.57093079007943 1.76496909502536 14.2755404882872
-3.26751224816945 13.1901512065128 -2.46380867382612 1.86879080649744 17.5613912283816
-2.23217296832007 13.5206081345825 -1.71395386005295 1.86879080649744 17.5613912283816
-1.80119082829416 13.5403198474591 -2.03532020881288 1.86879080649744 17.5613912283816
-1.61624033103285 14.7954791498656 -2.33720980916312 1.86879080649744 5.89255286232808
-1.77884416027148 15.1849734345687 -1.67013117613114 1.86879080649744 7.27351086690642
4.43793538010182 14.8129299710073 -2.67805290633274 -0.20764342294416 7.17072627810814
5.96313906185416 14.511986136723 -0.365189032681738 -0.10382171147208 5.28743960822439
7.87807862651094 13.4941543200787 -1.46075613072695 -0.10382171147208 5.28743960822439
16.5084865250479 24.5204584005329 -5.84302452290779 0.62293026883248 5.51753339792024
16.7070766064476 33.1660053989624 -7.95381713180823 0 20.8723097177515
