VERSION .7
FIELDS x y z velocity SNR
SIZE 4 4 4 4 4
TYPE F F F F F
COUNT 1 1 1 1 1
WIDTH 157
HEIGHT 1
VIEWPOINT 0 0 0 1 0 0 0
POINTS 157
DATA ascii
0.477676114729395 3.04187079849945 -0.608648387802895 0 5.2576385588345
6.48750157255758 7.24535111690284 -0.301889600350236 4.79615592604354 8.89134393699307
6.77205149924306 6.94576395841697 -0.75472400087559 4.79615592604354 8.89134393699307
7.01365252078992 6.73351342392549 -0.377362000437795 4.79615592604354 8.89134393699307
7.23989937629927 6.9507235343747 -0.389534968193853 4.79615592604354 5.18039459007006
6.27014664137295 8.08624352836044 1.60683174379964 3.403723560418 7.78583980977798
6.20623378640764 8.00381883570139 2.16922285412952 3.55843826770973 10.067439034754
6.55940946564265 7.95792950761401 0.964099046279786 3.71315297500145 5.4081563842982
6.46791251978358 8.34129068210265 1.57274743408268 3.403723560418 11.3923824400681
6.39430147690484 8.24635880041961 2.23495688001223 3.55843826770973 16.5564550117249
6.27930253805408 8.26366808660767 2.48328542223581 3.71315297500145 7.81417002741002
6.77496864048449 8.05244219759746 3.152798648819 3.24900885312627 5.50419444515302
6.52027896605624 8.58079713169478 -2.13026935731013 3.403723560418 6.83478867948943
6.82234286251835 7.9431738071758 3.32322019740381 3.403723560418 6.83478867948943
6.55913312582079 8.4589325934344 2.47111245447975 3.55843826770973 7.06809908802016
6.95138442026194 8.26212255846485 3.33052397805744 3.24900885312627 6.48975233064988
6.73568760756865 9.04520245648109 -0.701162942748936 3.403723560418 5.30608475463921
7.43886670555769 8.48313991514919 -0.613517574905318 3.403723560418 5.30608475463921
-2.66503462085666 11.1383293550364 3.33052397805744 1.23771765833382 6.46913651140445
4.83719324413462 10.2549711474954 3.7005821978416 1.23771765833382 6.46913651140445
4.83365573989942 10.4789943905905 4.08281338538182 1.23771765833382 7.51965998469868
-8.18288715345049 9.92754598977293 -0.299455006799025 1.08300295104209 6.36299444843095
-7.66726051039749 10.2961906257647 -0.898365020397074 1.08300295104209 6.36299444843095
-8.07652427524852 10.0008273294359 -0.598910013598049 1.23771765833382 7.2314352814875
6.38145127920871 11.1590264455711 0.598910013598049 1.23771765833382 7.2314352814875
-8.1792499406871 10.3363613034165 0.204505858301772 0.773573536458636 8.96941734364802
-7.66319994467161 10.7143031646049 -0.511264645754432 0.773573536458636 8.96941734364802
-8.1792499406871 10.3363613034165 -0.204505858301772 0.928288243750363 8.70437182644608
-7.75624633598814 10.6279724158124 -0.818023433207092 0.928288243750363 8.70437182644608
6.4401901868025 11.4983549535231 0.30675878745266 1.08300295104209 6.48784387884905
6.43708795352415 11.4928162072519 0.511264645754432 1.23771765833382 10.8894526234841
-8.37399398689394 10.582465143974 -0.209375045404195 0.773573536458636 10.1115905953982
-7.82790899106053 10.9445911212947 -1.04687522702098 0.773573536458636 10.1115905953982
-8.17509328865348 10.3311084186723 2.93125063565874 0.928288243750363 8.10177116457983
-7.72560630523936 10.8015566189517 -2.40781302214825 0.928288243750363 8.10177116457983
6.59352804839303 11.7721253095594 0.314062568106295 1.08300295104209 6.87046795528043
6.59035195241758 11.7664546883769 0.52343761351049 1.23771765833382 6.88879343567557
-8.83855629021967 10.5051355089543 1.49970962754633 0.928288243750363 8.57592720850681
-8.85253635200553 10.5217516212086 1.28546539503971 1.08300295104209 7.42033508863839
-8.5439502786149 10.7972439622955 1.0712211625331 1.08300295104209 7.42033508863839
-7.99927983614957 11.1841932719779 1.28546539503971 1.08300295104209 7.42033508863839
6.74849030239797 12.0487958657485 0.107122116253309 1.08300295104209 7.42033508863839
9.40374808243872 10.0681236263179 -0.964099046279786 1.08300295104209 7.42033508863839
-8.86100298750254 10.9722150053095 0.766896968631647 0.773573536458636 5.12476795813284
-8.42951993913877 11.3198115623383 -0.547783549022606 0.773573536458636 5.12476795813284
-9.05373036000566 10.7608823398724 1.31468051765425 0.928288243750363 8.16807813182652
-8.74764624359566 11.054660608731 0.87645367843617 0.928288243750363 8.16807813182652
-8.86100298750254 10.9722150053095 0.766896968631647 1.08300295104209 8.09231568024965
-8.42951993913877 11.3198115623383 0.547783549022606 1.08300295104209 8.09231568024965
-9.29493398976207 12.2322899578151 0.715770504056204 0.154714707291727 5.01915660401082
-8.08248386140229 13.0187752175626 1.31224592410304 0.154714707291727 5.01915660401082
13.8096164768268 6.07757867045153 2.98237710023419 0.154714707291727 5.01915660401082
-9.49377225258325 12.4939644665546 0.243459355121157 0.618858829166909 7.24610401656003
-8.32491117798928 16.1742194342858 0.706032129851358 -1.23771765833382 6.28241268824229
-8.32491117798928 16.1742194342858 0.706032129851358 -1.08300295104209 14.8915525819168
-8.32892321210814 16.1820142946548 0.423619277910816 -0.928288243750363 8.27626563385273
-8.61197708067857 16.378412993379 0.718205097607416 -1.23771765833382 5.78893525773055
-8.18532108776145 16.6056979374519 -0.430923058564451 -1.23771765833382 5.78893525773055
-8.61431191554908 16.3828534243535 0.574564078085934 -1.08300295104209 12.0564334658963
-8.04389709320306 16.6802307998423 -0 -1.08300295104209 12.0564334658963
-8.04171896341476 16.675714120034 0.430923058564451 -0.928288243750363 8.34362655009794
-13.2924808986627 13.339655308348 -0.146075613072694 -0.618858829166909 5.11407728472969
14.1209113275309 11.4900165045858 -4.82049523139893 -0.618858829166909 5.11407728472969
6.67974186671814 17.933387765765 0.594040826495626 -0.618858829166909 6.42764856259592
14.8062774714633 12.0476907313274 1.48510206623906 -0.618858829166909 6.42764856259592
-12.7333986254585 14.2208742334938 -1.48510206623906 1.54714707291727 30.7267510957984
-8.1197580377018 17.2140909404938 -2.07914289273469 1.54714707291727 30.7267510957984
-12.7407186054942 14.2290493105916 -1.33659185961516 1.701861780209 80.7759560451177
-8.11258669204646 17.1988875076201 -2.2276530993586 1.701861780209 80.7759560451177
-12.7530374958679 14.242807255022 -1.03957144636734 1.85657648750073 19.9890283682758
-8.11258669204646 17.1988875076201 -2.2276530993586 1.85657648750073 19.9890283682758
6.48886887302171 18.3408077499929 0.452834400525355 -0.928288243750363 11.1180173964839
6.48359341096434 18.3258966403249 0.905668801050707 -0.773573536458636 5.38637294584
7.09355188308399 18.118666935483 0.301889600350235 -0.773573536458636 5.38637294584
-0.300104320916548 19.3426966929421 -2.11322720245165 1.54714707291727 168.6456442088
-0.300350882487247 19.3585883857494 -1.96228240227653 1.701861780209 409.058289683369
-0.300350882487247 19.3585883857494 -1.96228240227653 1.85657648750073 115.933698651899
6.59511552279801 18.6411142311008 0.153379393726329 -0.928288243750363 5.03370427235191
-0.305195251559622 19.6708236822938 -1.99393211844228 1.54714707291727 307.104103799497
-0.305195251559622 19.6708236822938 -1.99393211844228 1.701861780209 716.393954911984
-0.305195251559622 19.6708236822938 -1.99393211844228 1.85657648750073 215.460349359
-0.155019810315998 19.9848627610123 -2.02558183460803 1.54714707291727 94.0030807356174
-0.154892552731122 19.9684569522071 -2.18139582188558 1.701861780209 219.208569875341
-0.155019810315998 19.9848627610123 -2.02558183460803 1.85657648750073 64.0143718245877
-1.25620123758273 20.2049838589877 -2.53197729326004 1.54714707291727 9.39714505181307
-1.2549340252624 20.1846017707426 -2.6902258740888 1.701861780209 18.8001592025988
-0.157561572530218 20.3125419712936 -1.89898296994503 1.701861780209 18.8001592025988
-0.157671503898904 20.3267141168525 -1.74073438911628 1.85657648750073 5.27670861131087
0.313041186735615 20.1765196480107 -3.0067230357463 1.85657648750073 5.27670861131087
8.47902881688223 22.1996118399601 5.8868472068296 -1.08300295104209 5.53972789047274
6.97009832186688 23.264777309687 -5.00065515418859 -0.928288243750363 7.41409866565818
15.5599450305142 20.4771501928423 -0.998183355996748 3.09429414583454 7.31014592541867
15.5599450305142 20.4771501928423 -0.998183355996748 3.24900885312627 17.9075546102063
15.56416356267 20.482701852336 -0.798546684797399 3.403723560418 5.17575138172905
15.7610844941286 20.7418531206524 -0.202071264750561 3.09429414583454 8.33456637354639
15.7572907291608 20.736860461945 -0.606213794251685 3.24900885312627 19.9685474226454
15.7572907291608 20.736860461945 -0.606213794251685 3.403723560418 5.13685550639506
15.8362266780825 20.0127104336553 8.79375190697623 2.47543531666763 5.13669666759844
16.9366132576897 21.4033016666817 -0.847238555821631 2.47543531666763 9.14561479447436
16.0931736640734 22.0516211548174 -0.635428916866224 2.63015002395936 7.46496817314737
16.9264104052182 21.3904080187023 -1.27085783373244 2.63015002395936 7.46496817314737
5.96576328932434 31.4864023297256 4.26297330817148 -2.16600590208418 6.52559442807259
5.9827248492396 31.5759228946108 3.5106839008471 -2.01129119479245 5.97709963215257
15.2947105289694 28.4776597696117 -0.501526271549584 0.928288243750363 5.01991196395584
5.96747622209805 30.1894211196227 10.8875023610182 -2.01129119479245 5.35066014078337
-15.8829417719743 29.5729043754132 1.04200603991856 -2.16600590208418 6.99284631237725
-7.48054896980202 32.4031588018134 4.6890271796335 -2.16600590208418 6.99284631237725
9.04605071141047 31.1067821739238 8.85705133930773 -2.16600590208418 6.99284631237725
17.7345420194209 27.9905268134139 5.47053170957242 -2.16600590208418 6.99284631237725
-17.9740634569279 28.3685648372651 0.260501509979638 -2.01129119479245 8.75604572397064
-15.7518353517071 29.3287935749566 -4.42852566965386 -2.01129119479245 8.75604572397064
-7.44373701862483 32.2437021222817 5.73103321955206 -2.01129119479245 8.75604572397064
-5.39746931025854 32.6932851970533 5.47053170957242 -2.01129119479245 8.75604572397064
17.4811804820714 27.5906448826088 7.81504529938918 -2.01129119479245 8.75604572397064
6.52875829166183 33.0289432449403 3.94404155296276 -2.16600590208418 42.7194583244735
6.52258334898722 32.9977042524659 4.20697765649361 -2.01129119479245 58.9390575418136
-13.098863400832 31.1311039853541 2.89229713883936 -1.85657648750073 6.23038080809484
6.58297763925562 33.3032385510998 4.245931153313 -2.16600590208418 64.6482974783595
6.58297763925562 33.3032385510998 4.245931153313 -2.01129119479245 87.7113508353018
-12.2311062599316 30.4893893199594 -9.55334509495424 -1.85657648750073 7.60177092336863
8.21063796030825 33.1443459038514 2.1229655766565 -1.85657648750073 7.60177092336863
6.64337192952402 33.6087728497338 4.28488465013238 -2.16600590208418 11.0165999271726
6.63667032590693 33.5748694831776 4.55268994076565 -2.01129119479245 15.5488779871376
14.8841899680566 33.7670277276257 3.16010242947263 0 7.66487894200577
-22.2937864710696 29.3389991442768 3.73466650755856 0.154714707291727 5.20507031025652
16.5133512702617 33.5009122047767 0.289716632594177 -0.154714707291727 6.53473225855895
14.2671499324475 42.5330917947884 1.39258751129303 -1.08300295104209 12.7605965884098
14.258555201982 42.507469266002 2.08888126693954 -0.928288243750363 13.6934021123328
14.3582653782196 42.8047242958342 2.1034888282468 -1.08300295104209 13.0305006071622
14.6960456892407 42.6496077532668 2.80465177099574 -0.928288243750363 22.4125894439122
14.7905025366869 42.9237323428591 3.17714458433111 -0.928288243750363 6.95982041303203
-34.2078294084069 30.6629092936293 4.29462302433723 2.78486473125109 5.62971852261866
-34.506315277709 30.9304633972987 3.24287861021383 2.78486473125109 15.6956829333297
-34.4864902155002 30.9126927847002 3.60319845579314 2.93957943854282 5.9880423168176
-34.7573144078867 31.1554517609137 2.90203551304421 2.78486473125109 7.52469183370202
0.0905004665436105 11.6671501532277 -3.70301679139281 -0.62293026883248 6.04010647673318
7.05225604526626 9.47031504737519 3.22827104890655 -0.62293026883248 6.04010647673318
6.91256697087643 9.47192339006226 3.51311849439831 -0.5191085573604 11.0873144587006
8.74356399169607 8.77459450232826 -2.04505858301773 -0.726751980304561 6.24223361015901
-8.4725912487886 11.3776510493434 -2.68779128053758 -1.24586053766496 6.07370192996694
-12.7530374958679 14.242807255022 -1.03957144636734 0.62293026883248 25.3707651657498
-8.09673779760645 17.1652874534153 -2.52467351260641 0.62293026883248 25.3707651657498
-8.10491375401931 17.1826206863224 -2.3761633059825 0.726751980304561 26.939934461416
-0.299839269691135 19.3256132819282 -2.26417200262677 0.5191085573604 8.79719348802579
-0.300104320916548 19.3426966929421 -2.11322720245165 0.62293026883248 168.309946920978
-0.300104320916548 19.3426966929421 -2.11322720245165 0.726751980304561 181.676352252485
-0.300350882487247 19.3585883857494 -1.96228240227653 0.830573691776641 11.2486514330747
-0.304944713189396 19.6546756718605 -2.14731151216861 0.5191085573604 20.1271465548758
-0.304944713189396 19.6546756718605 -2.14731151216861 0.62293026883248 445.203604448626
-0.305195251559622 19.6708236822938 -1.99393211844228 0.726751980304561 508.433840493133
-0.305195251559622 19.6708236822938 -1.99393211844228 0.830573691776641 25.9718948972702
-0.310275096674892 19.9982361734292 -1.86976784733049 0.5191085573604 8.29640164271425
-0.310275096674892 19.9982361734292 -1.86976784733049 0.62293026883248 201.826697970576
-0.310275096674892 19.9982361734292 -1.86976784733049 0.726751980304561 220.346706916502
-0.465737365362918 20.0091779780903 -1.71395386005295 0.830573691776641 9.73948917757703
-1.0849624685025 19.9527422493059 5.46322792891879 0.62293026883248 7.79364708489985
5.19344499280548 21.7056470352861 7.48637516997561 -2.38789936385784 7.30179875527335
