VERSION .7
FIELDS x y z velocity intensity
SIZE 4 4 4 4 4
TYPE F F F F F
COUNT 1 1 1 1 1
WIDTH 823
HEIGHT 1
VIEWPOINT 0 0 0 1 0 0 0
POINTS 823
DATA ascii
-7.490020 1.647350 9.866020 -11.188800 3.220000
-6.439780 1.723940 10.569300 -11.988000 5.100000
-6.902240 0.521583 10.403800 -11.632800 5.050000
-6.661840 1.783380 10.933700 -11.988000 4.250000
-5.970800 1.361220 12.833400 -12.698400 2.880000
-6.443270 1.196970 12.619500 -12.520800 7.510000
-6.151730 1.402470 13.222300 -12.698400 7.830000
-6.838150 1.233240 12.898000 -12.432000 7.260000
-6.439270 1.397280 13.566000 -12.698400 9.810000
-7.141390 1.269520 13.222700 -12.432000 5.830000
-6.626930 1.341640 13.961300 -12.698400 8.740000
8.796710 0.997839 13.259400 -12.165600 4.900000
8.298870 0.531636 14.105300 -12.520800 7.520000
9.034450 1.024810 13.617700 -12.165600 6.990000
-5.661760 1.414600 15.759300 -13.142400 3.030000
8.628580 0.545626 14.410500 -12.520800 7.460000
8.955160 0.753364 14.200300 -12.343200 6.750000
8.849830 0.559617 14.780000 -12.520800 3.510000
9.184780 0.772681 14.564400 -12.343200 5.400000
-5.958250 1.788170 16.995100 -13.320000 4.050000
-6.103740 1.716660 17.410100 -13.320000 5.230000
-6.639860 1.069550 17.726700 -13.231200 8.590000
-0.111797 1.393090 19.340100 0.976800 12.550000
-6.794760 0.869266 18.140200 -13.231200 8.000000
-0.228609 1.362900 19.773200 0.976800 16.870000
-0.389364 1.330030 20.204800 0.976800 17.220000
-6.030990 0.594945 19.324300 -13.497600 5.670000
8.261320 -1.813970 18.401500 -13.142400 6.830000
-0.395902 2.361630 20.544100 0.976800 13.220000
7.743580 -1.852570 19.089300 -13.231200 10.020000
0.242500 2.410830 20.974600 0.976800 5.500000
8.054860 -1.891160 19.425400 -13.231200 10.850000
0.247620 2.327590 21.417500 0.976800 7.710000
8.395910 -1.032410 19.814900 -13.231200 9.920000
0.252572 2.374150 21.845800 0.976800 7.740000
0.258121 1.886140 22.325800 0.976800 4.940000
8.787130 -2.885160 20.409000 -13.320000 5.180000
-6.191290 1.922410 21.898200 -13.675200 4.520000
-6.308110 1.958680 22.311400 -13.675200 6.000000
-1.364060 2.049720 23.571300 0.976800 4.560000
-5.681440 1.775760 22.939800 -13.764000 6.440000
9.073740 0.696212 21.882600 -13.408800 7.550000
9.238720 0.708870 22.280500 -13.408800 8.270000
9.708710 0.721529 22.549400 -13.320000 7.600000
-9.391090 1.461390 22.647900 -13.142400 6.240000
-5.474990 2.007480 24.302400 -13.852800 9.840000
-9.555850 1.487030 23.045300 -13.142400 9.220000
-5.569390 2.042090 24.721400 -13.852800 11.350000
8.896550 1.748060 23.751400 -13.497600 6.160000
-9.718760 1.591150 23.438200 -13.142400 6.900000
-5.677190 1.079140 25.199900 -13.852800 8.940000
9.047340 1.777690 24.154000 -13.497600 6.090000
-5.969100 1.097120 25.574600 -13.764000 8.620000
-6.217110 1.115110 25.958400 -13.764000 5.440000
-8.952050 1.896200 26.015200 -13.408800 6.020000
-5.614740 1.925830 27.372300 -13.941600 6.260000
10.123900 -0.691915 27.028200 -13.586400 8.950000
8.923600 -2.014720 27.836500 -13.675200 9.550000
9.054830 -2.044340 28.245900 -13.764000 10.460000
10.629500 1.516570 27.725600 -13.408800 7.150000
8.974510 -1.538550 28.755800 -13.764000 11.030000
10.327500 1.725870 28.746300 -13.586400 15.740000
-5.399330 2.133230 30.476800 -14.030400 7.670000
10.487400 0.647623 29.191300 -13.586400 16.780000
-5.295610 2.162860 30.931200 -14.030400 12.180000
10.633100 0.656618 29.596700 -13.586400 13.490000
-5.448120 1.448780 31.822000 -14.030400 9.310000
-4.211800 1.468090 32.443200 -14.030400 5.540000
19.878400 -3.638610 25.769500 -0.621600 5.270000
-15.878300 -3.631050 29.399700 -0.621600 6.460000
-15.867200 -3.363450 29.928500 -0.621600 6.400000
-20.179600 0.620651 28.471200 -11.455200 10.090000
10.525600 0.519050 33.725700 -13.764000 8.130000
-17.681900 -5.711900 30.053300 -0.355200 9.010000
-20.649100 0.737571 28.662700 -11.455200 16.490000
-20.381900 -5.711900 28.291900 -0.355200 8.450000
10.653900 0.525380 34.137000 -13.764000 5.480000
-18.603700 -0.857148 30.533300 -11.988000 8.440000
-20.676700 0.746565 29.172500 -11.455200 17.730000
-18.827800 -0.867475 30.901200 -11.988000 4.540000
-20.925800 0.755560 29.523900 -11.455200 8.330000
-19.520300 -1.528780 30.953600 -11.899200 14.650000
11.027500 1.775750 35.334000 -13.764000 7.420000
-19.254200 -1.976060 31.601000 -11.988000 6.800000
11.155700 1.796400 35.744900 -13.764000 11.000000
-9.317830 1.817040 36.711600 -13.764000 7.430000
19.016200 2.136900 35.209700 -12.787200 6.250000
19.223000 2.066050 35.592600 -12.787200 8.930000
19.427500 2.088030 35.971200 -12.787200 7.600000
-18.010100 -1.726620 37.199900 -12.698400 12.270000
-17.616100 -1.744600 37.863500 -12.787200 11.470000
-4.675100 -0.758574 42.395400 -14.208000 6.300000
11.602000 -1.121300 41.035800 -13.852800 8.820000
-4.474430 -0.899476 42.847600 -14.119200 10.350000
-4.185500 -0.908471 43.309600 -14.208000 8.500000
-3.717540 2.106120 43.743600 -14.208000 9.170000
-30.594400 0.242542 32.744200 -10.300800 6.790000
-30.888500 0.244874 33.059100 -10.300800 8.240000
-16.575400 -2.329800 42.497900 -13.142400 6.680000
-8.913710 1.105000 45.223000 -13.941600 11.290000
-17.637200 -2.351780 42.534600 -13.053600 8.420000
-8.996490 1.223240 45.642900 -13.941600 6.600000
-17.802000 -2.373760 42.932100 -13.053600 9.150000
-17.932100 -3.772670 43.245900 -12.964800 8.610000
-15.681400 -0.256535 44.729100 -13.320000 7.220000
21.218900 1.392420 42.361400 -12.964800 8.330000
21.164400 1.405080 42.869500 -13.053600 8.480000
-3.062270 2.573470 48.094700 -14.208000 6.220000
19.764700 -0.559702 44.024400 -13.231200 10.850000
-2.833930 2.619420 48.970800 -14.208000 7.740000
-2.858790 2.642400 49.400300 -14.208000 7.500000
-2.884000 2.549590 49.836000 -14.208000 7.810000
-7.341500 2.158270 51.138600 -14.030400 5.680000
-7.105370 2.015140 51.613200 -14.119200 7.780000
-6.762790 2.031790 52.093400 -14.119200 6.360000
12.734900 1.720820 51.419200 -14.030400 5.200000
-7.651420 1.415780 53.297500 -14.030400 12.870000
13.318300 0.860864 57.062400 -14.030400 9.050000
13.416300 0.867194 57.482000 -14.030400 9.180000
13.514200 0.873524 57.901600 -14.030400 8.940000
-3.113280 1.759520 59.788200 -14.208000 9.590000
-12.746700 -1.376200 64.669100 -13.941600 4.880000
33.318500 0.590026 60.847400 -12.787200 10.830000
33.524400 0.809569 61.223400 -12.787200 5.960000
15.963600 0.597355 68.395900 -14.030400 6.740000
33.732400 0.597355 61.603300 -12.787200 8.360000
15.528700 1.256630 68.928900 -14.030400 6.480000
16.158300 1.044430 69.230200 -14.030400 6.190000
15.720000 0.608349 69.778000 -14.030400 8.980000
14.459800 0.000000 70.492500 -14.119200 11.020000
15.908900 0.839554 70.616500 -14.030400 10.400000
16.003000 1.069750 71.033900 -14.030400 9.320000
16.097700 1.076080 71.454200 -14.030400 8.340000
16.192400 1.082410 71.874600 -14.030400 16.450000
16.287100 1.088740 72.294900 -14.030400 8.760000
16.381700 1.095070 72.715200 -14.030400 17.240000
16.147400 0.174911 73.658100 -14.030400 6.990000
16.239600 0.175910 74.079100 -14.030400 12.710000
16.423600 -0.652327 74.918400 -14.030400 11.120000
16.515900 -0.655991 75.339200 -14.030400 19.120000
16.608700 -0.179908 75.762700 -14.030400 21.190000
16.695300 2.050050 76.157500 -14.030400 20.160000
16.792200 0.909516 76.599500 -14.030400 19.430000
16.884400 0.914514 77.020400 -14.030400 16.330000
16.380200 0.429113 77.573900 -14.030400 7.990000
16.558500 0.000000 78.418300 -14.030400 16.420000
17.176700 19.612900 76.244100 -14.030400 18.240000
16.825200 19.717800 76.750300 -14.030400 16.010000
16.421700 19.620400 77.770400 -14.030400 11.450000
26.371400 1.094420 90.600800 -13.852800 7.100000
26.491800 1.099420 91.014500 -13.852800 7.590000
26.612200 1.104410 91.428200 -13.852800 7.090000
26.732600 1.109410 91.841900 -13.852800 7.050000
16.941400 1.164380 98.953200 -14.119200 6.370000
17.013400 1.481190 99.373800 -14.119200 7.370000
17.085300 1.800650 99.793500 -14.119200 8.550000
-13.145300 1.815980 101.257000 -14.119200 7.160000
-13.200800 1.823640 101.685000 -14.119200 6.510000
-12.665700 1.831300 102.187000 -14.119200 11.590000
-11.564000 1.022470 119.659000 -14.208000 12.220000
-11.605900 0.279857 120.092000 -14.208000 8.540000
-11.647300 0.280857 120.521000 -14.208000 10.250000
15.870700 3.955270 164.222000 -14.296800 11.460000
15.912100 3.965600 164.651000 -14.296800 7.410000
15.951200 4.873480 165.056000 -14.296800 7.570000
7.867650 0.819890 5.224410 -7.548000 3.410000
7.509900 1.287920 7.615080 -10.212000 3.580000
8.067810 0.899904 7.721190 -9.856800 8.320000
-6.822330 1.640670 9.280140 -11.188800 5.190000
8.300470 0.934516 8.098510 -9.945600 7.760000
-7.961890 1.117820 8.995990 -10.300800 6.760000
-6.343160 1.436300 11.171800 -11.988000 4.830000
-6.347840 1.142190 12.672800 -12.254400 3.270000
-6.260440 1.269520 13.661900 -12.520800 6.860000
-6.515740 1.047050 14.513400 -12.609600 8.370000
8.948470 0.846578 15.209500 -12.165600 7.350000
-6.006340 1.602510 17.454800 -13.053600 7.100000
8.540450 0.988028 16.413300 -12.520800 4.400000
8.595350 1.479070 16.834400 -12.520800 5.560000
8.422280 1.557530 17.396300 -12.698400 4.480000
-10.799900 1.485180 16.554300 -11.810400 3.730000
-10.903900 1.517470 16.998700 -11.810400 4.900000
-6.166440 1.455000 19.235700 -13.142400 12.000000
-11.135900 1.549760 17.360400 -11.810400 6.400000
-6.290300 1.788850 19.622100 -13.142400 13.710000
-11.370500 1.516920 17.726100 -11.810400 7.090000
7.799730 -1.647150 19.551400 -12.964800 11.080000
8.947980 -1.680770 19.526800 -12.787200 5.550000
7.830740 -2.103700 20.425300 -12.964800 7.140000
9.480500 -3.099050 19.582000 -12.609600 8.100000
7.541110 -2.144950 20.990400 -13.142400 6.080000
9.332310 -0.467728 20.365500 -12.787200 8.690000
9.511780 -0.476723 20.757200 -12.787200 8.700000
9.812080 -0.611618 21.089700 -12.787200 11.160000
9.074520 -0.622944 21.884500 -12.964800 8.770000
8.930960 1.156300 22.387000 -13.053600 5.220000
10.165800 1.230840 21.849900 -12.609600 5.910000
9.090440 1.176950 22.786800 -13.053600 5.050000
-5.241080 1.669610 24.820900 -13.497600 3.970000
-5.329920 1.697910 25.241600 -13.497600 4.810000
10.247100 1.015900 24.183900 -13.053600 7.370000
-5.270320 1.726210 25.693200 -13.497600 5.270000
-5.507580 1.754510 26.083000 -13.497600 5.980000
-5.891360 1.896200 26.874200 -13.497600 9.820000
-6.046610 1.896200 26.839700 -13.497600 9.870000
-4.875410 1.839400 27.519500 -13.675200 6.700000
-9.028430 1.779930 26.909500 -13.053600 5.040000
-10.531200 1.011270 26.398300 -12.787200 8.450000
-4.950420 1.867700 27.942900 -13.675200 6.730000
-10.690800 1.026590 26.798300 -12.787200 6.880000
11.194300 -2.105110 26.996600 -13.053600 5.680000
-5.656380 1.743410 28.697100 -13.586400 6.000000
9.834540 -0.620639 28.051600 -13.231200 6.050000
11.385900 -0.620639 27.458600 -13.053600 5.320000
-5.739560 1.769050 29.119200 -13.586400 6.680000
9.977070 -0.629634 28.458200 -13.231200 6.960000
11.523500 -2.167030 27.790600 -12.964800 7.690000
10.634700 0.364806 29.601200 -13.231200 6.480000
10.547800 0.567015 30.086200 -13.231200 7.790000
10.689700 0.674607 30.490900 -13.231200 7.910000
10.832200 0.683602 30.897500 -13.231200 9.240000
19.234700 1.526040 28.044500 -11.632800 7.760000
10.256600 1.758340 32.863800 -13.408800 7.420000
18.823200 1.672510 29.344500 -11.899200 8.180000
11.087700 1.780320 33.047000 -13.320000 7.850000
19.055600 1.693160 29.706800 -11.899200 6.640000
19.288000 1.713800 30.069100 -11.899200 5.620000
-20.222000 0.940080 29.483900 -11.366400 5.170000
19.523200 1.622630 30.435700 -11.899200 8.280000
19.752400 1.432250 31.321600 -11.988000 6.210000
10.232600 -0.962732 35.154900 -13.497600 5.710000
20.225700 1.448900 31.530900 -11.899200 7.880000
-17.411000 -0.484742 37.995200 -12.520800 16.590000
-17.588900 -0.750911 38.383400 -12.520800 5.890000
19.690600 0.230881 37.842100 -12.520800 7.000000
19.889800 0.099949 38.224800 -12.520800 7.080000
20.287600 0.101948 38.989300 -12.520800 6.330000
22.793800 1.063690 38.067500 -12.165600 10.210000
23.015100 1.074020 38.437100 -12.165600 9.860000
-16.471400 -0.980429 43.974200 -12.964800 16.510000
-16.622500 -0.989424 44.377700 -12.964800 16.080000
-15.559700 -0.998419 45.217200 -13.053600 15.690000
-6.761950 2.194240 52.086900 -13.764000 7.900000
-6.817370 2.212230 52.513800 -13.764000 8.130000
-6.872800 2.230220 52.940800 -13.764000 7.880000
15.556100 0.361481 64.951600 -13.675200 8.380000
15.656500 0.363813 65.370700 -13.675200 8.460000
16.263600 0.156920 65.667100 -13.586400 9.750000
-14.599900 0.163916 69.142800 -13.586400 5.970000
-14.688900 0.164916 69.564400 -13.586400 7.980000
16.257400 0.608349 69.654700 -13.675200 8.100000
15.812800 1.279610 70.189800 -13.675200 7.480000
15.908300 1.063420 70.613600 -13.675200 6.830000
14.631400 1.069750 71.329100 -13.675200 8.390000
17.060600 0.849548 71.233500 -13.675200 9.140000
16.746500 0.854546 71.750500 -13.675200 10.110000
15.869500 0.859543 72.390800 -13.675200 6.750000
15.962300 0.634003 72.813900 -13.675200 5.430000
16.054100 0.869538 73.232500 -13.675200 6.720000
16.146300 0.874535 73.653400 -13.675200 7.910000
16.238600 0.879532 74.074300 -13.675200 6.030000
16.515400 0.894524 75.336900 -13.675200 6.620000
16.608500 0.419784 75.761800 -13.675200 7.790000
16.700800 0.422116 76.182700 -13.675200 10.110000
16.202300 0.181907 76.731600 -13.675200 12.700000
16.245600 5.908440 76.936600 -13.675200 12.050000
16.334400 5.940730 77.357000 -13.675200 8.320000
17.022100 5.973020 77.648500 -13.675200 8.980000
16.541800 3.592960 78.339400 -13.675200 16.100000
16.638700 2.616210 78.798300 -13.675200 19.080000
26.024800 0.813576 92.048100 -13.497600 21.350000
26.142000 0.817241 92.462700 -13.497600 17.400000
26.259200 0.820905 92.877300 -13.497600 11.960000
17.087300 -0.861218 99.805700 -13.764000 13.970000
17.160100 -0.864882 100.230000 -13.764000 12.760000
17.232800 -0.868547 100.655000 -13.764000 10.140000
-11.879600 -0.238878 102.297000 -13.764000 10.190000
-12.720600 0.559712 102.629000 -13.764000 10.680000
-10.830500 0.241877 103.714000 -13.852800 9.380000
15.998500 1.928970 165.545000 -13.852800 6.930000
16.039900 1.933970 165.974000 -13.852800 6.320000
16.081400 1.938970 166.403000 -13.852800 5.510000
-7.145250 -0.199221 8.626810 -10.567200 4.980000
-7.328180 0.485611 9.023240 -10.656000 7.300000
-7.454450 0.503597 9.473470 -10.833600 9.590000
-7.720680 0.521583 9.811800 -10.833600 8.670000
-6.889510 0.539568 10.924800 -11.632800 8.600000
-7.888760 0.539568 10.226600 -10.922400 5.200000
-7.029990 0.640095 11.340300 -11.721600 9.420000
-7.360830 1.072960 11.095100 -11.455200 7.020000
-7.249420 0.905553 11.694300 -11.721600 7.170000
-7.568690 0.933851 12.001800 -11.721600 4.680000
-6.138630 1.675680 13.673400 -12.609600 4.520000
-6.322270 1.532710 14.082400 -12.609600 5.780000
-6.497890 1.575290 14.473600 -12.698400 9.500000
8.963480 0.559617 14.711300 -12.165600 7.530000
9.071070 0.573607 15.149500 -12.254400 10.250000
9.170410 0.699469 15.586700 -12.254400 10.270000
9.257650 1.045250 16.016100 -12.254400 7.430000
-6.425390 1.714310 18.672500 -13.142400 5.430000
-6.421150 1.626750 19.138400 -13.053600 7.620000
-11.272000 1.485960 17.278000 -11.899200 4.510000
-6.557770 1.661360 19.545600 -13.053600 5.570000
8.728060 -3.170160 19.441100 -12.876000 7.200000
8.645930 -1.680770 19.662400 -12.876000 8.250000
8.531720 -2.171340 20.135400 -13.053600 10.800000
8.672450 -2.816430 20.467600 -13.053600 11.870000
8.839230 -2.870590 20.861200 -13.053600 8.610000
-5.881410 1.743480 22.445400 -13.408800 5.370000
9.966320 1.115000 20.996600 -12.787200 7.860000
-6.005490 0.567990 22.918900 -13.408800 8.970000
9.984230 1.208860 21.459700 -12.787200 6.780000
-6.114680 0.578317 23.335600 -13.408800 9.630000
9.254700 0.888693 23.198500 -13.142400 4.760000
-6.242110 1.591150 24.593500 -13.497600 4.550000
9.550520 0.904015 23.543700 -13.142400 8.130000
-6.347900 1.618120 25.010300 -13.497600 4.170000
9.711280 0.999242 23.940000 -13.142400 9.160000
-5.765520 1.645090 25.592000 -13.586400 7.190000
9.871900 1.097120 24.335900 -13.142400 7.120000
-5.708440 1.754510 26.039800 -13.586400 9.320000
-5.952130 1.866570 26.420300 -13.586400 5.590000
-6.046610 1.896200 26.839700 -13.586400 8.890000
-4.954670 1.450630 27.966900 -13.675200 6.740000
-4.865550 1.472610 28.419200 -13.764000 6.870000
11.562300 -1.924300 26.854600 -13.053600 5.000000
9.667100 -1.149130 28.093100 -13.320000 4.140000
9.967780 -1.445380 28.431700 -13.320000 5.110000
11.532900 -1.794690 27.813300 -12.964800 6.100000
10.498200 -1.466020 28.698900 -13.320000 8.300000
9.067690 0.911405 29.656100 -13.497600 9.110000
10.474800 -1.654370 29.156100 -13.231200 6.930000
10.630800 0.924063 29.590400 -13.408800 6.250000
10.370900 0.936721 30.138400 -13.408800 13.830000
10.511000 0.949380 30.545700 -13.408800 17.500000
-20.147600 -0.506391 27.966700 -11.188800 7.660000
18.825900 1.564680 29.348700 -12.076800 5.300000
19.058400 1.584000 29.711100 -12.076800 8.270000
19.288000 1.713800 30.069100 -12.076800 15.490000
-20.236200 0.867475 29.997800 -11.455200 10.450000
11.241400 -1.287070 34.381600 -13.408800 7.200000
-20.477100 0.877802 30.354900 -11.455200 7.010000
11.375200 -1.302400 34.790900 -13.497600 6.660000
20.219100 -1.976060 30.992500 -11.988000 17.910000
-20.718000 0.888129 30.712000 -11.455200 7.580000
9.872320 -0.974058 35.704900 -13.586400 7.210000
20.695300 -1.999030 31.194300 -11.899200 14.720000
10.473400 -0.985385 35.982100 -13.586400 6.660000
-18.658900 1.719210 33.460700 -11.988000 7.350000
-19.126000 1.858340 33.685400 -11.988000 5.470000
-18.105000 -0.750911 38.142700 -12.432000 8.570000
-17.162200 -1.385050 39.030000 -12.698400 7.220000
-19.102200 -0.758574 38.135700 -12.432000 7.130000
20.183800 0.099949 38.070400 -12.609600 7.450000
20.088700 0.100948 38.607100 -12.609600 8.320000
19.986400 0.101948 39.144500 -12.609600 15.460000
20.486200 0.240210 39.371100 -12.609600 17.160000
10.325600 2.126770 43.112500 -13.675200 6.390000
11.233400 -1.094670 44.258900 -13.675200 7.690000
-16.316800 -1.367110 43.561500 -12.964800 9.380000
-16.467900 -1.379770 43.964800 -12.964800 6.460000
-15.485700 -0.865847 46.155400 -13.053600 7.900000
24.553600 -1.998480 45.462500 -12.432000 5.410000
-6.465360 0.934808 52.162300 -13.764000 7.370000
-6.515950 1.720820 52.570500 -13.852800 6.900000
-6.569550 1.569640 53.003000 -13.852800 7.830000
-6.622530 1.582300 53.430400 -13.764000 12.600000
-17.230000 -0.829214 53.747600 -13.231200 5.140000
22.145200 1.789550 64.355100 -13.408800 5.860000
21.783600 2.012690 64.926600 -13.408800 5.510000
16.256900 0.829559 69.652600 -13.764000 7.980000
16.355300 0.612014 70.074300 -13.764000 7.340000
15.777800 0.626673 71.972100 -13.764000 15.240000
16.287700 0.859543 72.297800 -13.764000 8.190000
16.382900 0.634003 72.720400 -13.764000 6.280000
16.478200 0.173911 73.143200 -13.764000 10.280000
16.711200 5.949910 74.177800 -13.764000 16.710000
16.516200 0.417452 75.340900 -13.764000 16.340000
16.608200 0.659656 75.760100 -13.764000 5.630000
16.700400 0.663321 76.181000 -13.764000 12.580000
16.792700 0.666986 76.601900 -13.764000 6.420000
16.885300 0.426781 77.024500 -13.764000 5.640000
16.930100 5.940730 77.228800 -13.764000 13.220000
17.026000 5.727140 77.666200 -13.764000 19.830000
16.275500 -1.440520 79.344300 -13.764000 13.810000
26.732600 1.109410 91.841900 -13.586400 10.400000
26.853000 1.114410 92.255600 -13.586400 8.090000
26.973400 1.119400 92.669300 -13.586400 6.450000
27.092800 1.424220 93.079200 -13.586400 8.340000
16.386500 1.179370 100.357000 -13.852800 8.720000
16.456500 0.868547 100.785000 -13.852800 7.270000
16.526300 -0.555048 101.212000 -13.852800 8.550000
16.595700 -0.557380 101.638000 -13.852800 7.160000
-18.038500 1.519170 101.819000 -13.852800 10.640000
-18.114400 1.204360 102.248000 -13.852800 14.620000
-6.730010 1.279220 8.864920 -11.011200 4.350000
-7.145940 -0.139926 9.720340 -11.100000 7.410000
-7.401150 -0.144923 10.067500 -11.100000 7.770000
-6.324260 0.782090 10.749200 -11.899200 3.160000
-6.844500 0.959683 11.430900 -11.899200 8.680000
-6.269520 1.273640 12.699200 -12.343200 3.550000
7.747720 1.065460 11.875900 -11.899200 4.040000
8.488630 1.021600 11.362200 -11.455200 4.570000
-5.971030 1.447560 13.300100 -12.609600 5.750000
7.958150 1.582760 12.198500 -11.899200 4.880000
-6.146650 1.490140 13.691200 -12.609600 4.540000
7.801250 1.629320 12.803800 -12.165600 8.900000
-6.334000 1.210150 14.108500 -12.609600 5.150000
8.125410 1.675870 13.107400 -12.076800 9.070000
-6.627410 1.047050 14.462700 -12.609600 6.280000
-6.141790 1.075340 15.140600 -12.876000 5.380000
-6.420250 1.207340 15.483300 -12.876000 8.960000
8.946980 1.185130 14.684200 -12.254400 15.560000
9.170650 1.214750 15.051300 -12.254400 16.870000
9.155550 1.244380 15.561400 -12.343200 14.230000
-5.871150 1.595960 17.956900 -13.231200 7.600000
-6.145950 1.632230 18.318100 -13.231200 8.840000
-6.426660 1.668510 18.676200 -13.231200 8.250000
-6.569680 1.579920 19.091900 -13.142400 8.070000
-6.293560 1.661360 19.632300 -13.231200 7.560000
9.454370 -2.840260 19.150300 -12.876000 8.910000
-6.251280 1.375400 21.023100 -13.320000 6.870000
7.691840 -1.443220 20.535200 -13.142400 7.360000
9.643460 -2.897060 19.533300 -12.876000 7.390000
8.563990 -1.471520 20.653300 -13.053600 8.210000
9.614820 -1.429340 20.665700 -12.964800 7.950000
10.334300 -2.256490 20.240300 -12.520800 10.950000
-5.587440 1.115000 22.560300 -13.586400 7.090000
10.655300 -2.924750 20.477700 -12.609600 9.350000
18.335400 1.435750 15.621400 -9.501600 5.330000
-6.000310 1.135650 22.899200 -13.497600 5.050000
18.662800 1.461390 15.900400 -9.501600 7.430000
-6.244080 1.156300 23.279800 -13.408800 6.820000
18.990200 1.487030 16.179300 -9.501600 10.390000
-6.218510 1.176950 23.731900 -13.497600 4.410000
18.499200 1.591150 17.366100 -9.945600 9.140000
18.812800 1.618120 17.660400 -9.945600 6.110000
-6.239560 1.748060 24.583500 -13.586400 7.040000
9.416160 0.746845 23.603200 -13.231200 4.140000
9.572730 0.999242 23.995700 -13.231200 6.340000
-5.422740 1.401620 25.681200 -13.675200 8.530000
9.732280 1.015900 24.395600 -13.231200 8.160000
-5.512310 1.362710 26.105400 -13.675200 8.340000
-5.803810 1.531410 26.474800 -13.675200 5.300000
-5.529510 1.811110 26.956800 -13.675200 8.780000
-5.087370 1.839400 27.481100 -13.764000 7.820000
-5.161040 2.218610 27.879000 -13.764000 4.550000
-5.641820 2.539030 29.521700 -13.675200 3.940000
9.186060 -2.073970 28.655200 -13.497600 5.040000
11.530700 -1.887800 27.808000 -13.142400 8.500000
9.704130 -2.292350 28.923400 -13.320000 7.890000
9.046100 2.324630 29.585500 -13.586400 4.950000
10.852000 -2.324630 28.971900 -13.231200 7.940000
10.686400 1.049280 30.481500 -13.408800 8.440000
10.828900 1.063270 30.887900 -13.408800 17.280000
-8.833340 1.487410 31.947200 -13.497600 8.320000
-8.948060 1.506730 32.362100 -13.497600 8.750000
18.988500 1.610560 27.685500 -11.810400 13.110000
18.805300 1.944640 28.825300 -12.076800 6.730000
18.814900 1.968950 29.331500 -12.076800 7.900000
11.915700 -2.538520 33.167000 -13.320000 8.380000
19.047200 1.993260 29.693600 -12.076800 7.230000
12.254900 -2.569470 33.501200 -13.320000 6.050000
19.279400 2.017570 30.055700 -12.076800 7.820000
-19.947400 1.008040 32.738600 -11.899200 8.880000
19.104600 -0.362811 38.140300 -12.787200 8.230000
-18.291900 -0.362811 38.536600 -12.520800 8.960000
19.297500 -0.366476 38.525600 -12.787200 7.240000
-17.647600 -0.366476 39.308700 -12.609600 5.610000
19.491200 0.000000 38.912200 -12.787200 8.350000
-17.824700 0.000000 39.703300 -12.609600 6.300000
12.054100 1.084340 43.595700 -13.675200 10.080000
-3.862270 2.435600 45.446600 -13.941600 8.250000
11.829400 1.094670 44.103400 -13.675200 10.040000
-3.899780 2.209360 45.887900 -13.941600 8.010000
-3.937320 1.942450 46.329600 -13.941600 8.660000
-16.635500 -2.481560 43.391400 -12.964800 9.460000
-3.613270 1.960430 46.787900 -13.941600 8.110000
-17.378700 -2.504540 43.562700 -12.876000 7.670000
-4.921540 1.135980 47.129100 -13.852800 6.330000
-17.195900 -2.673880 44.088700 -12.876000 7.890000
-7.432180 1.257210 47.232200 -13.852800 9.630000
-17.342400 -3.141140 44.464300 -12.876000 7.870000
-17.276000 0.261199 45.061900 -12.876000 8.850000
-17.430200 0.263531 45.464300 -12.964800 10.590000
-2.859980 2.221460 49.421000 -13.941600 12.220000
-3.742720 1.706830 52.408600 -13.941600 6.110000
-3.364890 2.212230 52.847500 -13.941600 10.790000
-3.392670 2.065100 53.283800 -13.941600 6.180000
-6.208570 2.081750 53.463000 -13.852800 11.170000
15.625300 0.604685 69.357600 -13.764000 4.570000
16.257400 0.608349 69.654700 -13.764000 6.350000
16.354100 1.057090 70.069300 -13.764000 7.730000
16.452100 1.063420 70.488900 -13.764000 7.590000
16.550700 0.844551 70.911400 -13.764000 6.630000
16.649100 0.623008 71.333200 -13.764000 8.270000
16.193500 0.626673 71.879700 -13.852800 7.010000
16.287700 0.859543 72.297800 -13.764000 6.650000
16.382400 0.864540 72.718200 -13.764000 6.060000
16.477100 0.869538 73.138500 -13.764000 6.550000
16.571100 1.107730 73.555800 -13.764000 7.140000
16.666500 0.879532 73.979200 -13.764000 7.860000
16.761200 0.884530 74.399500 -13.764000 6.380000
17.003900 -18.773800 72.853400 -13.764000 6.000000
16.607600 0.899522 75.757800 -13.764000 7.800000
16.699900 0.904519 76.178700 -13.764000 9.510000
16.792200 0.909516 76.599500 -13.764000 15.460000
16.884400 0.914514 77.020400 -13.764000 16.930000
16.917600 6.674020 77.171600 -13.764000 14.900000
17.009500 6.710290 77.591000 -13.764000 10.520000
17.614000 0.681645 78.185000 -13.852800 8.150000
17.252800 1.183690 78.700700 -13.764000 17.150000
27.261900 1.405230 91.682100 -13.586400 10.820000
26.851900 1.411560 92.251800 -13.586400 10.570000
26.972300 1.417890 92.665500 -13.586400 10.740000
27.092800 1.424220 93.079200 -13.586400 9.450000
17.158000 1.808320 100.218000 -13.852800 8.200000
16.455300 1.500180 100.778000 -13.852800 8.370000
16.525400 1.189370 101.207000 -13.941600 7.810000
16.595900 0.238878 101.639000 -13.941600 8.160000
16.035500 4.383260 165.928000 -14.030400 6.960000
17.357100 4.911460 166.213000 -14.030400 5.520000
7.938820 1.579910 7.745660 -10.212000 4.000000
8.166290 1.640670 8.122620 -10.300800 5.870000
8.666330 1.149530 7.676600 -9.856800 3.050000
8.907410 1.229240 8.044630 -9.856800 2.430000
-7.360800 0.578151 9.542190 -11.011200 8.740000
-6.299600 1.350000 10.707200 -11.899200 3.350000
-6.776270 1.532350 10.386800 -11.632800 2.890000
-7.623680 0.598799 9.882990 -11.011200 8.380000
-6.602000 1.396560 11.025900 -11.899200 7.510000
-7.728040 0.619447 10.344100 -11.100000 4.190000
-6.822070 1.443110 11.393400 -11.899200 9.440000
-7.371610 0.794792 11.111300 -11.632800 6.240000
-7.615380 1.072960 10.921900 -11.277600 4.810000
-6.439140 1.075690 12.145400 -12.254400 5.380000
-6.969610 1.107570 11.846000 -11.988000 8.670000
-7.947700 1.107570 11.213300 -11.277600 6.820000
-6.633890 1.273640 12.512800 -12.254400 5.420000
-7.281350 1.142190 12.160500 -11.988000 4.950000
-8.108190 1.109310 11.628700 -11.366400 5.410000
-6.467340 1.097740 13.099900 -12.432000 4.780000
-7.008180 1.312240 12.798600 -12.165600 4.450000
-7.034230 1.162320 13.776900 -12.432000 5.070000
-6.396810 1.280630 14.547500 -12.787200 6.730000
-7.120280 1.194600 14.214900 -12.432000 5.080000
-6.569700 1.315240 14.940700 -12.787200 7.640000
-6.805110 1.125870 14.850500 -12.609600 5.730000
-6.743820 1.311000 15.336700 -12.787200 7.560000
-6.919960 1.238300 15.737200 -12.787200 4.630000
8.953920 0.972321 14.695600 -12.254400 6.180000
-5.880970 2.007740 16.076800 -13.053600 6.200000
8.828560 0.942073 15.273800 -12.432000 5.500000
9.293590 0.996629 14.991800 -12.254400 6.370000
-6.387630 1.796500 18.219800 -13.231200 4.920000
-6.527670 1.897460 18.619300 -13.231200 6.480000
-6.845960 0.422754 19.055400 -13.142400 7.240000
-6.575560 0.671540 19.598600 -13.231200 5.990000
-5.996570 1.777320 20.166500 -13.408800 5.400000
8.741370 -2.345950 19.075900 -12.964800 5.260000
-6.421650 0.781437 21.002200 -13.408800 8.070000
10.031600 -6.588430 18.921500 -12.876000 6.870000
-6.547570 0.796759 21.414000 -13.408800 6.270000
9.328440 -0.796759 20.357100 -12.964800 9.900000
9.507840 -0.812082 20.748500 -12.964800 10.830000
-6.008530 1.869030 22.401600 -13.497600 6.590000
9.682230 -1.115000 21.129100 -12.964800 8.500000
10.282400 -1.384480 20.827500 -12.787200 8.910000
-6.119800 1.903640 22.816500 -13.497600 8.980000
10.472800 -1.410110 21.213200 -12.787200 4.830000
-6.225240 0.284849 23.757600 -13.586400 4.410000
9.078240 0.656923 23.275800 -13.320000 3.880000
9.414270 0.904015 23.598500 -13.320000 4.310000
-5.180530 1.937200 25.255500 -13.675200 6.190000
9.567420 1.318760 23.982400 -13.320000 5.390000
-9.562920 1.538310 23.971100 -13.053600 4.160000
-5.266870 1.969480 25.676400 -13.675200 7.970000
-9.392720 1.563950 24.499500 -13.142400 8.820000
-5.502670 2.084150 26.059800 -13.675200 7.330000
-5.950830 1.950320 26.414500 -13.675200 7.920000
9.846770 1.615220 25.246300 -13.320000 10.590000
-5.892590 1.811110 26.879800 -13.675200 6.850000
-9.250020 1.666500 26.384400 -13.231200 7.610000
-10.520600 1.082510 25.935000 -12.964800 6.060000
-10.684800 0.923367 26.339800 -12.964800 6.890000
-5.098260 2.105110 28.777400 -13.764000 6.290000
8.940060 -0.951348 27.887800 -13.497600 7.140000
10.831500 -2.014720 27.151100 -13.231200 4.250000
-5.398140 2.136070 29.159800 -13.764000 6.370000
9.071530 -0.965339 28.297900 -13.497600 6.500000
10.990800 -2.044340 27.550300 -13.231200 5.090000
-5.478710 1.980900 29.595000 -13.764000 5.480000
9.327870 -2.980280 28.529200 -13.497600 5.170000
9.461120 -3.022850 28.936800 -13.497600 8.270000
10.404700 0.656618 29.677800 -13.497600 7.810000
-5.377490 1.133850 31.409400 -13.852800 7.700000
10.546500 0.764204 30.082300 -13.497600 4.660000
10.689000 0.774531 30.488800 -13.497600 9.130000
10.831500 0.784858 30.895300 -13.497600 4.980000
10.004500 1.402880 32.056000 -13.586400 15.850000
19.043700 2.102350 29.688300 -12.076800 6.930000
19.276000 2.127990 30.050300 -12.076800 6.010000
-17.587000 -1.890220 32.563400 -12.076800 8.510000
-19.952900 -0.444763 32.747700 -11.899200 6.940000
-20.178400 0.089954 33.117800 -11.899200 8.630000
-17.587800 -0.881487 38.381100 -12.698400 6.430000
-17.993800 -0.494737 38.675300 -12.698400 6.530000
19.296200 0.632988 38.522800 -12.787200 7.060000
20.384900 0.370140 38.449800 -12.698400 6.710000
11.593200 -1.278500 41.928900 -13.675200 5.890000
20.586800 0.373805 38.830500 -12.698400 4.120000
9.753290 0.651978 43.292900 -13.764000 8.420000
10.184600 0.658308 43.636000 -13.852800 5.360000
-17.721500 -0.242542 41.160000 -12.876000 11.050000
-3.156990 -9.102780 44.206800 -14.030400 7.670000
10.756000 -9.189470 43.429300 -13.764000 11.120000
-4.429340 2.351780 45.832700 -13.941600 10.560000
-4.203890 2.230010 46.293300 -13.941600 9.390000
-8.547130 1.125650 46.170100 -13.764000 9.810000
-8.895350 0.989424 46.546300 -13.764000 6.010000
-17.840100 -3.318350 44.719400 -12.876000 9.070000
21.545700 1.430400 43.641900 -12.876000 8.760000
21.732000 1.746740 44.019300 -12.876000 7.070000
21.922600 1.762060 44.405400 -12.876000 6.500000
-7.165670 1.706830 52.051200 -13.941600 7.670000
-7.527630 1.720820 52.435200 -13.852800 8.400000
15.620500 1.868830 69.336200 -13.764000 5.300000
15.311700 1.880160 69.846100 -13.852800 5.750000
15.811900 1.502130 70.185600 -13.852800 4.940000
15.904500 1.902810 70.596800 -13.852800 6.690000
16.004700 -0.168914 71.041400 -13.852800 9.480000
15.134100 0.169913 71.672400 -13.852800 5.950000
15.777300 0.854546 71.969900 -13.852800 8.410000
15.869500 0.859543 72.390800 -13.852800 6.630000
16.053400 1.101400 73.229500 -13.852800 5.910000
16.146300 0.874535 73.653400 -13.852800 6.060000
16.239100 0.644997 74.076600 -13.852800 6.960000
16.331400 0.648662 74.497500 -13.852800 5.530000
15.934700 0.655991 75.464300 -13.852800 7.170000
16.023800 0.659656 75.885900 -13.852800 6.130000
16.699900 0.904519 76.178700 -13.852800 5.700000
16.201300 0.909516 76.726700 -13.852800 7.520000
17.069900 0.431445 77.866300 -13.852800 8.220000
17.327100 -14.421600 76.911600 -13.852800 7.490000
17.202100 6.286070 78.469300 -13.852800 7.020000
17.357800 1.234330 82.203800 -13.852800 20.830000
17.448700 0.000000 82.634300 -13.852800 18.490000
17.537700 0.000000 83.055900 -13.852800 17.230000
16.499000 0.461763 83.706400 -13.852800 9.210000
16.142500 21.428500 81.897700 -13.941600 9.920000
26.730200 1.701040 91.833500 -13.675200 5.370000
26.851900 1.411560 92.251800 -13.675200 14.670000
26.972300 1.417890 92.665500 -13.675200 19.850000
17.086800 1.174380 99.802600 -13.941600 20.420000
17.159500 1.179370 100.227000 -13.941600 16.240000
17.232200 1.184370 100.652000 -13.941600 10.500000
17.304200 1.506510 101.073000 -13.941600 10.440000
15.996100 3.471980 165.520000 -14.030400 9.230000
16.037500 3.480970 165.949000 -14.030400 7.420000
-6.656990 0.637398 10.556100 -11.721600 4.900000
-6.544750 0.729241 11.123900 -11.988000 3.940000
-6.233540 1.155300 11.757600 -12.165600 2.830000
-6.939290 0.753549 11.389100 -11.988000 5.180000
-7.545550 0.681357 11.001500 -11.544000 6.220000
-6.860010 1.489660 11.868100 -12.165600 4.030000
-7.435200 0.703336 11.591100 -11.721600 5.030000
-7.788960 0.703336 11.356400 -11.544000 4.400000
-6.257980 1.536210 12.675900 -12.609600 2.790000
-6.523000 1.579920 12.536100 -12.432000 3.430000
-6.459510 1.312240 13.084100 -12.609600 5.810000
-6.649490 1.350830 13.468900 -12.609600 6.110000
-6.112700 1.305790 14.197300 -12.876000 4.070000
-6.734340 1.341640 13.909800 -12.609600 6.280000
-6.295900 0.850163 14.622800 -12.876000 8.420000
-6.824520 0.948623 14.377600 -12.698400 7.420000
-6.466060 0.873141 15.018100 -12.876000 9.490000
-6.548810 0.805281 15.455600 -12.876000 7.150000
8.267410 0.879170 15.098200 -12.698400 6.050000
-5.819840 1.636810 16.600300 -13.231200 5.150000
8.539380 2.166430 15.313600 -12.698400 6.140000
9.639360 0.942073 14.775500 -12.254400 4.640000
-6.092680 1.676740 16.958700 -13.231200 6.220000
9.757520 0.965050 15.211500 -12.254400 3.570000
-6.237740 1.716660 17.362500 -13.231200 3.120000
0.000000 1.522910 18.898300 0.976800 5.210000
0.111667 1.677050 19.317500 0.976800 15.050000
-6.278470 1.915890 18.245600 -13.320000 5.090000
0.114117 1.775380 19.741400 0.976800 18.410000
0.116630 1.751580 20.176100 0.976800 17.180000
-6.673420 1.813970 19.035000 -13.320000 6.380000
0.794628 1.549760 20.609700 0.976800 11.770000
-6.288580 1.852570 19.616700 -13.408800 6.920000
0.406013 1.321460 21.068800 0.976800 6.230000
-6.417780 1.956190 20.019800 -13.408800 4.720000
0.248589 1.348430 21.501300 0.976800 7.430000
8.543240 -1.849860 20.162600 -13.231200 7.920000
0.991688 1.004480 22.362300 0.976800 5.330000
7.335800 -3.228410 20.924300 -13.497600 6.550000
8.715140 -1.748000 20.568300 -13.231200 8.640000
0.878991 1.023800 22.797800 0.976800 4.880000
8.566180 -1.499820 21.117100 -13.231200 8.280000
-0.267687 2.299070 23.153200 0.976800 4.450000
9.687230 -0.827404 21.140000 -13.231200 6.290000
-0.454390 2.341650 23.579200 0.976800 4.320000
-6.313690 0.622944 22.834500 -13.586400 6.170000
-6.428490 0.634270 23.249700 -13.586400 6.580000
8.913180 1.252820 22.852600 -13.408800 9.160000
9.069550 1.274800 23.253600 -13.408800 8.280000
9.413190 0.982588 23.595800 -13.408800 5.130000
-5.859850 1.937200 25.106500 -13.764000 8.140000
10.079100 0.999242 23.787400 -13.320000 9.340000
-9.559210 1.697910 23.961800 -13.142400 4.880000
-5.266870 1.969480 25.676400 -13.852800 8.940000
-9.859190 1.726210 24.304600 -13.053600 8.850000
-5.354430 1.919370 26.103300 -13.852800 8.800000
-9.348910 1.836950 24.959100 -13.231200 9.360000
-10.210900 1.754510 24.625000 -13.053600 10.290000
-5.802770 1.615220 26.470000 -13.764000 8.670000
-6.042480 2.151380 26.821300 -13.764000 6.020000
-5.237790 2.422400 27.407500 -13.941600 10.800000
-5.979330 2.185000 27.275400 -13.764000 10.870000
-10.721400 0.995949 25.856100 -13.053600 7.180000
-5.157410 2.459670 27.859500 -13.941600 6.630000
-10.683600 1.011270 26.337000 -13.053600 7.390000
-5.026420 1.806900 28.371900 -13.941600 8.250000
-9.166960 1.717780 27.322300 -13.408800 9.160000
-10.845500 1.026590 26.736000 -13.053600 4.730000
-5.101450 1.833870 28.795400 -13.941600 4.800000
9.055620 -3.075420 27.696500 -13.675200 7.830000
-5.575420 1.332870 29.174200 -13.852800 7.100000
9.026180 -3.120650 28.156500 -13.675200 7.680000
-5.828720 1.165780 29.571500 -13.941600 4.160000
10.308300 -3.073090 28.179800 -13.586400 5.090000
-4.752010 1.182440 30.199500 -13.941600 8.600000
8.830080 -1.654370 29.695600 -13.675200 8.670000
10.232200 0.753877 29.735400 -13.586400 7.780000
10.372400 0.764204 30.142700 -13.586400 10.300000
10.512600 0.774531 30.550100 -13.586400 11.170000
-5.271310 1.569270 32.283300 -13.941600 8.880000
10.652700 0.784858 30.957400 -13.586400 14.590000
-5.150720 1.692400 32.733300 -13.941600 19.010000
-5.212050 2.311000 33.123100 -14.030400 9.260000
-15.180800 -3.512100 30.749400 -0.799200 9.850000
-15.365600 -3.663370 31.123800 -0.799200 7.560000
-15.312000 -3.708600 31.627000 -0.888000 8.560000
-16.214200 -3.817250 31.161000 -0.621600 8.520000
-15.923800 -3.863810 31.790200 -0.621600 9.150000
-20.224500 0.746565 29.487700 -11.632800 6.560000
-20.236200 0.867475 29.997800 -11.544000 6.160000
-17.566100 -1.953080 32.079900 -12.254400 5.050000
-17.584900 -1.976060 32.559500 -12.254400 6.470000
-20.718000 0.888129 30.712000 -11.544000 6.350000
-21.194700 1.101280 30.902200 -11.544000 6.460000
11.073100 1.934170 36.214800 -13.764000 7.210000
11.198900 1.956150 36.626300 -13.764000 5.520000
24.287100 -4.585000 29.323100 -0.266400 17.050000
-9.121180 2.000110 38.083800 -13.764000 8.550000
24.547900 -5.104510 30.706600 -0.355200 15.130000
-18.687300 -1.109970 37.852000 -12.609600 10.180000
19.393100 1.022380 37.982400 -12.876000 7.390000
12.042300 -0.233213 41.372400 -13.852800 8.160000
19.590300 0.899476 38.368700 -12.876000 5.440000
11.839200 -0.639318 41.874700 -13.852800 10.200000
20.085500 0.773898 38.601100 -12.876000 11.020000
11.956500 -0.645648 42.289300 -13.852800 8.680000
20.286900 0.373805 38.988000 -12.876000 12.690000
10.087600 -0.240210 43.220400 -13.941600 5.690000
10.185600 -0.242542 43.640100 -13.941600 16.670000
-4.123470 2.717680 45.407600 -14.119200 16.160000
-4.161580 2.885640 45.827300 -14.119200 10.860000
-3.576220 2.912610 46.308100 -14.208000 8.790000
-3.614520 1.524960 46.804000 -14.119200 9.510000
-10.317100 1.524960 45.795600 -13.941600 10.020000
-8.626140 0.989424 46.597000 -13.941600 8.460000
-18.134500 -2.271310 43.733800 -13.053600 7.270000
-8.976220 0.998419 46.969500 -13.941600 9.500000
-17.936700 -3.288730 44.217200 -13.053600 8.830000
-4.449240 1.706830 52.353400 -14.119200 9.290000
-6.568230 1.899960 52.992300 -14.119200 5.370000
-6.209280 1.915290 53.469100 -14.119200 7.210000
-31.155600 -7.760590 43.246600 -0.621600 6.370000
-2.691420 0.892513 60.690700 -14.208000 7.860000
14.150700 0.516731 59.083800 -13.941600 5.820000
-2.710500 0.898843 61.121100 -14.208000 7.810000
13.447300 0.520395 59.689600 -13.941600 8.050000
-3.559660 0.714620 61.511600 -14.208000 6.900000
15.718900 1.050760 69.773000 -13.941600 11.080000
15.814200 0.834556 70.196100 -13.941600 7.010000
15.908900 0.839554 70.616500 -13.941600 7.430000
16.004100 0.619344 71.039000 -14.030400 7.730000
16.649500 0.396463 71.334700 -13.941600 5.800000
16.190600 1.538100 71.866700 -14.030400 5.860000
16.287100 1.088740 72.294900 -14.030400 6.660000
16.380900 1.325590 72.711500 -14.030400 5.710000
16.475600 1.333250 73.131900 -14.030400 7.520000
16.571800 0.874535 73.558800 -14.030400 10.620000
16.666500 0.879532 73.979200 -14.030400 8.130000
16.331400 0.648662 74.497500 -14.030400 9.570000
16.516200 0.417452 75.340900 -14.030400 18.480000
16.023800 0.659656 75.885900 -14.030400 17.920000
16.112300 0.904519 76.305100 -14.030400 11.940000
16.201300 0.909516 76.726700 -14.030400 6.740000
16.728400 -13.542300 76.308400 -13.941600 18.610000
17.069000 0.924508 77.862200 -14.030400 19.390000
17.162300 -0.185905 78.288100 -14.030400 18.690000
16.191300 -0.436109 78.933600 -14.030400 17.650000
17.346700 -0.438441 79.129000 -13.941600 12.190000
17.806400 1.221670 81.225900 -14.030400 14.010000
17.056200 0.984476 83.150300 -14.030400 9.460000
26.733400 0.813576 91.844800 -13.764000 6.040000
26.853900 0.817241 92.258500 -13.764000 8.620000
26.974300 0.820905 92.672200 -13.852800 8.680000
27.091400 1.724030 93.074500 -13.852800 8.340000
17.158800 1.493850 100.223000 -14.119200 8.910000
17.231500 1.500180 100.648000 -14.119200 8.880000
17.304200 1.506510 101.073000 -14.119200 8.340000
-12.666400 1.512840 102.192000 -14.119200 9.730000
-12.719400 1.519170 102.620000 -14.119200 8.680000
-12.772400 1.525500 103.047000 -14.030400 6.090000
-12.826600 0.564376 103.484000 -14.030400 6.640000
15.995000 3.986250 165.509000 -14.208000 11.210000
16.036400 3.996580 165.937000 -14.208000 12.770000
16.076900 4.394590 166.356000 -14.208000 9.450000
