VERSION .7
FIELDS x y z velocity intensity
SIZE 4 4 4 4 4
TYPE F F F F F
COUNT 1 1 1 1 1
WIDTH 902
HEIGHT 1
VIEWPOINT 0 0 0 1 0 0 0
POINTS 902
DATA ascii
-5.933250 1.339440 9.408430 -12.254400 4.450000
-5.857360 1.390950 9.955580 -12.432000 5.530000
-6.161450 1.390950 9.770300 -12.254400 5.490000
-5.924260 1.266350 10.434000 -12.432000 5.390000
-6.321860 1.266350 10.198000 -12.254400 4.690000
9.492750 0.029985 8.774630 -10.478400 13.100000
9.809170 0.030984 9.067120 -10.478400 9.390000
-5.608980 1.606190 12.493600 -13.231200 5.070000
-5.785820 1.623620 12.887500 -13.231200 4.570000
9.306840 1.229830 10.680400 -11.544000 5.090000
-5.979100 1.233240 13.318000 -13.231200 6.770000
9.482400 1.267100 11.095900 -11.632800 5.870000
-5.294300 1.771220 14.473000 -13.586400 2.500000
9.148740 1.437200 12.444700 -12.165600 4.590000
-5.394000 1.517050 15.385600 -13.675200 4.040000
-5.322470 1.556970 15.863700 -13.764000 3.850000
9.716610 0.246865 13.709000 -12.254400 8.020000
-5.458950 1.596890 16.270500 -13.764000 7.070000
9.260580 1.703010 14.436800 -12.609600 3.770000
-5.718600 1.799950 16.618600 -13.764000 8.880000
9.368720 1.908630 14.856100 -12.787200 4.190000
9.831680 1.745590 14.574300 -12.520800 6.490000
-5.136040 1.676740 17.272500 -13.852800 6.310000
9.638350 1.020940 15.283700 -12.787200 4.900000
9.995010 0.811315 15.065600 -12.609600 5.960000
-5.152950 1.830740 17.703300 -14.030400 5.650000
10.233000 0.830632 15.424300 -12.609600 5.170000
9.853690 0.908522 16.172400 -12.876000 3.960000
10.471000 0.849949 15.783000 -12.609600 6.800000
-10.671300 1.873320 15.558900 -11.899200 7.660000
-4.998760 1.915890 18.636900 -14.119200 4.200000
10.077600 0.929171 16.539900 -12.876000 7.830000
-5.114330 1.775380 19.067800 -14.119200 4.980000
1.048910 1.813970 20.143600 0.888000 4.790000
-9.610330 1.079940 17.794100 -12.787200 4.850000
1.308990 1.852570 20.558400 0.888000 4.490000
0.648395 1.826120 21.025000 0.888000 4.330000
0.826961 1.863390 21.448300 0.888000 6.120000
0.969408 2.036040 21.859900 0.888000 3.900000
9.832210 -0.985168 19.629000 -13.408800 10.920000
1.164570 0.727502 22.364700 0.976800 16.090000
-5.205410 1.609790 21.734200 -14.208000 16.880000
10.470800 1.540660 19.749800 -13.231200 13.460000
10.374700 -1.023800 20.319400 -13.408800 8.560000
10.826900 1.570290 20.046700 -13.231200 7.070000
9.806920 -0.971223 21.078600 -13.497600 11.140000
10.553700 1.671710 20.670100 -13.320000 10.380000
-8.764350 1.483270 21.969400 -13.497600 6.280000
1.254150 0.783463 24.085000 0.888000 10.280000
-8.923700 1.510240 22.368800 -13.497600 6.680000
10.661200 1.510240 21.594800 -13.320000 4.890000
-0.472979 0.797454 24.543800 0.888000 9.270000
-8.773400 1.613020 22.884100 -13.586400 8.800000
-9.867110 1.537210 22.439600 -13.320000 10.020000
0.769969 0.811444 24.967200 0.888000 8.290000
-8.923510 1.795540 23.275700 -13.586400 12.410000
-10.042100 1.487030 22.837600 -13.320000 9.160000
12.188700 1.512670 22.259400 -13.231200 8.510000
-8.731380 1.238890 24.303400 -13.764000 8.640000
11.428800 1.378640 23.149700 -13.408800 10.890000
-8.351250 1.259540 24.891100 -13.852800 7.630000
-8.292910 1.280190 25.363800 -13.852800 8.540000
-4.068620 1.725990 27.221200 -14.474400 5.600000
-4.133710 1.580020 27.656700 -14.474400 6.800000
10.164200 1.428650 26.060000 -13.941600 4.390000
-4.197310 1.604330 28.082200 -14.474400 8.540000
-4.094540 1.806900 28.521300 -14.474400 10.220000
-4.155650 1.833870 28.947000 -14.563200 6.030000
-4.786480 1.332870 29.314000 -14.563200 7.030000
-5.250440 1.980900 29.636400 -14.474400 6.450000
-5.325450 2.009200 30.059800 -14.385600 4.840000
-5.412130 0.071963 30.549000 -14.385600 5.460000
-4.889510 0.072963 31.073300 -14.474400 4.950000
-7.961870 1.677350 30.385100 -14.119200 7.880000
-8.070940 1.700330 30.801400 -14.119200 8.990000
-16.347900 -1.714380 29.316400 -12.698400 7.070000
-16.328100 -1.736360 29.819000 -12.698400 12.230000
-16.756000 -2.157490 30.048300 -12.609600 12.560000
-17.561600 -4.438710 29.329300 -0.799200 10.410000
-16.242000 -3.985260 30.635400 -1.154400 4.300000
-16.442500 -4.034460 31.013600 -1.154400 6.340000
-19.751500 -1.037990 29.279300 -11.988000 7.980000
-10.641200 1.824280 34.096200 -13.941600 5.210000
-10.769400 1.846260 34.507000 -13.941600 6.890000
-4.268610 1.976060 36.757700 -14.563200 6.920000
-3.169980 1.999030 37.300500 -14.652000 12.260000
11.646200 0.985385 35.619800 -14.208000 5.710000
11.780700 0.908783 36.031300 -14.208000 6.490000
11.914600 0.919110 36.440700 -14.119200 13.340000
12.049300 0.809529 36.852700 -14.208000 6.540000
12.183200 0.818524 37.262200 -14.208000 4.920000
12.099100 0.827518 37.742300 -14.208000 9.990000
20.362100 -0.704937 34.006500 -12.876000 6.400000
11.923300 2.044070 38.204200 -14.208000 6.150000
-16.903300 -0.464753 36.331300 -13.231200 5.800000
20.847800 -0.712599 34.216400 -12.876000 9.260000
-18.664600 -0.935456 40.731000 -13.231200 10.850000
13.479100 0.244874 43.189300 -14.296800 11.040000
13.607500 0.247206 43.600700 -14.208000 11.330000
-5.930560 1.924460 45.682800 -14.563200 9.320000
13.735900 0.249538 44.012000 -14.208000 8.020000
-5.985990 1.942450 46.109700 -14.563200 8.190000
13.864200 0.251870 44.423300 -14.208000 8.630000
-15.378900 -2.230010 43.866000 -13.764000 7.590000
-2.710770 2.105550 46.842500 -14.652000 6.930000
13.730400 0.980429 44.905600 -14.296800 6.500000
-2.738380 -0.109944 47.319700 -14.652000 6.970000
-5.242590 -0.110943 47.541600 -14.563200 8.180000
-15.120600 -1.881910 46.246200 -13.852800 10.400000
-15.254400 -1.898560 46.655400 -13.852800 4.640000
-15.126600 0.421447 47.186400 -13.852800 8.160000
14.614700 0.277524 49.149500 -14.296800 6.040000
14.450500 -0.439771 49.645800 -14.296800 6.320000
14.184700 -0.443435 50.170300 -14.296800 16.570000
-26.803000 0.965457 47.206400 -12.609600 19.600000
15.291600 0.973120 52.535400 -14.296800 10.290000
-27.015700 0.973120 47.581000 -12.609600 7.250000
-2.443270 0.810225 55.095100 -14.740800 9.690000
15.717800 0.980782 52.859100 -14.385600 12.910000
-2.462360 0.816555 55.525500 -14.740800 8.610000
14.510900 0.649655 54.101000 -14.385600 11.380000
14.621200 1.003770 54.512200 -14.385600 6.190000
14.732800 1.011430 54.928300 -14.385600 9.000000
14.842500 1.373500 55.337300 -14.385600 8.360000
15.387800 0.000000 55.652400 -14.385600 7.180000
15.826400 0.000000 55.977200 -14.385600 8.190000
12.879300 -0.317170 57.168700 -14.474400 5.720000
12.640900 -0.319502 57.663100 -14.474400 8.930000
12.725300 -2.114480 58.048100 -14.474400 13.280000
13.605000 -2.129800 58.290600 -14.474400 9.280000
12.909800 -2.145120 58.889400 -14.385600 16.910000
12.856000 16.422700 57.065100 -14.474400 7.480000
15.618500 10.451200 58.230400 -14.385600 6.480000
15.615400 1.286250 59.593400 -14.296800 21.300000
16.071200 1.295250 59.918200 -14.385600 15.700000
15.836100 0.724615 60.436000 -14.385600 12.440000
15.946200 0.340492 60.856000 -14.385600 7.490000
16.164600 0.345156 61.689600 -14.474400 8.770000
-24.458300 0.150923 60.293800 -13.497600 9.920000
16.598100 1.367200 63.344000 -14.385600 7.090000
16.215400 1.376200 63.887600 -14.385600 6.520000
14.510500 0.431445 78.383500 -14.563200 9.450000
14.589000 0.433777 78.807200 -14.563200 7.140000
14.667100 0.685309 79.229200 -14.563200 7.640000
15.205700 0.688974 79.566300 -14.563200 10.920000
-15.285500 1.196350 79.983800 -14.385600 8.070000
-15.366400 1.202680 80.407000 -14.385600 11.690000
-15.447300 1.209010 80.830200 -14.385600 7.500000
-15.527400 1.471170 81.249300 -14.385600 10.460000
-14.467600 0.000000 91.943100 -14.474400 8.770000
-14.534600 0.000000 92.368800 -14.474400 7.860000
-13.886000 0.000000 92.904200 -14.474400 9.170000
-13.949600 0.000000 93.330400 -14.474400 8.400000
-14.013300 -0.219888 93.756300 -14.474400 8.930000
-13.532300 -0.220887 94.262200 -14.474400 10.630000
-13.593600 -0.221887 94.688800 -14.563200 8.690000
-14.203900 0.817241 95.031600 -14.474400 7.780000
-15.553800 0.820905 95.256600 -14.474400 8.190000
-15.623200 0.824570 95.681900 -14.474400 7.390000
-13.899300 0.831900 96.818200 -14.563200 5.370000
-13.398200 0.835564 97.323700 -14.563200 5.230000
-13.515300 1.149390 98.174400 -14.563200 7.080000
-12.813700 1.154390 98.702900 -14.563200 7.860000
-12.869500 0.850223 99.133300 -14.563200 6.880000
-12.925000 0.853888 99.560600 -14.563200 5.090000
-12.980500 0.857553 99.987900 -14.563200 6.210000
13.051100 3.459570 143.719000 -14.740800 7.800000
13.090100 3.469900 144.148000 -14.740800 7.520000
13.129000 3.480230 144.577000 -14.740800 8.060000
-6.032350 0.978820 5.448050 -9.679200 5.290000
-5.944410 1.083240 6.144960 -10.300800 4.870000
-6.419500 0.851507 5.686370 -9.590400 6.610000
-6.078070 1.137400 6.606510 -10.567200 5.150000
-6.621360 0.761709 6.120460 -9.679200 6.900000
-5.649340 0.878291 7.561750 -11.455200 6.840000
-6.730950 1.009730 7.203940 -10.567200 3.420000
-5.845030 0.918213 7.950760 -11.544000 6.760000
-6.113500 0.647247 8.315940 -11.544000 6.140000
-6.366960 0.707463 8.660720 -11.632800 8.820000
-5.586680 0.943068 9.665190 -12.432000 7.240000
8.624300 -0.557502 7.788940 -9.945600 7.000000
-5.712680 1.221120 10.061400 -12.520800 3.990000
8.852200 -0.503597 8.182540 -10.123200 7.690000
-5.459640 1.192110 10.693000 -12.787200 6.980000
9.059190 -0.809058 9.186060 -10.567200 7.970000
-5.699560 1.157860 11.544800 -12.876000 4.980000
9.377510 0.278838 9.508840 -10.567200 9.040000
-5.953180 1.319840 11.884900 -12.787200 5.140000
9.585000 0.287832 9.908380 -10.656000 15.190000
-6.590140 1.362410 12.035200 -12.609600 6.660000
9.805480 0.296827 10.293900 -10.744800 16.900000
-10.651500 1.097740 9.999050 -9.768000 6.490000
-10.865100 1.130030 10.398300 -9.856800 11.350000
-5.143260 1.361220 13.186900 -13.408800 9.610000
-6.049110 1.269520 13.756800 -13.142400 6.680000
9.108790 0.722688 11.998300 -11.810400 7.750000
-5.369010 1.582940 14.004300 -13.497600 3.890000
9.367610 0.791253 12.339200 -11.810400 3.120000
-5.533370 1.305790 14.433000 -13.497600 8.360000
9.291290 -0.972321 14.484700 -12.520800 6.130000
-5.602460 1.378230 16.698300 -13.764000 13.520000
-4.805910 1.523420 17.381400 -13.852800 5.940000
9.872220 0.887874 15.654500 -12.520800 4.950000
-5.159910 1.559690 17.727300 -13.852800 5.200000
10.223400 0.967087 15.937800 -12.432000 5.940000
-5.141580 1.522910 18.185500 -13.941600 6.650000
10.324900 1.153730 16.372400 -12.520800 4.630000
10.550300 1.301730 16.729800 -12.520800 5.560000
-5.344380 1.485960 19.925500 -13.941600 11.440000
-5.271690 1.443220 21.285400 -14.119200 7.140000
-4.787730 1.471520 21.839800 -14.119200 5.850000
-5.011230 1.288330 22.243800 -14.119200 4.720000
-4.972860 1.456310 22.684300 -14.119200 4.850000
9.960110 -1.384480 20.983500 -13.408800 4.420000
-5.064950 1.483270 23.104400 -14.119200 5.530000
9.979530 -1.410110 21.449600 -13.408800 5.610000
18.363100 0.530691 17.574100 -10.389600 10.710000
10.693700 1.641310 22.529100 -13.408800 9.870000
18.677100 0.299841 17.874700 -10.389600 9.060000
11.230100 1.669610 22.747100 -13.408800 9.210000
18.989000 0.223550 18.173200 -10.389600 8.610000
9.552960 1.937200 23.946100 -13.675200 5.270000
-8.883280 0.772162 24.726200 -13.675200 7.900000
-9.174030 0.784821 25.079000 -13.675200 7.270000
-8.631250 0.797479 25.725600 -13.675200 6.840000
-9.518130 0.797479 25.410900 -13.675200 6.140000
-8.056620 1.151080 26.349400 -13.764000 6.560000
-9.867880 0.810137 25.738900 -13.497600 6.450000
-8.175130 1.666500 26.737000 -13.764000 6.790000
-17.771800 -1.516570 23.787900 -11.455200 7.820000
-18.577400 -2.701660 23.609000 -11.188800 8.250000
-3.651390 1.677250 29.459300 -14.385600 7.950000
-3.704310 1.701560 29.886300 -14.385600 5.850000
-3.757230 1.725870 30.313200 -14.385600 7.960000
10.496600 1.560530 28.694500 -13.852800 6.570000
10.644400 1.582510 29.098600 -13.852800 7.420000
10.618500 1.774490 29.556100 -13.852800 5.250000
-5.453240 0.374801 31.851900 -14.296800 5.520000
-7.760340 1.548620 31.333700 -14.030400 6.120000
-4.652660 0.683602 32.409000 -14.385600 6.090000
-7.862610 1.670420 31.746600 -14.030400 6.260000
-8.151850 1.692400 32.117700 -14.030400 6.040000
-16.772000 -1.545360 30.077100 -12.609600 7.260000
10.388100 -0.894774 32.405000 -13.941600 5.360000
10.519600 -0.906101 32.815200 -14.030400 6.010000
-15.855700 -1.564680 31.054200 -12.698400 9.180000
-17.460600 -0.917427 30.207600 -12.432000 8.830000
-8.843170 1.025330 33.748500 -14.030400 8.740000
-16.053600 -1.474820 31.441800 -12.698400 7.960000
-8.952350 1.037990 34.165100 -14.030400 7.300000
-18.593200 -0.419777 31.052200 -12.343200 7.580000
12.100400 0.582349 37.746400 -14.030400 11.070000
12.452800 0.464753 38.086900 -14.030400 9.220000
12.586200 0.595009 38.494900 -14.030400 6.090000
-17.234100 -2.562020 37.042400 -13.053600 7.700000
19.901500 -2.435650 35.689100 -12.787200 9.820000
19.338500 -2.588990 36.476000 -13.053600 4.880000
19.839500 -2.002880 36.734100 -12.964800 9.690000
-16.680200 -2.023530 38.741400 -13.231200 6.510000
12.558400 -2.512570 40.239200 -13.941600 7.300000
-15.960600 -1.562870 40.921600 -13.408800 5.950000
-18.385100 -0.247206 41.811100 -13.231200 5.680000
-2.022040 1.765330 45.596500 -14.474400 6.670000
-2.395800 1.781980 46.009500 -14.474400 8.320000
13.606500 0.539713 44.500400 -14.119200 6.840000
13.732500 0.544710 44.912400 -14.119200 6.190000
13.858500 0.549708 45.324500 -14.119200 5.510000
14.369100 -0.272860 48.323500 -14.119200 7.950000
14.492100 0.000000 48.737200 -14.119200 7.420000
14.569900 0.765916 50.055900 -14.208000 14.570000
14.689600 0.934808 50.467100 -14.208000 20.300000
15.052900 0.291517 51.715500 -14.208000 7.970000
-26.407300 1.332190 48.894700 -12.609600 11.510000
15.119800 1.160320 53.477700 -14.208000 14.490000
15.240300 0.000000 53.904000 -14.208000 22.000000
15.043000 -0.305510 54.405700 -14.208000 18.830000
14.734900 -0.307842 54.936200 -14.208000 10.090000
14.846200 0.487413 55.351200 -14.208000 15.560000
14.957800 0.491077 55.767400 -14.208000 11.040000
15.069000 0.674641 56.181800 -14.208000 14.990000
15.180600 0.679639 56.597900 -14.208000 10.950000
15.286100 0.944498 79.987100 -14.385600 9.800000
15.367000 0.949495 80.410300 -14.385600 10.100000
14.980800 0.699968 80.924000 -14.385600 7.760000
-14.429200 1.726990 81.446500 -14.296800 8.170000
-14.505300 1.478840 81.875600 -14.296800 9.250000
-14.580400 1.486500 82.299800 -14.296800 6.630000
-14.656300 1.234330 82.728200 -14.296800 6.320000
-14.250600 1.240660 83.236200 -14.296800 6.150000
-13.949600 0.000000 93.330400 -14.296800 4.860000
-14.013300 0.219888 93.756300 -14.296800 10.570000
-14.077000 0.220887 94.182400 -14.296800 12.410000
-13.593600 0.000000 94.689000 -14.385600 9.980000
-13.654800 -0.222886 95.115300 -14.385600 9.200000
-13.716000 -0.223886 95.541800 -14.385600 13.810000
-13.777300 -0.224885 95.968300 -14.385600 13.670000
-13.960800 0.531727 97.246800 -14.385600 6.220000
-13.457200 0.534059 97.752700 -14.385600 5.310000
-12.980800 0.545719 99.990100 -14.385600 9.770000
-13.036000 0.861218 100.415000 -14.385600 12.480000
-13.091400 0.864882 100.843000 -14.385600 10.200000
-13.146900 0.868547 101.270000 -14.385600 7.620000
13.207800 3.049230 145.445000 -14.563200 6.290000
13.246800 3.058220 145.874000 -14.563200 5.910000
-5.707530 0.978820 5.787460 -10.212000 2.680000
-6.228400 1.136100 5.846900 -9.856800 3.770000
-6.443620 1.188920 5.597880 -9.412800 4.270000
-5.948950 1.030340 6.149660 -10.300800 4.200000
-6.480370 1.192910 6.201960 -9.945600 3.810000
-6.340930 1.101160 7.536710 -11.100000 6.530000
-6.562330 1.053630 7.923030 -11.188800 6.730000
-6.182250 1.320990 8.722470 -11.810400 7.710000
-6.483850 1.031230 8.540670 -11.455200 6.770000
-6.359440 1.373830 9.120650 -11.899200 7.510000
-6.791240 1.373830 8.803850 -11.455200 7.000000
-6.676830 1.426670 9.420270 -11.810400 5.350000
-5.424610 1.113720 10.231800 -12.698400 5.070000
-5.461290 1.154970 10.696200 -12.787200 7.540000
9.025290 0.299485 8.637540 -10.389600 8.620000
-5.574000 1.119260 11.127900 -12.876000 8.080000
9.162610 0.309813 9.113610 -10.656000 9.840000
9.468030 0.320140 9.417400 -10.567200 14.410000
-9.741560 1.160700 9.689470 -10.034400 8.370000
-10.044000 1.229830 9.990280 -10.034400 11.410000
-5.979100 1.233240 13.318000 -13.142400 3.920000
-5.264250 1.490140 14.054100 -13.586400 4.440000
9.373890 0.551603 12.347500 -11.899200 7.210000
-5.431640 0.922984 14.501000 -13.497600 5.320000
9.635290 0.517645 12.691800 -11.899200 5.970000
10.045800 0.517645 12.369400 -11.721600 5.610000
10.120200 0.531636 12.861300 -11.721600 4.570000
9.415600 0.359791 14.432500 -12.432000 7.460000
-5.676240 1.649960 16.190700 -13.675200 4.160000
9.639360 -0.942073 14.775500 -12.432000 7.320000
-5.024730 1.488300 17.772200 -14.030400 3.090000
-5.281590 1.522910 18.145300 -13.852800 6.020000
9.957860 0.509682 16.630500 -12.787200 4.640000
-10.025300 1.424050 17.039700 -12.520800 5.780000
-9.416010 0.521008 17.434300 -12.787200 3.630000
-5.445750 1.614330 20.782800 -14.030400 6.510000
-5.554670 1.646620 21.198500 -14.030400 4.500000
-4.617290 1.609790 21.866700 -14.208000 3.670000
-4.707110 1.570290 22.292100 -14.208000 4.670000
10.096700 -1.164900 20.451400 -13.320000 5.890000
-5.710790 1.599920 22.500100 -14.030400 6.420000
10.126300 -1.186880 20.916000 -13.320000 4.160000
-5.816540 1.629550 22.916800 -14.119200 8.370000
10.316900 -1.062440 21.309600 -13.497600 9.940000
10.600200 -1.208860 21.162200 -13.231200 10.410000
10.792900 -1.230840 21.547000 -13.231200 13.010000
10.976300 -1.613020 21.913000 -13.231200 11.390000
10.397800 1.274800 22.690700 -13.497600 7.150000
18.504600 -0.219885 18.054400 -10.478400 10.800000
-8.722530 1.296780 23.844700 -13.586400 6.620000
18.813000 -0.223550 18.355300 -10.478400 7.970000
-8.542500 1.318760 24.366300 -13.586400 8.530000
-13.145600 0.934660 22.742400 -12.520800 8.340000
18.940800 -0.227215 18.839500 -10.478400 9.260000
-13.362500 0.867406 23.117600 -12.520800 8.980000
-8.474030 2.001770 25.257000 -13.675200 8.780000
-8.396860 1.981280 26.193300 -13.764000 7.020000
-8.168480 2.012240 26.715200 -13.852800 6.630000
-4.792350 1.516510 27.991700 -14.385600 5.650000
-4.864960 1.539480 28.415800 -14.385600 8.120000
11.924700 0.722896 27.696300 -13.675200 8.510000
11.715100 0.733223 28.252500 -13.675200 6.320000
18.565700 -0.551690 24.850500 -11.899200 7.010000
19.017200 -0.559352 25.049900 -11.899200 9.120000
-3.542250 0.174910 32.122300 -14.385600 7.710000
-7.861650 1.746280 31.742800 -14.030400 8.250000
11.509100 -0.289516 32.035200 -13.941600 4.260000
11.654800 -0.293180 32.440700 -13.941600 4.750000
-16.733600 -2.076710 30.559500 -12.609600 7.440000
-16.085100 -1.968950 30.912900 -12.787200 11.630000
-17.415100 -2.102350 30.672000 -12.520800 6.730000
-16.042000 -1.993260 31.419100 -12.787200 7.080000
-8.953640 0.846821 34.170100 -14.030400 12.470000
-9.062830 0.857148 34.586800 -14.030400 11.790000
-10.222800 1.868240 35.121300 -13.941600 6.390000
-10.341800 1.976060 35.530200 -13.941600 9.330000
-17.814000 -0.318834 32.983800 -12.609600 7.050000
-16.783500 -0.674288 33.995900 -12.964800 9.280000
-17.433200 -1.008040 34.143800 -12.787200 7.290000
11.834600 1.019360 36.917100 -14.030400 6.510000
-17.634500 -0.329828 34.538100 -12.787200 8.780000
11.963900 1.273130 37.320500 -14.030400 6.250000
-18.099100 -0.333493 34.783400 -12.787200 5.920000
12.101300 0.337158 37.749100 -14.030400 5.810000
-18.298000 -0.337158 35.165600 -12.787200 9.090000
12.232000 0.588679 38.156700 -14.030400 8.840000
12.362100 0.845508 38.562700 -14.030400 7.080000
11.959000 1.708630 39.112400 -14.208000 8.570000
19.449700 -0.727924 36.012400 -13.142400 8.490000
11.779900 1.726620 39.616000 -14.208000 7.360000
-16.356000 -0.735587 37.988400 -13.231200 10.020000
-17.620400 -1.486260 37.872500 -13.053600 7.440000
-16.281300 -0.796885 41.743800 -13.497600 8.100000
-17.818600 -0.529718 42.053100 -13.320000 11.020000
13.862900 0.683627 44.419200 -14.030400 6.570000
13.991900 0.544710 44.832300 -14.030400 10.610000
14.120200 0.549708 45.243600 -14.030400 7.270000
14.248600 0.554705 45.654900 -14.030400 7.340000
14.377000 0.559702 46.066200 -14.030400 6.520000
-15.932300 -3.169440 45.444700 -13.675200 7.060000
-16.074600 -3.197730 45.850500 -13.675200 7.070000
14.369300 0.000000 48.324200 -14.208000 6.210000
14.492100 0.000000 48.737200 -14.208000 12.480000
14.614900 -0.118939 49.150100 -14.208000 19.790000
14.448700 0.919483 49.639800 -14.208000 21.720000
30.806600 0.124936 44.182600 -12.343200 19.270000
31.053100 0.125936 44.536100 -12.343200 9.050000
14.771300 0.125936 52.245200 -14.208000 11.220000
14.996300 1.961250 53.041100 -14.208000 7.750000
-26.031500 1.160320 49.100200 -12.698400 9.920000
15.117800 1.461090 53.470800 -14.208000 7.700000
-26.613800 1.169320 49.277200 -12.698400 12.170000
15.235900 1.342520 53.888500 -14.208000 16.770000
14.846200 0.487413 55.351200 -14.296800 19.030000
14.957800 0.491077 55.767400 -14.296800 11.560000
15.069500 0.494742 56.183500 -14.296800 7.990000
15.180600 0.679639 56.597900 -14.296800 18.030000
15.960200 0.879853 57.722800 -14.296800 12.860000
16.184600 0.917833 60.341000 -14.296800 12.430000
16.272300 0.943152 62.100600 -14.296800 9.220000
15.537500 0.749601 62.735200 -14.296800 9.410000
15.454300 0.974802 64.526600 -14.385600 11.270000
14.666900 1.642010 66.904600 -14.385600 9.950000
17.966200 1.823530 66.983300 -14.385600 23.480000
-13.099500 -1.672990 68.545300 -14.296800 23.240000
-13.180400 -1.683310 68.968400 -14.296800 18.160000
15.286600 0.692639 79.989600 -14.474400 9.080000
15.367800 0.443105 80.414500 -14.474400 10.020000
15.448400 0.699968 80.836000 -14.474400 9.440000
-15.058200 1.215340 81.341800 -14.296800 8.990000
-14.506000 1.221670 81.879700 -14.296800 7.270000
-14.580400 1.486500 82.299800 -14.296800 5.620000
-14.655600 1.494160 82.724000 -14.296800 6.450000
-13.409900 0.000000 93.409400 -14.385600 9.010000
-13.471100 0.219888 93.835700 -14.385600 8.970000
-13.532300 0.220887 94.262200 -14.385600 11.300000
-13.593100 0.813576 94.685600 -14.385600 13.990000
-13.838500 0.225885 96.394900 -14.385600 12.810000
-13.899700 0.226884 96.821400 -14.385600 13.690000
-13.960800 0.531727 97.246800 -14.385600 9.970000
-13.456900 0.839229 97.750600 -14.385600 5.350000
-12.980800 0.545719 99.990100 -14.385600 5.930000
-12.455600 0.548051 100.491000 -14.474400 6.570000
-12.508600 0.550384 100.919000 -14.474400 5.390000
-12.561600 0.552716 101.346000 -14.474400 5.550000
13.207800 3.049230 145.445000 -14.563200 12.050000
13.246800 3.058220 145.874000 -14.563200 15.610000
13.285800 3.067210 146.303000 -14.563200 14.800000
-5.907800 0.887689 7.907710 -11.455200 4.370000
-5.795870 1.395020 8.450470 -11.899200 4.560000
-6.164660 0.926285 8.251520 -11.544000 3.840000
-5.626330 1.420130 9.076040 -12.254400 3.770000
-5.923960 1.476930 9.393700 -12.254400 5.680000
-5.558700 1.185330 10.151500 -12.609600 3.450000
-6.076430 1.533740 9.802120 -12.254400 3.810000
-5.845550 1.229240 10.482700 -12.609600 4.640000
-5.508890 1.436300 11.605900 -13.053600 7.060000
-6.017660 1.436300 11.350400 -12.787200 6.080000
-5.784780 1.484170 11.948500 -13.053600 5.460000
-6.335320 0.836027 11.730200 -12.698400 6.670000
-6.540920 0.820430 12.110900 -12.698400 7.840000
-6.086070 1.097740 13.281400 -13.053600 7.320000
-6.158050 1.176540 13.716600 -13.231200 7.120000
-6.334000 1.210150 14.108500 -13.231200 8.530000
9.656810 1.210150 12.079600 -11.721600 6.560000
9.531250 0.763985 12.757800 -11.988000 6.510000
-5.303420 1.567460 15.412000 -13.586400 4.020000
-5.239000 1.596890 16.342700 -13.764000 4.210000
-5.372960 1.527980 16.760500 -13.764000 4.460000
9.504910 1.487150 14.817700 -12.609600 6.720000
-5.509180 1.356040 17.185500 -13.764000 12.280000
-5.640350 1.388320 17.594700 -13.764000 18.280000
-9.676410 1.452900 16.740600 -12.520800 9.400000
-10.154000 1.485180 16.958100 -12.343200 11.400000
-5.380750 1.579920 19.460400 -14.030400 7.360000
-10.370400 1.626750 17.319500 -12.343200 3.930000
-5.567060 1.547880 20.755700 -13.941600 4.970000
-4.784600 1.678900 21.825500 -14.208000 6.120000
-4.783460 1.748000 21.820400 -14.208000 6.180000
-4.146390 1.640750 22.398100 -14.296800 6.650000
-5.113740 0.197897 22.698900 -14.208000 8.860000
-5.207810 0.421430 23.116400 -14.208000 6.250000
10.332600 1.286730 21.768300 -13.408800 8.660000
-5.298710 1.007190 23.519900 -14.208000 10.550000
-5.254860 1.025180 23.970700 -14.208000 10.200000
12.003300 -0.057970 21.920900 -13.053600 7.390000
12.081200 -0.058970 22.369100 -13.053600 6.310000
12.109500 -0.299841 22.840700 -13.142400 6.950000
19.273500 1.424600 18.445500 -10.478400 7.230000
-10.065800 -0.548681 24.275000 -13.320000 7.050000
-8.285260 0.566670 25.845200 -13.764000 8.540000
-8.061890 0.575665 26.366600 -13.852800 7.080000
-9.668290 0.895386 25.811800 -13.586400 9.700000
-8.173580 1.752960 26.731900 -13.852800 4.280000
-9.818320 0.995949 26.212300 -13.586400 5.900000
-4.346750 1.580020 27.624000 -14.385600 5.730000
-8.299330 1.779930 27.143200 -13.852800 5.110000
-4.413620 1.604330 28.049000 -14.385600 8.140000
-9.743960 1.717780 27.121900 -13.675200 7.340000
-4.645800 1.539480 28.452400 -14.385600 5.080000
-3.766880 1.562460 29.016000 -14.385600 6.150000
-4.049080 1.585440 29.412400 -14.474400 6.800000
-4.999550 -0.167914 30.618900 -14.385600 8.220000
-5.308100 -0.170246 31.004100 -14.385600 5.270000
-5.380880 -0.073962 31.429200 -14.385600 7.110000
-7.864940 1.468090 31.756000 -14.119200 6.500000
-7.720210 1.487410 32.234300 -14.119200 6.050000
10.925200 1.506730 31.749300 -14.030400 5.340000
10.817100 1.526040 32.240600 -14.030400 5.150000
10.955500 -1.438850 32.653100 -14.030400 6.450000
-17.467500 -1.332320 29.688900 -12.432000 8.440000
10.837300 -1.456830 33.145800 -14.030400 7.060000
-17.685800 -1.348980 30.060000 -12.343200 6.920000
10.971100 -1.474820 33.555000 -14.030400 6.610000
-18.340500 -2.127990 30.630200 -12.343200 5.840000
-10.209700 2.631390 35.076200 -14.030400 11.370000
-10.329800 2.662350 35.488800 -14.030400 10.250000
-10.458400 2.230550 35.930700 -14.030400 10.380000
-17.169500 -1.008040 34.277100 -12.876000 6.860000
-17.629100 -1.019360 34.527400 -12.876000 10.180000
12.601800 1.409650 37.560100 -14.119200 8.390000
12.230600 0.836513 38.152500 -14.119200 9.980000
12.232000 0.588679 38.156700 -14.119200 6.550000
11.840900 0.845508 38.726000 -14.208000 11.470000
11.664900 0.854503 39.229000 -14.208000 9.060000
-15.883400 -1.063690 41.429600 -13.497600 10.230000
-16.279200 -1.074020 41.738400 -13.408800 11.270000
-16.757600 -1.329130 42.005700 -13.408800 9.530000
13.864400 0.107945 44.423800 -14.119200 8.230000
13.991900 0.544710 44.832300 -14.119200 7.640000
-16.439600 -2.596440 45.758900 -13.586400 8.050000
-16.842600 -3.074420 46.042400 -13.586400 8.700000
13.716500 2.050360 47.124100 -14.208000 5.610000
-16.990300 -3.101390 46.446300 -13.586400 8.010000
14.246500 0.000000 47.911100 -14.208000 8.520000
14.089800 0.000000 48.406400 -14.208000 8.060000
14.612600 0.911821 49.142400 -14.208000 8.040000
14.736800 0.599681 49.559900 -14.208000 7.120000
14.859600 0.604678 49.972900 -14.208000 7.090000
14.981800 0.772246 50.383900 -14.208000 4.850000
30.313400 0.286852 43.475200 -12.254400 7.290000
30.559800 0.289185 43.828600 -12.254400 9.330000
14.354200 0.124936 51.914400 -14.208000 11.430000
14.468600 0.461759 52.328000 -14.208000 10.200000
14.581600 0.973120 52.736900 -14.208000 10.530000
-26.204400 1.151330 48.519100 -12.698400 15.390000
14.697800 0.639660 53.157000 -14.208000 15.750000
-26.409100 1.160320 48.898100 -12.698400 16.260000
14.399300 0.644657 53.684800 -14.208000 21.540000
15.489800 15.257900 52.092500 -14.208000 9.020000
14.734100 0.659649 54.933300 -14.296800 12.820000
14.845800 0.664647 55.349500 -14.296800 12.490000
14.957400 0.669644 55.765600 -14.296800 16.250000
14.743400 0.854534 56.265700 -14.296800 15.660000
14.852600 0.860864 56.682500 -14.296800 10.610000
16.734300 1.435460 57.492000 -14.208000 13.580000
14.097200 1.822810 60.399500 -14.385600 6.830000
14.196300 1.642310 60.824200 -14.385600 10.440000
16.645200 1.642310 60.200100 -14.385600 10.090000
16.292300 1.653630 60.742700 -14.296800 9.980000
16.050100 1.664960 61.252500 -14.296800 8.570000
16.163800 0.739607 61.686400 -14.296800 13.560000
15.793900 0.744604 62.226700 -14.296800 19.150000
15.745100 0.557043 63.573700 -14.296800 15.420000
17.190400 0.564372 64.090900 -14.296800 8.820000
16.928800 0.568037 64.606000 -14.296800 8.120000
14.486300 0.366145 66.081100 -14.385600 6.990000
14.578600 0.368477 66.502000 -14.385600 10.850000
14.670900 0.370809 66.922900 -14.385600 10.760000
14.763100 0.373141 67.343800 -14.385600 11.760000
24.949800 1.838220 72.505500 -14.030400 9.130000
14.746000 -0.187904 79.655600 -14.474400 11.560000
14.824500 0.188904 80.079300 -14.474400 12.220000
14.902900 0.189903 80.503000 -14.474400 8.440000
14.981200 0.445438 80.925700 -14.474400 5.750000
-15.059300 0.703633 81.347600 -14.296800 7.060000
-15.137700 0.707298 81.771300 -14.296800 5.390000
-15.215700 0.969484 82.192500 -14.296800 6.470000
-15.294100 0.974482 82.616100 -14.296800 6.350000
-13.886000 0.000000 92.904200 -14.385600 8.510000
-13.949600 0.218888 93.330100 -14.385600 8.450000
-14.013300 0.219888 93.756300 -14.385600 5.370000
-14.077000 0.220887 94.182400 -14.385600 5.870000
-14.869500 0.000000 94.497100 -14.385600 10.000000
-14.204400 0.000000 95.035000 -14.385600 13.480000
-12.980800 0.545719 99.990100 -14.474400 12.750000
-13.036000 0.861218 100.415000 -14.474400 9.290000
-13.091900 0.235880 100.846000 -14.474400 13.280000
-12.561700 0.236879 101.347000 -14.474400 15.400000
13.168000 3.490550 145.006000 -14.563200 6.150000
13.206900 3.500880 145.435000 -14.563200 5.850000
13.247600 2.605200 145.883000 -14.563200 5.000000
-6.042030 1.336850 7.181450 -10.922400 2.370000
-6.258620 1.397610 7.556340 -11.011200 3.020000
-5.947070 1.085440 8.390640 -11.632800 3.950000
-6.454470 1.458380 7.947430 -11.100000 5.210000
-6.127310 1.130670 8.787740 -11.632800 3.760000
-6.701410 0.931693 8.382710 -11.100000 6.770000
-6.007850 1.426670 9.860390 -12.254400 2.910000
-6.050360 1.350000 10.850000 -12.520800 3.880000
-6.118300 1.157860 11.328400 -12.609600 7.460000
-5.687130 1.436300 11.519600 -12.876000 9.360000
-6.389810 1.196450 11.669300 -12.609600 10.130000
9.287160 0.113607 9.600490 -10.833600 12.130000
-5.951320 1.360940 11.881200 -12.876000 9.060000
-6.543210 0.735276 12.115100 -12.698400 8.990000
-5.074490 1.606190 12.720100 -13.231200 6.150000
-5.883390 1.656390 12.839100 -13.053600 6.640000
-5.294160 1.537710 13.573800 -13.408800 5.990000
-5.986190 1.007360 13.333800 -13.142400 5.850000
-5.370730 1.536550 14.008800 -13.408800 6.030000
-6.162260 1.036990 13.726000 -13.142400 3.960000
-5.417880 1.437200 14.464300 -13.497600 3.700000
-6.038940 1.018750 14.252300 -13.320000 5.600000
-5.303420 1.567460 15.412000 -13.586400 4.910000
-5.320910 1.608710 15.859100 -13.675200 5.490000
9.828110 1.344610 14.095400 -12.254400 6.150000
-5.331820 1.649960 16.307300 -13.675200 4.490000
10.076200 1.323750 14.451200 -12.343200 9.380000
-5.368400 1.691210 16.746300 -13.675200 5.560000
10.205100 1.411840 14.879300 -12.343200 11.120000
-5.368530 1.676740 17.201700 -13.852800 5.190000
10.212100 1.445460 15.392800 -12.432000 9.700000
-5.733390 1.716660 17.535500 -13.675200 5.100000
9.732670 0.732777 16.254400 -12.787200 5.170000
-9.807380 1.393090 16.669300 -12.432000 7.260000
-9.893690 1.424050 17.116500 -12.432000 11.340000
-4.720690 1.680770 20.954200 -14.119200 5.300000
-4.691470 1.714380 21.400700 -14.208000 4.020000
-5.077330 1.748000 21.753800 -14.119200 5.930000
10.537000 0.670895 20.250500 -13.320000 7.630000
10.135100 0.683553 20.934200 -13.320000 6.470000
-5.302980 -0.279851 23.538800 -14.119200 10.170000
-5.251070 1.385560 23.953400 -14.119200 13.320000
-5.483990 1.409870 24.342300 -14.119200 11.350000
-5.100410 1.434170 24.864900 -14.296800 5.160000
-5.330970 1.618120 25.246600 -14.296800 11.310000
-8.535170 1.697910 24.345400 -13.675200 6.560000
12.285200 -0.299841 22.746700 -13.142400 11.320000
9.863010 1.563950 24.314000 -13.764000 10.490000
12.489900 -0.304838 23.125900 -13.142400 10.700000
-8.346040 1.563950 24.875600 -13.764000 10.420000
-8.482860 1.589580 25.283400 -13.764000 10.500000
-9.710630 1.049200 25.328800 -13.586400 7.780000
-9.865900 0.980627 25.733800 -13.586400 8.570000
-3.972310 1.752960 27.669900 -14.385600 5.300000
-8.173580 1.752960 26.731900 -13.852800 5.710000
-10.020100 0.995949 26.135900 -13.497600 5.430000
-3.872380 1.604330 28.128800 -14.385600 8.950000
-3.932800 1.383430 28.567700 -14.385600 7.810000
-3.819450 1.952600 29.421000 -14.385600 9.040000
-3.874810 1.980900 29.847400 -14.385600 5.250000
-4.402470 1.654370 30.666300 -14.385600 6.800000
-5.815390 1.654370 30.430000 -14.385600 5.400000
-5.479500 1.677350 30.929300 -14.385600 9.460000
-4.949450 1.700330 31.454200 -14.385600 7.590000
-4.776760 -0.474741 31.959000 -14.385600 8.610000
10.690900 0.474741 30.494300 -14.030400 5.230000
-4.653170 -0.481071 32.412600 -14.385600 6.960000
-8.055600 0.481071 31.738500 -14.030400 7.510000
-4.714390 -0.487401 32.839000 -14.385600 5.220000
-18.567000 -1.299010 27.986200 -11.899200 7.210000
-8.266680 0.701592 32.570200 -14.030400 10.140000
12.520600 -1.012670 32.101800 -13.852800 9.670000
-16.322900 -1.968950 30.788000 -12.698400 13.330000
-17.208700 -1.861170 30.308600 -12.520800 5.610000
-16.764100 -1.993260 31.039800 -12.609600 13.610000
-17.421200 -1.884150 30.682700 -12.432000 6.340000
-16.971400 -1.907120 31.423700 -12.609600 10.070000
-17.175900 -1.930100 31.802300 -12.609600 5.560000
-10.564800 2.153630 34.552400 -13.852800 7.330000
-19.275800 -1.755100 31.094400 -12.165600 7.290000
-10.692500 2.066180 34.970000 -13.852800 7.610000
-10.547000 1.976060 35.469800 -13.852800 8.080000
-17.046200 -0.434769 33.385800 -12.787200 7.250000
-17.502400 -0.322499 33.636700 -12.787200 8.830000
-17.963000 -0.326163 33.881500 -12.698400 7.630000
11.705300 0.681950 36.513700 -14.119200 6.830000
11.834600 1.019360 36.917100 -14.119200 5.750000
12.181600 1.030690 37.257500 -14.119200 10.100000
12.318900 0.459756 37.677400 -14.119200 11.510000
12.232500 0.464753 38.158300 -14.119200 8.970000
19.201200 -2.755420 35.066000 -12.964800 5.590000
12.364400 0.344487 38.569800 -14.119200 5.990000
11.952400 2.182850 39.090800 -14.119200 7.540000
18.979700 -2.228810 37.172800 -13.142400 6.350000
13.864200 0.251870 44.423300 -14.119200 10.220000
13.992300 0.399458 44.833700 -14.119200 9.910000
14.121000 0.256535 45.246000 -14.119200 9.180000
14.249300 0.258867 45.657300 -14.119200 6.740000
-16.271500 -3.616100 45.290900 -13.586400 6.410000
13.600900 1.580920 46.726800 -14.208000 7.830000
14.571200 0.282188 50.060600 -14.208000 6.550000
14.535300 0.784905 51.410500 -14.208000 7.590000
30.465300 0.000000 44.418900 -12.432000 7.470000
14.885300 1.142340 52.648600 -14.208000 17.110000
15.004800 0.639660 53.071100 -14.208000 22.020000
15.122500 0.472753 53.487400 -14.208000 17.470000
15.040900 1.003770 54.397900 -14.208000 5.870000
15.157100 0.659649 54.818100 -14.208000 8.530000
14.846700 -0.132932 55.353000 -14.208000 8.130000
14.958400 0.000000 55.769400 -14.208000 16.590000
15.070000 0.000000 56.185600 -14.208000 21.420000
15.515600 15.252500 54.877700 -14.208000 11.680000
15.602700 15.718800 55.185700 -14.208000 9.070000
12.208400 0.328831 59.516800 -14.385600 7.570000
17.100100 0.331163 58.748800 -14.385600 15.130000
13.542400 0.000000 60.112100 -14.296800 8.720000
16.421300 0.000000 59.390300 -14.296800 7.630000
13.286800 -0.335827 60.609400 -14.296800 8.470000
12.908500 0.144926 61.132300 -14.385600 10.880000
15.941800 1.507750 60.839400 -14.296800 7.890000
16.053900 0.930493 61.267100 -14.296800 12.520000
16.521200 0.000000 61.596000 -14.296800 18.900000
16.632800 0.000000 62.012200 -14.296800 20.770000
16.004400 1.157020 63.056300 -14.296800 14.660000
16.111900 0.759596 63.479600 -14.208000 15.210000
15.849300 0.000000 63.994200 -14.296800 11.530000
16.431000 0.000000 64.736900 -14.296800 8.290000
15.206300 0.000000 79.569200 -14.474400 9.390000
15.287100 0.188904 79.992200 -14.474400 10.020000
15.368000 0.189903 80.415500 -14.474400 10.850000
15.448900 0.190903 80.838700 -14.385600 6.920000
-15.058800 0.959490 81.345100 -14.296800 9.560000
-15.137200 0.964487 81.768800 -14.296800 8.330000
-15.215700 0.969484 82.192500 -14.296800 6.870000
-15.771400 0.974482 82.526300 -14.296800 7.020000
-13.348700 0.217889 92.982700 -14.385600 6.340000
-13.949600 0.218888 93.330100 -14.385600 5.940000
-14.013300 0.219888 93.756300 -14.385600 5.950000
-14.077000 0.000000 94.182700 -14.385600 7.290000
-13.777300 0.000000 95.968600 -14.385600 5.740000
-13.281100 0.000000 96.473500 -14.385600 7.660000
-12.402700 0.233881 100.065000 -14.474400 6.550000
-12.455700 0.234880 100.492000 -14.385600 7.420000
-12.508700 0.000000 100.920000 -14.385600 11.490000
-12.561700 0.000000 101.348000 -14.385600 10.780000
-12.614700 0.000000 101.775000 -14.385600 6.070000
13.168900 3.040230 145.016000 -14.563200 12.950000
13.207800 3.049230 145.445000 -14.563200 15.760000
13.245900 3.511210 145.864000 -14.563200 14.070000
-5.621590 1.486150 9.068400 -12.165600 2.620000
-5.773590 1.545600 9.475910 -12.165600 4.150000
-6.069660 1.516540 10.316400 -12.432000 2.860000
-5.630500 1.685650 11.027600 -12.876000 4.780000
-6.203890 1.570700 10.733000 -12.520800 4.700000
-5.822170 1.783380 11.403000 -12.876000 6.600000
-6.329920 1.000880 11.720200 -12.698400 12.240000
9.586950 0.074628 9.910390 -11.100000 7.340000
-6.696690 1.033170 12.009100 -12.609600 7.230000
9.886540 0.076960 10.220100 -11.100000 7.240000
-5.602190 1.229830 13.011600 -13.320000 13.470000
-5.771950 1.267100 13.405900 -13.231200 6.270000
-6.051040 1.211410 13.761100 -13.231200 6.430000
-5.618500 1.246020 14.405400 -13.497600 6.580000
-6.223920 1.246020 14.154300 -13.231200 7.070000
-5.371410 1.342060 14.951100 -13.586400 5.650000
-5.398080 1.378330 15.397300 -13.675200 5.790000
-5.603170 1.565240 17.137200 -13.764000 4.860000
-5.871630 1.602510 17.500500 -13.764000 5.690000
-5.274380 1.814960 18.120500 -13.941600 7.560000
9.967960 1.245140 16.079700 -12.787200 8.430000
10.060900 1.452900 16.512400 -12.876000 5.240000
-10.190200 1.393090 16.438100 -12.254400 4.980000
-5.259650 1.836430 19.022400 -14.030400 5.020000
10.284400 1.485180 16.879300 -12.876000 9.850000
-10.416600 1.424050 16.803400 -12.254400 10.280000
1.162390 2.312430 20.086200 0.976800 5.410000
-10.906400 1.455000 17.002600 -12.076800 5.280000
1.305680 2.361630 20.506400 0.976800 7.410000
1.332880 2.410830 20.933600 0.976800 5.500000
1.360080 2.460030 21.360800 0.976800 7.780000
1.422890 0.796759 22.347400 0.976800 3.760000
1.011140 0.812082 22.800800 0.888000 16.790000
10.656800 1.659180 21.586000 -13.408800 5.070000
0.612346 2.351190 24.440800 0.976800 12.540000
-5.384090 1.764580 23.898900 -14.208000 11.670000
10.344300 1.385560 22.233600 -13.586400 6.510000
10.855600 1.385560 21.988500 -13.408800 12.620000
0.766837 2.392440 24.865600 0.888000 13.360000
-8.743850 1.795540 23.343800 -13.586400 7.240000
-8.894610 1.826490 23.746200 -13.586400 12.490000
-9.045360 1.857450 24.148700 -13.586400 12.900000
-9.013960 1.563950 24.641400 -13.586400 11.170000
-10.214900 1.589580 24.634600 -13.408800 9.410000
-8.414560 1.950320 25.735900 -13.764000 4.810000
-4.134920 1.428650 27.664700 -14.474400 13.180000
-8.176600 1.580020 26.741800 -13.941600 7.610000
-4.414910 1.450630 28.057200 -14.474400 9.880000
-8.294150 2.043200 27.126200 -13.941600 7.900000
-4.481260 1.539480 28.478800 -14.474400 5.400000
-4.715140 1.562460 28.877100 -14.474400 4.350000
-3.652010 1.585440 29.464300 -14.474400 6.610000
-3.870640 2.422820 29.815300 -14.474400 8.340000
10.942800 1.701560 28.056500 -13.852800 8.170000
-15.804600 -3.165880 25.495000 -0.532800 10.210000
-16.030400 -3.211100 25.859300 -0.532800 9.190000
-3.568750 2.324630 30.731100 -14.563200 7.760000
19.469000 -2.969930 23.972400 -0.621600 5.070000
19.739400 -3.011180 24.305300 -0.621600 6.980000
-4.956170 -0.369803 31.496900 -14.474400 6.320000
-4.776960 -0.374801 31.960300 -14.474400 6.260000
-4.840650 -0.379798 32.386400 -14.474400 5.700000
-7.861650 1.746280 31.742800 -14.119200 7.530000
-4.904660 0.076961 32.814700 -14.474400 7.990000
-7.966060 1.692400 32.164300 -14.119200 6.040000
-8.070750 1.610560 32.587000 -14.119200 6.760000
-20.212300 -6.435730 26.624100 -0.799200 7.620000
10.522600 -0.399787 32.824300 -14.119200 8.040000
-17.449500 -2.051080 29.658500 -12.432000 13.060000
-20.675300 -6.517200 26.802500 -0.710400 7.020000
11.800100 -0.404785 32.845200 -14.030400 10.900000
-16.559700 -1.968950 30.661300 -12.609600 9.890000
-17.898600 -2.076710 29.892100 -12.343200 5.960000
10.979900 -0.409782 33.582000 -14.119200 5.600000
-16.280700 -2.102350 31.288900 -12.787200 8.510000
-18.352200 -2.102350 30.120600 -12.254400 8.150000
-16.465900 -2.569470 31.644700 -12.787200 7.160000
-10.289800 2.600430 34.604600 -13.941600 8.050000
-16.664300 -2.600430 32.026000 -12.787200 6.090000
-10.418800 2.292330 35.038500 -13.941600 6.010000
-10.338200 2.204910 35.517700 -13.941600 6.850000
-10.456500 2.346270 35.924000 -14.030400 6.990000
10.925800 1.126600 36.743500 -14.208000 7.300000
11.334600 1.139260 37.070100 -14.208000 6.220000
-18.621900 -0.809529 34.007900 -12.698400 9.320000
11.966800 0.939765 37.329400 -14.208000 7.280000
12.098300 0.950092 37.739600 -14.208000 13.050000
12.232900 0.340822 38.159400 -14.208000 6.180000
12.364000 0.469750 38.568600 -14.208000 5.370000
10.903500 -1.329090 39.434300 -14.296800 6.550000
11.249500 -1.215210 39.788800 -14.296800 6.020000
-16.933400 -1.343080 37.717900 -13.142400 6.630000
11.366700 -1.227860 40.203300 -14.296800 8.050000
12.189900 -3.002880 39.867300 -14.119200 10.480000
19.855500 -1.098650 36.763700 -13.142400 5.650000
12.315600 -3.033840 40.278300 -14.119200 12.810000
19.773300 -1.109970 37.296200 -13.142400 10.920000
12.441200 -3.064800 40.689300 -14.208000 7.590000
-16.864000 -1.121300 39.168200 -13.231200 10.380000
13.863900 0.395794 44.422400 -14.208000 9.930000
13.992300 0.399458 44.833700 -14.208000 7.210000
-14.711000 -2.417720 44.993400 -13.764000 8.840000
-14.851100 -1.996400 45.422000 -13.764000 7.030000
13.755100 0.261199 46.258400 -14.208000 6.780000
-5.613780 1.580920 48.341200 -14.563200 5.960000
-16.582300 -2.771120 46.156000 -13.675200 5.840000
14.614900 -0.118939 49.150100 -14.208000 6.370000
14.570500 0.604678 50.058000 -14.296800 19.260000
14.652500 0.791235 51.825100 -14.296800 10.050000
14.927900 0.476418 53.989200 -14.296800 7.870000
14.735100 0.131933 54.936900 -14.385600 6.970000
14.846700 0.132932 55.353000 -14.296800 16.820000
14.958300 0.133932 55.769200 -14.296800 11.390000
15.070000 0.134931 56.185400 -14.296800 22.670000
15.617400 0.135931 56.482900 -14.296800 12.810000
14.963200 -0.319502 57.104600 -14.385600 11.550000
15.404700 -0.321835 57.433300 -14.385600 20.640000
15.961700 -0.324167 57.728200 -14.296800 10.930000
-17.453800 6.846340 58.697200 -13.852800 11.420000
12.554700 -0.338159 61.205200 -14.474400 21.270000
15.837200 0.144926 60.439900 -14.296800 19.830000
14.653000 0.145926 61.181000 -14.385600 12.290000
17.233000 0.342824 60.952100 -14.296800 11.750000
15.688400 0.542384 61.811000 -14.385600 10.870000
14.023700 0.962142 63.970600 -14.474400 7.330000
17.077500 0.968472 63.670100 -14.385600 7.240000
17.189100 0.974802 64.086300 -14.385600 8.240000
-24.588300 0.153921 61.634800 -13.497600 10.340000
-24.748000 0.154921 62.035100 -13.497600 8.870000
14.745900 0.438441 79.654600 -14.563200 7.950000
14.824300 0.440773 80.078300 -14.563200 8.300000
14.902700 0.443105 80.502000 -14.563200 8.450000
15.447900 0.954492 80.833500 -14.563200 6.060000
-15.058800 0.959490 81.345100 -14.385600 7.540000
-15.137200 0.964487 81.768800 -14.385600 8.140000
-15.215700 0.969484 82.192500 -14.385600 6.860000
-15.294100 0.974482 82.616100 -14.385600 7.860000
-13.885700 0.508405 92.902800 -14.474400 5.670000
-13.949400 0.510737 93.329000 -14.474400 7.860000
-14.013300 0.219888 93.756300 -14.474400 5.490000
-14.077000 0.220887 94.182400 -14.474400 8.110000
-14.140700 -0.221887 94.608600 -14.474400 13.870000
-14.204200 -0.520066 95.033600 -14.474400 14.600000
-14.267900 -0.522398 95.459800 -14.474400 10.530000
-13.838500 0.225885 96.394900 -14.474400 13.540000
-13.339800 0.226884 96.900100 -14.474400 17.720000
-13.960800 0.531727 97.246800 -14.474400 17.230000
-13.457200 0.534059 97.752700 -14.474400 11.760000
-13.633700 0.231882 99.034500 -14.474400 4.920000
-12.925400 0.232881 99.563900 -14.474400 6.600000
-12.980800 0.545719 99.990100 -14.474400 5.380000
-13.036200 0.548051 100.417000 -14.474400 12.580000
-13.091700 0.550384 100.845000 -14.474400 14.460000
-13.147300 0.236879 101.273000 -14.474400 11.370000
13.168900 3.040230 145.016000 -14.652000 7.380000
13.207800 3.049230 145.445000 -14.652000 8.980000
13.246800 3.058220 145.874000 -14.652000 6.590000
