VERSION .7
FIELDS x y z velocity SNR
SIZE 4 4 4 4 4
TYPE F F F F F
COUNT 1 1 1 1 1
WIDTH 201
HEIGHT 1
VIEWPOINT 0 0 0 1 0 0 0
POINTS 201
DATA ascii
-0.598884209708478 3.02975109340697 -0.559956516778663 0 5.96317956267464
-7.09842048423916 8.78968169416196 -0.175290735687233 0.618858829166909 6.66560346529084
-6.74361595131102 9.05584924987062 -0.438226839218085 0.618858829166909 6.66560346529084
-6.93594836635347 9.31412809745971 -0.0900799613948282 0.618858829166909 5.01158380664811
-7.0258163302259 9.6271029724448 -0.4625727747302 0.154714707291727 8.37382444556587
-7.76911832058714 9.04549337266196 0.277543664838121 0.928288243750363 5.58525427911063
-7.4011643956832 9.35307146920824 -0 0.928288243750363 5.58525427911063
-7.20831615532569 9.87717279011569 -0.56969489098351 0.154714707291727 5.01305105903791
-9.06865890348594 8.12888365562635 -1.23433893046427 1.23771765833382 6.60283007613625
-8.69079811584069 8.53166759222275 -1.23433893046427 1.23771765833382 6.60283007613625
-7.50008007954076 9.67241716568398 0.189898296994503 1.23771765833382 6.60283007613625
7.8465663120049 9.3260980278894 1.13938978196702 1.23771765833382 6.60283007613625
8.07652427524852 10.0008273294359 0.598910013598049 2.01129119479245 6.12802053597765
6.20054250151774 11.5449677462538 1.43154100811241 0.154714707291727 5.04345329184841
6.3389187040325 11.5567557839847 0.204505858301772 0.618858829166909 5.38534119567554
6.58760424306612 11.0538929313696 2.86308201622482 0.618858829166909 5.38534119567554
6.58760424306612 11.0538929313696 2.86308201622482 0.773573536458636 6.02072107267158
7.30529335086569 10.8507307100384 1.63604686641418 0.773573536458636 6.02072107267158
6.6857404122993 11.4518294554658 2.51250054485035 0.618858829166909 5.04545228898334
7.23025483928714 11.1824177683976 2.19843797674406 0.618858829166909 5.04545228898334
-2.13928192839568 13.6230785402173 -0.749854813773166 1.08300295104209 11.2117099177118
-1.70770367299736 13.6536564189377 1.1783432787864 1.08300295104209 11.2117099177118
-1.70231327308516 13.6105583864596 1.60683174379964 1.23771765833382 18.1681579197966
1.80699716483053 13.5839685561964 1.71395386005295 1.23771765833382 18.1681579197966
7.69358916630996 11.6606486927782 2.0815774862859 1.08300295104209 79.2092682182799
7.69358916630996 11.6606486927782 2.0815774862859 1.23771765833382 134.286402236158
8.80655220970964 11.8261196660734 0.457703587627778 1.08300295104209 23.8392071912622
8.68353982753336 11.8985934382235 0.800981278348609 1.23771765833382 36.1546094920499
-11.0963065236707 9.71473636865945 0.343277690720834 3.09429414583454 10.5550380759428
7.89324897044615 12.4579589769096 0.343277690720834 3.09429414583454 10.5550380759428
8.99357118286413 11.5984857984693 1.48753665979027 3.09429414583454 10.5550380759428
-11.2137378968805 9.5850948421402 -0 3.24900885312627 8.26442059600664
8.83779971746511 11.6306935425473 2.059666144325 3.24900885312627 8.26442059600664
-11.3354675744411 9.92412014450687 -0 2.93957943854282 12.1434640992889
-10.98455564373 10.3105221356332 -0.116860490458155 2.93957943854282 12.1434640992889
-11.3341034892378 9.92292589774504 -0.233720980916311 3.09429414583454 23.5102440086966
-10.98455564373 10.3105221356332 0.116860490458155 3.09429414583454 23.5102440086966
-11.0987404579816 10.1821431266754 0.350581471374468 3.24900885312627 15.8835339312633
-11.4509499169619 10.264300445307 0.238590168018734 2.32072060937591 5.77371438162441
-10.7313885727603 11.0066634875381 -0.47718033603747 2.32072060937591 5.77371438162441
-11.4509499169619 10.264300445307 0.238590168018734 2.47543531666763 7.85383439676174
-10.7336503113375 11.0089832428286 -0.357885252028103 2.47543531666763 7.85383439676174
-11.5702306452636 10.1296535206147 -0.238590168018734 2.93957943854282 8.16644986839338
-11.2137378968805 10.5256413239593 -0 2.93957943854282 8.16644986839338
-11.2123884603586 10.5243746914635 0.238590168018734 3.09429414583454 13.3959635281654
-11.3245065849036 10.3892641983121 0.596475420046837 3.24900885312627 8.05125203569119
-7.34074588185802 14.5724607174039 0.379796593989008 -2.01129119479245 6.86238019479927
-6.95266626728595 14.7398270796058 -0.886192052641014 -2.01129119479245 6.86238019479927
-6.57342992543399 14.9128162858779 -0.886192052641014 -2.01129119479245 6.86238019479927
-7.48303997549767 14.8549354309077 0.258066916428427 -2.01129119479245 6.85152875628858
-6.70246940758354 15.2055617951097 -0.774200749285282 -2.01129119479245 6.85152875628858
-7.49277717780801 15.2007225120769 0.26293610353085 -2.16600590208418 6.28447969610694
-6.57023790168998 15.6150005589823 -0.525872207061702 -2.16600590208418 6.28447969610694
-7.4916498091376 15.1984354003797 0.394404155296277 -2.01129119479245 6.17456415747718
-6.70305509238627 15.5623361970721 -0.394404155296277 -2.01129119479245 6.17456415747718
-12.7062070057818 15.7335727531114 -2.6902258740888 1.39243236562554 8.80777338756944
-7.56909073382596 18.4202546104513 -4.43096026320508 1.39243236562554 8.80777338756944
-12.549340252624 15.8589743449915 -2.6902258740888 1.54714707291727 10.4176464076285
-7.629784831686 18.5679606923638 -3.63971735906131 1.54714707291727 10.4176464076285
-12.9016871135631 15.9756277185438 -2.73161396445939 1.39243236562554 48.3002254379332
0.635714409986176 20.4795289160822 -3.05298031321932 1.39243236562554 48.3002254379332
0.635714409986176 20.4795289160822 -3.05298031321932 1.54714707291727 57.6456109040972
0.635714409986176 20.4795289160822 -3.05298031321932 1.701861780209 9.39726244297755
0.484560213641705 20.8178520276189 -2.93611982276116 1.39243236562554 105.704850841055
0.646080284855606 20.8134653988711 -2.93611982276116 1.54714707291727 128.095912411406
0.646773689942931 20.8358034319774 -2.77300205482999 1.701861780209 21.4956262653907
0.327489241508028 21.1077436317651 -3.14549486816536 1.39243236562554 101.182075698719
0.655723274181809 21.1241141361676 -2.97994250668297 1.54714707291727 162.945398634701
0.656427028598795 21.1467855727531 -2.81439014520059 1.701861780209 16.6046259931737
0.673433471263686 21.6946478342408 -3.40843097169621 1.39243236562554 6.92576693442316
0.677654918198661 21.8306416755231 -2.38590168018735 1.54714707291727 10.9524267036
-7.95328032321585 22.4799712005854 3.93673777230913 -2.32072060937591 8.36218904111054
6.37069734319421 23.3013649919142 -0.749854813773168 -2.32072060937591 8.36218904111054
7.45420410018526 22.8396269920988 2.62449184820608 -2.32072060937591 8.36218904111054
8.22355214316684 22.6486335902296 1.87463703443292 -2.32072060937591 8.36218904111054
6.43299735907529 23.5292325754525 -2.08888126693954 -2.32072060937591 15.3218611797934
7.55101194564221 23.1362455244637 2.65857615792305 -2.32072060937591 15.3218611797934
8.33942275222786 22.9677549288934 1.51918637595603 -2.32072060937591 15.3218611797934
7.55721575290495 23.1552539446662 2.46867786092854 -2.16600590208418 11.3547975820127
7.95169917975637 23.0767417412748 1.89898296994503 -2.01129119479245 8.58889314578121
8.73532166174715 22.8706322830128 -0 -2.01129119479245 8.58889314578121
8.72874965126404 22.8534255857737 -0.949491484972516 -1.85657648750073 7.8234071729798
7.65410313435245 23.4521161747261 2.50032757709429 -2.32072060937591 8.67403433935079
7.65410313435245 23.4521161747261 2.50032757709429 -2.16600590208418 13.4854171987052
8.44200111946204 23.2502678640977 1.73099601491143 -2.16600590208418 13.4854171987052
8.06241395451399 23.3980486979728 1.53866312436572 -2.01129119479245 13.8081380806517
-7.54434291480923 23.7707886775036 2.9215122614539 -3.09429414583454 5.32554491313411
7.18468546156253 23.9810257452191 1.94767484096926 -2.16600590208418 8.55114143391063
8.53851836498682 23.5160877544531 2.14244232506619 -2.16600590208418 8.55114143391063
7.97007768860937 23.7603198639031 1.55813987277541 -2.01129119479245 9.77980696702926
6.06157712425098 24.4691106708479 -5.19055345118309 -2.47543531666763 5.54235615093896
7.27821402336698 24.293205152452 4.39200676638569 -2.47543531666763 5.54235615093896
7.24298428800452 24.9065522318943 2.42485517700673 -2.16600590208418 8.17487033195256
7.81196430725845 24.6140127511339 3.43521150075954 -2.16600590208418 8.17487033195256
8.62188887871682 24.3697953311712 3.23314023600898 -2.16600590208418 8.17487033195256
-11.656833923201 23.6484141501964 -0 -2.16600590208418 10.0770525440466
-11.6564832495965 23.6477027327836 0.204505858301772 -2.01129119479245 6.6398795792771
10.0311984093173 23.8404105167124 5.11264645754432 -1.85657648750073 5.01837509164179
23.6512078167113 11.4702821732974 2.04505858301773 -1.85657648750073 5.01837509164179
8.66476896915014 24.4909960381557 4.499128882639 -1.701861780209 5.50696003077356
9.29338190343885 24.3317336681388 4.09011716603546 -1.701861780209 5.50696003077356
10.1015020689553 24.0074960470953 4.09011716603546 -1.701861780209 5.50696003077356
-11.5883166808854 24.0301180608293 0.206940451852984 -2.32072060937591 11.4614082975544
-9.93314168894324 24.7610819240976 -0 -2.32072060937591 11.4614082975544
-11.7952509073298 23.9292230034119 -0.206940451852984 -2.16600590208418 13.1292072363318
-12.3981111759295 23.5789509510866 1.44858316297089 -2.01129119479245 8.45024850796865
-11.7952509073298 23.9292230034119 -0.206940451852984 -2.01129119479245 8.45024850796865
-11.9967677241969 23.8153491770823 0.827761807411938 -1.85657648750073 7.53268920595726
-11.5100834351828 24.4016659198367 0.837500181616785 -2.47543531666763 5.52243109024748
-11.512509290845 24.4068087947577 0.628125136212589 -2.32072060937591 24.0444534052894
-11.7246498183076 24.3128253321332 0.209375045404195 -2.16600590208418 14.1993168922729
-12.1422912809962 24.1042348501521 0.41875009080839 -1.85657648750073 6.86319985968651
-11.9329414313239 24.2085580747891 0.41875009080839 -1.701861780209 5.92146299487865
-11.6481282637464 24.6943244229256 0.423619277910814 -2.32072060937591 10.3546881723324
-11.8609829557298 24.5955326034371 0.211809638955407 -2.16600590208418 5.08794264053373
-30.234256670168 14.6629067739065 4.46991376002446 -2.93957943854282 5.93787721629726
-11.7517649249913 31.5504643049223 3.94404155296276 -2.93957943854282 5.93787721629726
16.9090419243583 28.3730977313386 -7.62514700239467 -2.93957943854282 5.93787721629726
-11.8605775631857 31.8425982336716 3.98056045623093 -2.93957943854282 9.75473634665208
-10.0646529836037 32.6292047317897 2.1229655766565 -2.93957943854282 9.75473634665208
7.0948293967539 33.1257606577451 4.77667254747712 -2.93957943854282 9.75473634665208
16.7776676074511 28.152653761203 9.8187157920363 -2.93957943854282 9.75473634665208
7.58752418350959 40.045812671787 5.42183983854819 -3.09429414583454 11.3896081938419
9.23899901284827 40.0201580648222 1.9135905312523 -3.09429414583454 11.3896081938419
7.58752418350959 40.045812671787 5.42183983854819 -2.93957943854282 7.49843646448843
9.23899901284827 40.0201580648222 1.9135905312523 -2.93957943854282 7.49843646448843
8.17637784151734 47.2115310373856 6.37376591707191 -3.09429414583454 5.23977838226602
10.4865921935777 47.1314921624263 2.2495644413195 -3.09429414583454 5.23977838226602
8.15833492815591 47.1073487722458 7.12362073084509 -2.93957943854282 8.16625780683271
10.4824814491388 47.1130166161547 2.62449184820608 -2.93957943854282 8.16625780683271
8.41528592604602 50.9726553279454 3.6153714235492 -2.93957943854282 10.710248947254
10.8461142706476 50.6405108994459 -0 -2.93957943854282 10.710248947254
8.45604403987047 51.2195333670338 4.44556782451235 -3.09429414583454 6.63105728527998
10.9088935817267 50.9336275223791 1.21242758850337 -3.09429414583454 6.63105728527998
8.46628765893115 51.2815805117511 3.6372827655101 -2.93957943854282 20.5102827681809
10.9115200343967 50.9458904307116 0.404142529501121 -2.93957943854282 20.5102827681809
8.50698406420704 51.5280847728593 4.47234835357567 -2.93957943854282 5.13806534166811
8.53845196930312 51.7186906173251 5.72616403244964 -3.24900885312627 7.34697985490954
8.58927608816802 52.0265399662378 5.7602483421666 -3.403723560418 5.71348559319204
8.59633291892938 52.0692842538672 5.34880203201184 -3.24900885312627 15.1555500620227
10.6963167379105 51.948326647915 0.822892620309511 -3.24900885312627 15.1555500620227
8.60286186014995 52.1088310349768 4.93735572185708 -3.09429414583454 46.6791804118518
11.1060422609145 51.8541147667595 1.23433893046427 -3.09429414583454 46.6791804118518
8.61929285758653 52.2083560631683 3.70301679139282 -2.93957943854282 9.18400252244508
11.1087161795967 51.8665992939172 0.411446310154756 -2.93957943854282 9.18400252244508
8.65376636819818 52.4171673132903 4.96657084447162 -3.24900885312627 9.05054880192501
10.7605797751079 52.2604300877736 0.413880903705967 -3.24900885312627 9.05054880192501
10.7605797751079 52.2604300877736 0.413880903705967 -3.09429414583454 18.7850535130244
-30.1604842521132 49.5824060661169 6.33968160735496 -3.403723560418 19.1816274821236
-26.0350543548669 51.6834137794378 7.69818480893101 -3.403723560418 19.1816274821236
-16.124029126013 55.4459263815783 8.60385360998173 -3.403723560418 19.1816274821236
-11.9131886285251 55.6226814079068 13.1321976152353 -3.403723560418 19.1816274821236
8.54541918619738 57.3506660966093 6.79251600788031 -3.403723560418 19.1816274821236
10.3951196194728 57.3330539651571 3.62267520420284 -3.403723560418 19.1816274821236
-25.9776024807987 51.5693633557514 8.60385360998173 -3.24900885312627 11.9517543680402
-16.104680441363 55.3793917867633 9.05668801050708 -3.24900885312627 11.9517543680402
-11.8439082896547 55.2992114841959 14.4907008168113 -3.24900885312627 11.9517543680402
8.10947382715569 57.5138490167371 5.8868472068296 -3.24900885312627 11.9517543680402
8.14638019520246 57.7755956263001 6.37376591707192 -3.403723560418 67.0121299272278
10.4557404250339 57.6674008552238 3.18688295853596 -3.403723560418 67.0121299272278
8.13148724173741 57.6699721178877 7.28430390522505 -3.24900885312627 42.7964836789143
10.4557404250339 57.6674008552238 3.18688295853596 -3.24900885312627 42.7964836789143
8.11457551799988 57.550031127093 8.19484189337818 -3.09429414583454 6.70982915305846
10.8997989137358 57.5275010534085 4.09742094668909 -3.09429414583454 6.70982915305846
8.16672450286147 57.9198811205244 7.78096098967221 -3.403723560418 38.635081287535
10.9637166253065 57.8648491319207 3.66162870102222 -3.403723560418 38.635081287535
8.13892452412968 57.7227186641768 9.15407175255555 -3.24900885312627 26.083387617563
10.9517908116791 57.8019064793594 4.57703587627777 -3.24900885312627 26.083387617563
10.93719715779 57.7248833667199 5.49244305153332 -3.09429414583454 5.63701645739174
-0.59800898142212 3.02532331953251 -0.584302452290779 0 6.79983836912143
0.0728177580563772 3.12842298959674 -0.243459355121158 0 6.79983836912143
-6.6442951486841 5.13611878743415 -2.59040753848912 0.62293026883248 5.19766847033522
-7.83710578677964 8.03813835706941 -2.97263872602934 -0.62293026883248 5.61067400498204
8.90073005285858 7.42469927456471 -0.720639691158629 -0.41528684588832 5.13020540569877
7.65723769366757 8.91523207046908 -2.03532020881288 -0.5191085573604 7.19078946728892
-6.12811971680205 11.1724390686774 1.79673004079415 -1.97261251796952 8.29771429827537
10.4640857305336 6.82153053596964 -3.09436840358992 -1.97261251796952 8.29771429827537
8.41047130392205 9.59113903334407 -1.69691170519447 -0.934395403248721 5.6714573875891
-12.4860015463836 6.85774658886351 -2.35181737047039 0.10382171147208 6.13286035224702
8.79160555209001 16.7200336529076 -3.11871433910203 -1.97261251796952 7.20003530575036
-12.6189026553136 16.2738649935621 -2.2495644413195 0.5191085573604 16.7115924688828
0.792685746499919 20.423549156322 -3.37434666197925 0.5191085573604 16.7115924688828
-12.6292701716815 16.2872353765739 -2.08888126693953 0.62293026883248 27.3559907166858
0.793689448275058 20.4494095336952 -3.21366348759929 0.62293026883248 27.3559907166858
-12.6189026553136 16.2738649935621 -2.2495644413195 0.726751980304561 9.64797290281708
0.793689448275058 20.4494095336952 -3.21366348759929 0.726751980304561 9.64797290281708
0.805715045976195 20.7592490720845 -3.26235535862352 0.5191085573604 57.472063126598
0.806683058126397 20.7841899062308 -3.09923759069234 0.62293026883248 96.4014378839495
0.646773689942931 20.8358034319774 -2.77300205482999 0.726751980304561 33.9994543346909
0.164106757149698 21.1563348781431 2.81439014520059 0.5191085573604 53.2044084444037
0.164573337276817 21.21648551172 2.31773306075343 0.62293026883248 105.746144437024
0.164833645108536 21.2500439084302 1.98662833778865 0.726751980304561 34.2637569230218
0.166341565877002 21.4444422214642 3.02376519060478 0.5191085573604 14.110699228212
1.78629528293266 20.859360340538 5.54356951610877 0.5191085573604 14.110699228212
0.163058246478504 21.0211628519062 -5.20759560604157 0.62293026883248 26.0469135966239
1.78629528293266 20.859360340538 5.54356951610877 0.62293026883248 26.0469135966239
0.163058246478504 21.0211628519062 -5.20759560604157 0.726751980304561 9.53416806363926
0.84840846747041 21.8592451252351 -2.04505858301773 0.62293026883248 5.18334025615491
1.03185061241587 22.1473500490238 -2.24712984776829 0.62293026883248 5.06174633440306
-9.86329516820457 30.2210644526307 -8.69149897782534 -2.80318620974616 8.90486087596981
-10.7333822979695 31.1495047412246 -6.51253774949098 -2.80318620974616 5.20404592621635
