VERSION .7
FIELDS x y z velocity intensity
SIZE 4 4 4 4 4
TYPE F F F F F
COUNT 1 1 1 1 1
WIDTH 888
HEIGHT 1
VIEWPOINT 0 0 0 1 0 0 0
POINTS 888
DATA ascii
-6.577030 0.377741 9.589420 -11.899200 2.370000
-6.743780 0.391732 9.996850 -11.899200 6.580000
-7.143340 0.354435 9.716800 -11.544000 4.520000
-6.984620 0.405722 10.353900 -11.899200 6.690000
-7.398460 0.367094 10.063800 -11.544000 5.760000
8.240600 -0.459669 9.949300 -11.455200 5.790000
8.515290 -0.474991 10.280900 -11.455200 5.230000
-6.546820 0.575540 12.121800 -12.698400 5.850000
-6.752250 0.549583 12.502200 -12.698400 8.190000
-6.956860 0.566237 12.881100 -12.698400 6.270000
-5.923460 1.756770 13.757800 -13.231200 3.960000
-6.012420 1.771220 14.189700 -13.231200 5.460000
8.663850 0.791253 12.843100 -12.432000 5.900000
-5.961910 1.624350 14.697100 -13.320000 5.210000
-9.776920 -1.125870 13.086600 0.000000 7.330000
-9.963670 1.416170 12.916400 -11.632800 6.990000
-10.034200 -1.155500 13.431000 0.000000 5.840000
-5.860220 1.815520 15.645200 -13.497600 8.270000
-10.225900 1.453440 13.256300 -11.632800 9.200000
-6.586310 1.185130 15.883800 -13.320000 4.580000
-5.466720 1.636810 16.719900 -13.675200 7.640000
-6.747960 1.323750 16.273700 -13.320000 7.800000
-5.630280 1.773710 17.563200 -13.764000 5.270000
-9.229830 1.773710 15.968000 -12.787200 6.220000
-9.444480 1.814960 16.339300 -12.787200 5.090000
-6.150500 1.452900 18.331700 -13.675200 7.420000
9.210520 -0.569628 17.053800 -13.142400 9.910000
-6.145300 1.362900 18.795400 -13.764000 9.210000
9.280550 -0.582286 17.504900 -13.142400 9.360000
-6.426720 1.392520 19.155000 -13.764000 12.420000
9.482310 -0.594945 17.885400 -13.142400 15.160000
9.684060 -0.607603 18.265900 -13.142400 12.350000
0.929941 2.281040 20.969900 0.799200 16.440000
-5.332890 1.777320 20.352100 -14.030400 9.340000
8.632310 -1.256280 19.227900 -13.586400 13.180000
1.113810 2.327590 21.389900 0.799200 5.980000
-5.441720 1.813590 20.767400 -14.030400 7.330000
9.795170 0.449738 19.184400 -13.320000 11.000000
-5.550560 1.849860 21.182800 -14.030400 8.590000
9.990380 0.526681 19.566700 -13.320000 15.280000
-5.659390 1.886140 21.598100 -14.030400 10.370000
10.186300 0.537008 19.950300 -13.320000 16.960000
0.571187 1.217800 22.798100 0.799200 9.630000
-5.603810 1.640750 22.078600 -14.030400 14.310000
-0.268621 1.240780 23.233900 0.799200 6.270000
-5.882750 1.671710 22.450500 -14.030400 8.950000
-15.930900 -2.833430 17.316000 0.088800 4.060000
-0.136325 2.341650 23.583100 0.799200 6.640000
0.138803 2.384220 24.011900 0.799200 6.230000
0.141325 2.351190 24.448100 0.799200 6.310000
0.287603 2.392440 24.875800 0.799200 9.330000
9.913330 -0.825434 23.396100 -13.675200 9.950000
10.081400 -0.839425 23.792700 -13.675200 7.610000
18.420400 1.645090 18.678300 -10.833600 6.240000
10.062600 -0.853415 24.267500 -13.675200 3.610000
18.722300 1.672050 18.984500 -10.833600 10.790000
10.032400 -1.197650 24.731600 -13.675200 8.920000
10.359900 0.980627 25.538900 -13.764000 5.590000
-20.781600 0.584660 18.768600 -9.590400 7.530000
10.520600 1.082510 25.935000 -13.764000 7.460000
-21.102500 0.505716 19.058500 -9.590400 4.410000
10.682400 1.099170 26.334000 -13.764000 8.300000
-21.422300 0.513378 19.347300 -9.590400 6.030000
-3.489510 1.798790 31.644000 -14.474400 5.500000
-3.721990 1.823100 32.050600 -14.385600 7.960000
-6.450010 6.489430 31.444300 -25.663200 7.520000
-4.186800 6.574820 32.250700 -25.752000 4.160000
10.974800 -0.692597 31.304000 -14.030400 5.360000
18.976900 -0.076961 27.216500 -12.343200 4.130000
9.142180 -0.701592 32.335300 -14.030400 7.170000
19.223100 -0.181906 27.569600 -12.343200 8.100000
19.469600 -0.184239 27.923100 -12.343200 7.160000
-17.708900 -0.079959 29.575400 -12.343200 9.240000
-17.558400 -7.039850 28.817700 -0.710400 5.940000
-4.281190 2.615210 34.540500 -14.474400 10.720000
-17.930300 -0.080959 29.945100 -12.343200 8.790000
-3.919290 0.746565 35.541500 -14.474400 7.340000
-7.563780 1.075960 35.820800 -14.208000 7.530000
-7.652040 1.203180 36.238800 -14.208000 5.310000
-17.603800 -0.974058 32.594600 -12.609600 5.620000
-7.741010 1.217170 36.660200 -14.208000 9.560000
-17.987000 -1.680580 32.848400 -12.609600 7.660000
-15.891000 -4.329660 34.155500 -1.243200 10.870000
-16.337300 -4.378860 34.418700 -1.243200 9.450000
20.093900 -1.164570 34.153000 -12.876000 5.970000
20.842100 -1.177230 34.207100 -12.787200 6.130000
11.011700 1.565480 38.947600 -14.208000 8.430000
21.074500 -0.344487 34.588600 -12.787200 7.560000
11.128800 1.582130 39.361900 -14.208000 5.110000
20.139700 -1.087320 36.116300 -12.964800 5.940000
24.154800 -6.939480 32.856800 -1.065600 6.210000
13.094100 0.101948 41.955900 -14.208000 6.350000
-15.960600 -1.562870 40.921600 -13.408800 6.700000
-8.328700 1.063690 43.581200 -14.296800 7.810000
-16.117100 -1.578200 41.322800 -13.408800 6.000000
-8.410650 0.796885 44.010100 -14.296800 8.610000
-8.491520 0.804548 44.433200 -14.296800 6.480000
-9.255340 2.066920 45.120500 -14.208000 7.990000
12.724900 0.569697 47.442400 -14.208000 5.900000
12.836600 0.574694 47.858600 -14.208000 8.770000
12.948200 0.579692 48.274700 -14.208000 8.760000
12.119200 0.584689 48.933500 -14.296800 5.420000
14.621900 0.829214 54.514900 -14.296800 7.240000
14.733500 0.835544 54.931100 -14.296800 13.550000
14.845200 0.841874 55.347200 -14.296800 6.690000
14.972000 5.018690 60.452200 -14.296800 8.960000
15.476700 0.340492 60.977100 -14.296800 8.100000
15.329700 0.936822 61.896200 -14.296800 6.990000
15.433300 0.943152 62.314500 -14.296800 7.250000
15.897500 1.349210 62.634900 -14.296800 17.520000
16.003500 1.358210 63.052500 -14.296800 13.490000
15.942800 2.359630 64.371800 -14.296800 7.250000
15.655000 0.987462 65.364600 -14.296800 10.840000
15.755400 0.993791 65.783600 -14.296800 7.920000
15.856400 0.789580 66.205300 -14.296800 10.700000
17.191000 -1.714300 69.411700 -14.296800 10.000000
17.294600 -1.724620 69.829800 -14.296800 20.270000
25.416400 0.989474 81.438500 -14.119200 9.700000
25.544800 0.994471 81.849800 -14.119200 16.690000
25.673100 0.999469 82.261100 -14.119200 10.700000
15.860500 0.210892 89.525600 -14.474400 13.080000
15.935700 0.211892 89.949900 -14.474400 25.090000
16.010700 0.496745 90.373100 -14.474400 24.000000
-13.754600 2.230650 92.025400 -14.385600 13.480000
-13.369300 0.000000 102.983000 -14.474400 12.050000
-13.424700 0.241877 103.410000 -14.474400 9.880000
-13.480000 0.566709 103.836000 -14.474400 6.050000
-12.932300 0.894200 104.337000 -14.474400 6.500000
-12.985300 0.897865 104.765000 -14.474400 5.780000
-12.227200 0.901530 105.290000 -14.474400 8.510000
-12.276900 0.905195 105.718000 -14.474400 7.030000
-13.144600 0.578369 106.050000 -14.474400 11.090000
-11.759200 1.576140 106.636000 -14.474400 14.020000
-11.806400 1.582470 107.064000 -14.474400 12.950000
-11.853600 1.588800 107.493000 -14.474400 8.400000
-11.900900 1.595130 107.921000 -14.474400 7.470000
-11.456600 0.938177 109.710000 -14.474400 7.420000
-11.501400 0.941842 110.138000 -14.474400 4.730000
-11.546100 0.945507 110.567000 -14.474400 9.230000
-11.590900 0.949172 110.996000 -14.474400 12.380000
-11.635300 1.299310 111.421000 -14.474400 11.270000
-55.150300 -14.703200 98.900300 -12.432000 8.930000
14.961000 2.766110 154.809000 -14.563200 9.570000
15.000500 3.738400 155.218000 -14.563200 5.200000
15.041000 4.111430 155.638000 -14.563200 10.820000
-6.874090 0.619150 5.160760 -8.436000 6.010000
-7.165250 0.650108 5.488090 -8.613600 5.170000
-7.037110 1.220640 6.233440 -9.412800 4.570000
7.876840 0.681066 5.230510 -7.992000 3.940000
8.250990 0.352413 5.478960 -8.169600 5.040000
8.543060 0.367735 5.816320 -8.258400 5.190000
8.899020 0.383057 6.058670 -8.347200 4.530000
-6.698600 0.502242 8.966200 -11.366400 6.190000
-6.542110 0.502242 9.081010 -11.544000 9.570000
-6.721750 0.485611 9.483630 -11.544000 3.750000
-6.392000 1.405420 10.135900 -12.076800 8.980000
-6.539180 1.455610 10.548600 -12.165600 8.050000
-5.942960 1.157860 11.421400 -12.520800 5.510000
-6.052770 1.124430 11.854700 -12.609600 5.200000
7.532360 1.042080 10.982300 -11.899200 4.420000
8.874060 -0.362440 10.547500 -11.188800 5.700000
-6.153520 1.160700 12.284900 -12.698400 5.950000
7.775340 1.075690 11.336600 -11.899200 6.490000
9.151370 -0.373767 10.877200 -11.188800 7.130000
7.228740 -2.048800 12.072600 -12.343200 10.340000
-6.219000 1.389430 14.143100 -13.053600 7.030000
-6.391750 1.428020 14.536000 -13.053600 14.000000
-6.206810 1.349860 15.558400 -13.231200 6.110000
9.391050 0.649507 13.921100 -12.165600 14.610000
-9.938810 1.291460 14.022500 -11.632800 4.520000
-5.805780 1.490710 16.160100 -13.408800 11.910000
-10.187300 1.323750 14.373100 -11.632800 4.510000
-5.947620 1.636810 16.554900 -13.408800 7.910000
-10.438100 1.300220 14.727000 -11.632800 11.710000
-6.049710 1.419080 16.538000 -13.408800 14.690000
-9.619460 1.523420 15.253700 -12.076800 10.260000
-5.374300 1.453690 17.220200 -13.586400 7.610000
-9.723250 1.659590 15.684900 -12.165600 9.360000
-5.503270 1.445460 17.633400 -13.586400 4.690000
-10.439400 1.698190 15.735400 -11.988000 7.260000
-5.631260 1.479070 18.043500 -13.675200 7.160000
-9.288900 1.393090 16.963700 -12.609600 7.370000
-5.758180 1.557530 18.450200 -13.586400 6.350000
-9.394920 1.424050 17.395300 -12.698400 4.160000
10.993700 -1.741050 17.432800 -12.343200 8.130000
9.599840 -0.375456 18.801800 -13.053600 5.340000
11.085200 -1.777320 17.882000 -12.432000 8.870000
10.878300 -1.996110 18.489600 -12.520800 4.260000
11.451700 -1.813590 18.159200 -12.343200 9.690000
10.806900 -1.968350 19.033500 -12.698400 5.740000
8.843260 0.526681 20.111200 -13.320000 10.280000
11.018800 -2.006950 19.406800 -12.698400 6.750000
10.106400 0.600292 20.471000 -13.053600 10.170000
-5.182520 1.288330 22.204600 -13.852800 8.280000
10.297100 0.611618 20.857200 -13.053600 8.150000
-5.280310 1.312630 22.623500 -13.852800 10.340000
10.323700 0.622944 21.323700 -13.142400 9.890000
-10.302800 1.629550 21.280600 -12.787200 10.180000
-4.754620 1.336940 23.179100 -13.941600 11.040000
10.511400 0.634270 21.711400 -13.142400 16.650000
-4.841890 1.286730 23.604600 -13.941600 18.430000
-4.928350 1.309710 24.026100 -13.941600 15.750000
10.227000 1.043170 22.780000 -13.231200 8.260000
10.403400 1.061150 23.172800 -13.231200 5.340000
10.556700 -2.016920 23.514200 -13.231200 5.590000
10.732600 -2.050540 23.906100 -13.231200 7.250000
10.422700 0.144592 24.598400 -13.408800 8.480000
10.590900 0.146924 24.995100 -13.408800 10.600000
10.905600 -0.149257 25.329200 -13.408800 9.870000
10.024200 -0.584660 26.146700 -13.586400 5.510000
10.331700 -0.593654 26.489700 -13.586400 8.910000
18.839300 1.494590 22.392100 -11.277600 9.450000
18.878000 2.009200 23.991100 -11.544000 7.810000
10.778500 1.794690 28.114200 -13.586400 5.440000
18.908600 2.037490 24.512300 -11.632800 10.110000
19.057300 1.700330 25.508500 -11.810400 7.090000
19.115000 1.723300 26.001300 -11.810400 10.810000
18.863600 1.723300 26.184300 -11.899200 7.730000
18.899800 2.049610 26.665600 -11.988000 10.890000
18.943300 1.974160 27.168400 -12.076800 5.500000
-4.071580 2.281370 32.849400 -14.208000 6.110000
18.980100 1.896030 27.673200 -12.076800 10.530000
-4.124460 2.311000 33.276000 -14.208000 10.900000
11.118000 -0.597664 31.712400 -13.675200 6.480000
11.261100 -0.500061 32.120600 -13.675200 8.290000
19.030200 1.838190 28.684400 -12.254400 11.490000
-16.990300 -2.051080 29.923900 -12.254400 13.020000
11.404700 -0.186571 32.530300 -13.675200 8.090000
-17.208700 1.861170 30.308600 -12.343200 6.040000
11.102000 -0.188903 33.089600 -13.764000 6.350000
9.869660 -1.147210 33.908000 -13.941600 10.710000
11.491000 -1.147210 33.393400 -13.764000 10.510000
9.518820 -1.824280 34.426400 -13.941600 6.900000
-16.898600 -1.053340 36.321200 -12.876000 9.120000
11.714100 0.960419 38.311300 -13.852800 12.430000
12.092000 0.991400 39.547200 -13.852800 5.830000
-8.320250 2.263860 43.537000 -14.030400 7.530000
-17.638500 -1.748670 41.628000 -13.053600 8.650000
-7.964440 1.341790 44.955600 -14.119200 6.210000
-15.244300 -1.639490 43.482300 -13.408800 6.490000
-8.038800 1.496970 45.375400 -14.119200 6.980000
-17.232900 -1.654810 43.197200 -13.142400 8.010000
-16.727600 -0.112942 45.728100 -13.408800 8.200000
-2.666470 -0.118939 51.207600 -14.296800 10.190000
-2.688880 0.000000 51.638000 -14.296800 7.560000
-15.588600 -1.196300 55.135900 -13.852800 11.270000
14.956800 0.848204 55.763400 -14.030400 6.640000
-13.121000 -1.205300 56.217100 -13.852800 10.280000
15.068400 0.854534 56.179500 -14.030400 7.110000
34.119900 0.513066 49.747300 -12.165600 6.320000
13.174100 0.936822 62.390600 -14.208000 9.980000
15.433300 0.943152 62.314500 -14.119200 5.600000
-18.095200 6.428880 62.167500 -13.675200 5.900000
-18.215100 6.471460 62.579300 -13.675200 8.510000
15.846800 1.172340 63.984100 -14.119200 8.380000
15.950400 1.180000 64.402300 -14.119200 6.470000
16.054700 0.981132 64.823800 -14.119200 5.640000
16.261100 1.202990 65.656900 -14.119200 7.210000
15.854900 1.210650 66.199300 -14.119200 10.230000
15.955300 1.218320 66.618200 -14.119200 8.340000
16.055600 1.225980 67.037200 -14.119200 9.530000
16.676200 1.019110 67.333100 -14.119200 7.540000
16.456000 1.475140 68.709000 -14.119200 7.480000
16.559400 0.604685 69.140600 -14.119200 11.490000
16.659700 0.608349 69.559600 -14.119200 10.310000
17.297700 1.057090 69.842400 -14.119200 8.620000
16.610300 5.036790 71.166900 -14.119200 9.840000
16.084400 1.354590 90.788900 -14.208000 24.930000
16.158700 1.647410 91.208600 -14.208000 22.500000
16.232900 1.942870 91.627300 -14.208000 14.520000
-12.748500 2.240980 92.605000 -14.208000 8.210000
16.308000 1.951860 92.051500 -14.208000 6.650000
-13.344900 2.251300 92.956200 -14.119200 10.080000
-13.405300 2.480450 93.377200 -14.119200 10.950000
-11.278000 0.000000 108.000000 -14.208000 12.040000
-10.486800 0.000000 108.512000 -14.208000 12.250000
-11.590900 0.949172 110.996000 -14.208000 11.410000
-11.635600 0.952837 111.424000 -14.208000 9.040000
-11.680600 0.608687 111.855000 -14.208000 7.240000
-11.725400 0.611019 112.284000 -14.208000 8.220000
15.082500 4.122760 156.066000 -14.296800 6.750000
15.124800 3.769390 156.504000 -14.296800 11.370000
15.166200 3.779710 156.933000 -14.296800 13.660000
-6.298440 1.192910 6.386640 -10.123200 2.910000
-6.580720 1.442580 8.951490 -11.544000 4.010000
-6.797630 0.341777 9.435700 -11.544000 7.470000
8.267650 1.390950 8.066480 -10.389600 3.070000
-6.353620 0.391732 10.249300 -12.076800 7.610000
-6.973770 0.354435 9.839210 -11.632800 7.120000
-6.626650 1.350000 10.508000 -12.076800 7.620000
-6.808680 0.339788 10.983300 -12.076800 5.660000
-7.119160 0.557554 11.288900 -12.076800 7.750000
-6.984170 0.660744 11.870800 -12.254400 6.990000
-7.438400 0.575540 11.596100 -11.988000 6.920000
7.202430 0.681392 12.241800 -12.432000 5.200000
9.067270 -0.373767 10.947400 -11.455200 8.990000
-6.195010 0.296827 12.795800 -12.876000 4.450000
9.143380 -0.475674 11.437300 -11.544000 9.240000
-6.382740 0.305822 13.183600 -12.876000 8.250000
9.114460 -0.489664 12.005800 -11.632800 5.110000
-6.570010 0.361448 13.570400 -12.876000 9.840000
-6.758190 0.323812 13.959100 -12.876000 7.440000
-5.582550 1.649960 16.223200 -13.586400 6.460000
-10.058200 1.691210 14.425400 -11.899200 11.720000
-5.595420 1.636810 16.677300 -13.586400 6.250000
-6.300640 1.527980 16.434300 -13.320000 5.210000
-10.303500 1.732460 14.777200 -11.899200 10.100000
-5.502510 1.621000 17.164600 -13.675200 5.910000
-5.965110 1.565240 17.014600 -13.497600 6.130000
-5.395990 1.659590 17.647700 -13.675200 6.530000
-6.241210 1.602510 17.372200 -13.497600 5.710000
-5.522980 1.639780 18.063100 -13.675200 4.050000
-5.651430 1.557530 18.483200 -13.675200 5.010000
-10.916900 1.714310 16.455100 -12.076800 5.230000
-11.024300 1.751580 16.898300 -12.076800 6.150000
-5.493160 1.579920 19.429000 -13.852800 8.960000
-5.610030 1.613540 19.842300 -13.852800 7.980000
9.259160 -0.607603 18.485000 -13.142400 9.750000
9.452060 -0.620261 18.870100 -13.142400 10.230000
11.595100 -1.730580 18.076100 -12.343200 8.180000
8.663640 -0.965851 19.702700 -13.231200 7.710000
10.337300 -0.965851 18.878400 -12.876000 9.500000
11.827000 -1.765200 18.437700 -12.343200 8.530000
8.986260 -1.239710 20.016300 -13.408800 7.760000
10.544100 -0.985168 19.256000 -12.876000 11.810000
12.058900 -1.799810 18.799200 -12.343200 5.960000
9.761840 0.467728 20.163100 -13.231200 14.600000
10.750800 -1.004480 19.633500 -12.876000 10.640000
9.948290 0.600292 20.548300 -13.231200 17.890000
-5.410020 1.384480 22.588600 -13.941600 6.560000
10.136000 0.611618 20.936000 -13.231200 16.890000
-9.945550 1.869030 20.952800 -12.964800 8.290000
-5.687370 1.410110 22.963700 -13.941600 6.700000
10.320700 0.842726 21.317600 -13.231200 11.470000
-10.293900 1.903640 21.262100 -12.876000 8.740000
-9.236860 0.858049 22.276000 -13.231200 7.830000
-4.926630 1.461390 24.017700 -14.119200 7.940000
-5.013060 1.487030 24.439100 -14.119200 5.080000
-4.907740 1.512670 24.899000 -14.119200 4.380000
10.518800 -2.961420 22.954700 -13.320000 8.450000
-13.054000 2.395340 22.187500 -12.609600 5.240000
10.345900 -2.793110 23.528500 -13.320000 8.130000
10.052500 -0.965305 25.198400 -13.586400 5.940000
18.627500 1.896200 20.247100 -10.922400 13.690000
10.015500 -0.895386 25.679000 -13.586400 9.840000
18.910200 2.098630 20.554300 -10.922400 12.820000
-20.659700 0.602649 20.157000 -9.945600 10.880000
10.172000 -0.909377 26.080200 -13.586400 7.580000
-20.968100 0.611644 20.457900 -9.945600 9.930000
-9.089780 1.743410 27.801000 -13.675200 15.040000
-9.060230 1.769050 28.262700 -13.675200 9.560000
18.619300 1.794690 23.662300 -11.632800 9.590000
-9.195870 1.538550 28.685800 -13.675200 7.360000
18.885300 1.820330 24.000400 -11.632800 8.900000
-9.327240 1.560530 29.095600 -13.675200 9.550000
-18.153800 1.968710 25.613000 -11.632800 9.240000
-4.072430 2.178990 32.856300 -14.296800 4.340000
10.690900 -0.077960 31.864500 -13.852800 4.710000
-18.151900 0.894774 28.783700 -12.076800 6.260000
-4.632490 2.235580 33.650200 -14.296800 5.990000
10.828000 -0.078960 32.273000 -13.852800 9.630000
10.964700 -0.293180 32.680400 -13.852800 9.290000
9.947640 -0.296845 33.454000 -13.941600 9.000000
12.984400 -1.492810 33.291000 -13.586400 10.190000
11.226400 -2.265360 34.335900 -13.852800 8.490000
10.334200 -2.433670 35.504000 -14.030400 5.270000
-30.509800 0.569689 23.933100 -8.702400 7.950000
-30.847300 0.697275 24.197800 -8.702400 8.460000
-31.186300 0.704937 24.463700 -8.702400 7.930000
-16.628500 -0.449761 35.032200 -12.787200 7.420000
-18.362000 -0.939765 34.634200 -12.520800 8.750000
-18.563800 -0.950092 35.014800 -12.520800 5.380000
-18.492200 -0.960419 35.539000 -12.609600 6.340000
19.238500 -1.177230 35.134000 -12.876000 11.330000
21.069200 -0.970746 34.579900 -12.609600 10.200000
11.837200 1.315100 38.714000 -13.941600 6.490000
18.967400 -0.970746 35.776000 -13.053600 7.220000
19.718500 -1.189890 35.360800 -12.876000 8.100000
11.961900 1.455620 39.121700 -13.941600 9.300000
18.609500 -0.981073 36.447700 -13.142400 7.390000
19.928200 -1.202550 35.737000 -12.876000 6.560000
-7.586360 1.682060 42.821600 -14.208000 7.270000
-7.994550 1.698710 43.185200 -14.119200 8.040000
-16.818000 -1.970340 40.559000 -13.231200 7.150000
-6.895270 1.441010 43.820100 -14.208000 8.110000
-16.111100 -1.989650 41.307400 -13.320000 6.630000
-6.962220 1.455000 44.245600 -14.208000 7.710000
-16.267500 -2.008970 41.708400 -13.320000 9.940000
-7.965120 1.200580 44.959500 -14.208000 9.790000
-15.433400 -1.624160 42.958300 -13.497600 7.840000
-8.040730 1.105000 45.386300 -14.208000 9.450000
-2.639380 3.025340 50.687400 -14.385600 8.380000
-2.660720 3.367520 51.097200 -14.385600 6.150000
-2.683080 3.395820 51.526600 -14.385600 8.040000
12.808500 -2.780260 50.464600 -14.119200 6.450000
12.914400 -2.803240 50.881700 -14.119200 6.090000
12.327100 -2.826220 51.469700 -14.119200 7.090000
14.956800 0.848204 55.763400 -14.119200 9.260000
15.069000 0.674641 56.181800 -14.119200 5.370000
15.580500 1.126370 61.385900 -14.119200 7.120000
15.899200 0.949482 62.641800 -14.119200 5.460000
16.004400 1.157020 63.056300 -14.119200 6.610000
16.111200 0.962142 63.477000 -14.119200 10.170000
16.215400 1.376200 63.887600 -14.119200 11.030000
15.950400 1.180000 64.402300 -14.208000 9.050000
16.427400 1.394190 64.722800 -14.119200 11.080000
15.278000 0.571702 65.458700 -14.119200 19.150000
16.263100 0.575367 65.664900 -14.119200 15.660000
16.364700 1.210650 66.075100 -14.208000 18.160000
15.956100 1.006450 66.621600 -14.208000 19.890000
16.056400 1.012780 67.040600 -14.208000 16.190000
16.156800 1.019110 67.459600 -14.208000 14.080000
16.156500 -1.484140 69.222600 -14.208000 10.900000
16.656700 -1.493130 69.547000 -14.208000 21.990000
16.760600 -0.166915 69.981000 -14.119200 25.450000
15.910000 0.000000 70.621200 -14.208000 24.430000
15.593700 -0.168914 71.132700 -14.208000 18.380000
16.099200 -0.396463 71.460900 -14.208000 10.860000
16.747400 -0.398795 71.754300 -14.119200 8.830000
16.926500 3.341840 72.521600 -14.208000 10.900000
16.784300 1.069430 90.665900 -14.296800 9.830000
16.160200 1.074430 91.216800 -14.296800 8.920000
16.235300 1.079430 91.641100 -14.296800 9.820000
16.309000 1.662730 92.057000 -14.296800 8.260000
-13.346600 1.670390 92.968200 -14.208000 9.400000
-13.407800 1.678060 93.394700 -14.208000 7.920000
-13.468200 1.978850 93.815500 -14.208000 8.510000
-11.277600 -0.923518 107.996000 -14.296800 14.260000
-10.486400 -0.927183 108.508000 -14.296800 13.430000
-10.527800 -0.930848 108.937000 -14.296800 6.780000
-11.635600 0.952837 111.424000 -14.296800 11.750000
-11.680400 0.956501 111.853000 -14.296800 12.480000
-11.725100 0.960166 112.281000 -14.296800 8.870000
-11.769900 0.963831 112.710000 -14.296800 5.710000
-54.372900 -13.779400 114.550000 -12.698400 6.540000
-54.556600 -13.825900 114.937000 -12.698400 7.170000
-53.831500 -14.267200 115.703000 -12.698400 6.740000
-54.012100 -14.315100 116.092000 -12.698400 5.450000
15.083300 3.759060 156.075000 -14.385600 8.820000
15.124800 3.769390 156.504000 -14.385600 6.930000
15.165300 4.145410 156.924000 -14.385600 13.210000
-6.545240 0.363751 9.085360 -11.632800 4.200000
-6.650740 0.377741 9.538440 -11.721600 7.130000
-6.236690 1.377620 10.236000 -12.165600 3.840000
-6.900710 0.000000 9.896930 -11.721600 6.300000
-6.459430 1.426820 10.601500 -12.254400 3.840000
7.757210 1.350000 9.703390 -11.544000 4.260000
-6.638580 0.339788 11.087000 -12.254400 10.320000
8.024700 1.396560 10.038000 -11.455200 6.760000
-6.859860 0.351114 11.456500 -12.254400 11.730000
8.554970 1.360940 10.168300 -11.277600 4.120000
-6.066270 1.532050 12.287600 -12.787200 4.920000
-6.989190 0.405069 11.879300 -12.343200 8.860000
8.553760 -1.574420 10.699800 -11.632800 6.660000
7.395580 0.417727 12.138000 -12.343200 4.270000
8.941310 1.021600 11.009500 -11.544000 9.790000
9.124560 1.052560 11.413800 -11.632800 8.910000
-6.132350 0.407745 14.243000 -12.964800 5.690000
-6.864710 0.407745 13.904800 -12.876000 4.140000
-5.885460 1.378910 14.752900 -13.320000 6.700000
-6.218760 0.332806 14.676700 -13.053600 3.690000
-5.927570 1.416170 15.197800 -13.320000 6.230000
-6.084770 1.414600 15.600800 -13.320000 5.050000
-6.239550 1.490710 15.997700 -13.408800 5.560000
-10.279300 1.450870 13.759000 -11.544000 7.030000
-5.726970 1.527980 16.642900 -13.497600 5.130000
-10.290100 1.487150 14.283600 -11.721600 9.180000
-10.644700 1.487150 14.021400 -11.544000 9.990000
-6.745120 1.419080 16.266800 -13.320000 4.710000
-6.202630 1.244380 16.956100 -13.408800 5.710000
-11.226400 -5.118580 13.823200 -11.544000 10.630000
-6.483920 1.274010 17.310400 -13.408800 7.770000
-5.625770 1.698190 18.025900 -13.675200 5.460000
-5.753630 1.736780 18.435600 -13.764000 4.170000
-9.326090 1.392520 17.923200 -12.876000 6.600000
-5.503260 1.166790 19.903500 -13.764000 8.520000
-5.735270 1.191090 20.285300 -13.764000 9.000000
9.437600 -1.321460 18.841200 -13.053600 8.110000
9.075470 -1.148870 19.506500 -13.231200 10.680000
9.259520 -1.053060 19.902100 -13.231200 11.310000
9.605480 0.537008 20.236400 -13.231200 11.560000
9.948870 0.547335 20.549500 -13.231200 15.290000
-9.495200 1.429340 20.721000 -13.053600 11.280000
10.137300 0.485717 20.938700 -13.231200 15.910000
-9.674360 1.456310 21.111900 -13.053600 11.010000
10.160300 0.494712 21.405300 -13.320000 12.180000
-10.468700 1.556420 21.204900 -12.876000 7.740000
-9.068660 0.503707 22.355800 -13.231200 4.270000
9.875920 0.965934 22.937800 -13.497600 6.350000
-4.987950 1.777690 25.305900 -14.119200 6.580000
-5.071080 1.807320 25.727700 -14.119200 6.240000
18.497100 1.699020 19.796800 -10.922400 5.630000
18.638600 1.640860 20.259100 -11.011200 10.160000
10.359900 -0.980627 25.538900 -13.586400 12.930000
18.933300 1.580020 20.579400 -11.011200 9.730000
-20.658300 0.691915 20.155600 -9.856800 4.500000
-20.966600 0.702242 20.456500 -9.856800 12.970000
-21.276400 0.620639 20.758700 -9.856800 6.460000
-21.584800 0.629634 21.059600 -9.856800 15.930000
-9.823880 1.516570 28.021200 -13.497600 7.260000
-4.208570 1.948520 32.418300 -14.296800 4.620000
19.037100 -0.078960 28.220200 -12.254400 9.120000
-17.904000 2.025440 28.881500 -12.076800 9.340000
19.278000 -0.079959 28.577400 -12.254400 10.460000
19.519100 0.000000 28.934700 -12.254400 10.120000
19.760000 0.000000 29.291900 -12.254400 15.970000
9.065300 -0.193567 34.596200 -13.941600 7.210000
-5.198780 1.755100 36.213200 -14.296800 7.240000
-31.127800 0.454758 23.841700 -8.613600 7.520000
-9.212640 1.482210 37.197600 -14.030400 5.610000
-31.469800 0.459756 24.103700 -8.613600 6.480000
-16.814400 -0.090954 35.423700 -12.876000 9.790000
-18.811200 -1.878990 34.353700 -12.520800 6.850000
18.296600 -0.582349 35.163100 -13.053600 9.640000
20.341900 -1.899640 33.972800 -12.698400 5.220000
-19.018000 -1.899640 34.731300 -12.520800 8.430000
18.491100 -1.053340 35.536900 -13.053600 5.360000
20.563000 -1.920290 34.342000 -12.698400 5.590000
21.351500 -1.920290 33.857400 -12.520800 9.120000
11.841600 0.720262 38.728300 -14.030400 7.150000
11.967600 0.727924 39.140300 -14.030400 6.680000
-17.265200 -0.727924 37.109300 -12.964800 8.800000
11.771400 2.333570 39.587500 -14.030400 6.170000
11.353500 2.357880 40.156600 -14.030400 8.870000
-7.509310 1.931700 42.386600 -14.208000 7.350000
-7.994550 1.698710 43.185200 -14.119200 6.880000
-16.504900 -1.970340 40.687400 -13.231200 4.920000
-7.994550 1.698710 43.185200 -14.119200 7.110000
-16.428900 -1.989650 41.182000 -13.231200 8.660000
-8.150290 1.870500 44.026500 -14.119200 7.440000
-15.705600 -1.870500 41.929600 -13.408800 8.710000
-16.269700 -1.870500 41.714000 -13.231200 9.920000
-15.529800 -1.888490 42.453800 -13.408800 7.610000
-17.636300 -1.888490 41.622800 -13.142400 5.140000
-15.677700 -1.906470 42.858100 -13.408800 11.390000
-8.042180 0.677297 45.394400 -14.119200 8.650000
-16.154100 -2.209360 43.127200 -13.408800 9.390000
-7.779640 0.677297 45.440200 -14.119200 8.600000
13.416800 -2.703450 51.203100 -14.119200 9.660000
35.247000 0.305510 44.089900 -11.632800 7.000000
14.525000 0.841874 55.432100 -14.119200 6.530000
14.743400 0.854534 56.265700 -14.119200 6.870000
14.852600 0.860864 56.682500 -14.119200 7.630000
15.102100 5.329280 59.501200 -14.119200 8.290000
15.210700 5.223150 59.929200 -14.119200 8.790000
15.261600 1.295250 60.129500 -14.119200 6.560000
15.369200 0.917833 60.553800 -14.119200 6.570000
15.581200 0.930493 61.389000 -14.119200 7.090000
15.433300 0.943152 62.314500 -14.208000 9.420000
15.537500 0.749601 62.735200 -14.208000 11.790000
15.846800 1.172340 63.984100 -14.119200 9.950000
15.949400 1.385190 64.398500 -14.119200 7.610000
15.949400 1.385190 64.398500 -14.208000 6.730000
16.053000 1.394190 64.816600 -14.208000 12.580000
16.263100 0.575367 65.664900 -14.119200 11.670000
15.756000 0.784583 65.786300 -14.208000 16.640000
15.856400 0.789580 66.205300 -14.208000 19.760000
15.956700 0.794577 66.624300 -14.208000 18.320000
16.057100 0.799575 67.043300 -14.208000 12.790000
16.676900 0.804572 67.335800 -14.208000 16.810000
16.356400 19.101500 66.041700 -14.208000 14.270000
13.754800 19.218000 67.055700 -14.296800 12.670000
13.747900 1.044430 69.748800 -14.296800 8.960000
17.194100 1.050760 69.424200 -14.208000 8.890000
17.256500 1.948120 72.051500 -14.208000 9.800000
17.356900 1.959440 72.470400 -14.208000 8.810000
16.009800 1.064430 90.368300 -14.296800 10.120000
16.084400 1.354590 90.788900 -14.296800 14.300000
15.631200 1.647410 91.300400 -14.296800 11.200000
-13.884500 1.379910 92.894200 -14.208000 10.300000
-13.948700 1.094420 93.324100 -14.208000 10.540000
-12.227200 -0.901530 105.290000 -14.296800 5.810000
-11.665600 -0.905195 105.787000 -14.296800 6.390000
-12.326600 0.908859 106.146000 -14.296800 7.750000
-12.376300 0.912524 106.574000 -14.296800 11.250000
-12.426000 0.916189 107.002000 -14.296800 10.060000
-11.591100 -0.604023 110.998000 -14.296800 6.790000
-11.636100 0.000000 111.428000 -14.296800 6.230000
-11.680800 0.000000 111.857000 -14.296800 8.710000
-12.374400 -0.261866 112.215000 -14.296800 9.270000
15.042900 3.265100 155.657000 -14.385600 9.910000
15.084400 3.274090 156.086000 -14.385600 9.270000
15.126700 2.796760 156.524000 -14.385600 6.120000
-6.583330 1.408210 8.955040 -11.455200 5.270000
-6.577660 0.341777 9.590330 -11.721600 5.320000
-6.799080 -0.242859 9.437710 -11.455200 5.820000
-6.975260 -0.251853 9.841310 -11.544000 6.520000
-6.905280 0.367094 10.408400 -11.810400 6.520000
-7.224810 0.222208 10.193400 -11.544000 5.580000
-6.893540 0.309813 10.931200 -12.076800 7.190000
-6.946690 0.433703 11.401300 -12.165600 11.230000
-7.172090 0.362440 11.771200 -12.165600 11.060000
8.538400 -1.775480 10.680600 -11.632800 5.250000
8.784090 0.703336 10.605500 -11.366400 7.000000
-7.302430 0.373767 12.195700 -12.165600 6.820000
8.867580 0.725316 11.092300 -11.544000 7.850000
9.058590 0.725316 10.936900 -11.366400 8.800000
9.136290 0.747295 11.428500 -11.544000 8.430000
9.333100 0.747295 11.268300 -11.366400 7.180000
-6.356340 0.629496 13.662100 -12.964800 7.550000
-6.538760 0.599545 14.054200 -12.964800 5.890000
8.941110 0.582247 13.705200 -12.343200 5.300000
9.067720 0.597570 14.136100 -12.432000 7.950000
-5.661760 1.414600 15.759300 -13.408800 9.360000
9.188210 0.612892 14.569900 -12.432000 6.880000
9.714290 1.450870 14.163600 -12.254400 5.170000
-5.812560 1.238300 16.179000 -13.408800 10.600000
-10.191800 1.214750 14.379500 -11.721600 5.910000
-5.832370 1.160240 16.636000 -13.497600 8.630000
-6.874750 1.269260 16.224900 -13.231200 7.060000
-5.876010 1.188540 17.076000 -13.497600 6.380000
-9.388820 1.592140 17.384000 -12.787200 10.280000
-6.284840 1.079940 19.222100 -13.586400 5.730000
9.205490 -0.594945 18.029400 -13.142400 7.800000
-9.797030 1.661360 18.139800 -12.787200 8.990000
-5.886720 1.102910 19.797100 -13.764000 8.610000
9.542990 -0.607603 18.340000 -13.053600 9.340000
-6.008340 1.191090 20.206100 -13.764000 8.640000
8.646260 -0.375456 19.258900 -13.231200 9.030000
-6.001810 1.730580 20.619700 -13.764000 4.870000
9.086970 -0.383118 19.531200 -13.320000 8.770000
9.648980 0.116607 19.263200 -13.142400 8.330000
10.421600 -2.509680 18.689000 -12.876000 7.300000
-5.837620 1.765200 21.112700 -13.852800 5.320000
9.420760 0.526681 19.847200 -13.231200 8.520000
10.482800 -2.559870 19.144100 -12.964800 9.520000
9.761160 0.537008 20.161700 -13.231200 14.710000
-9.431530 1.471520 20.271800 -12.964800 9.170000
9.948870 0.547335 20.549500 -13.231200 16.930000
-9.771870 1.499820 20.586900 -12.964800 10.130000
10.137300 0.485717 20.938700 -13.231200 14.710000
-9.952000 1.671710 20.966400 -12.876000 9.560000
10.490700 0.274854 21.249400 -13.231200 6.390000
-10.140600 1.556420 21.363800 -12.876000 6.580000
-4.815970 2.103770 24.433400 -14.030400 5.830000
-5.090420 2.140040 24.816200 -14.030400 6.990000
9.857150 2.824710 23.263500 -13.497600 7.740000
-5.324190 2.076700 25.214500 -14.030400 7.120000
-5.611370 2.050540 25.596900 -14.030400 6.950000
18.340300 1.782810 19.934900 -10.922400 5.310000
-4.646250 2.084150 26.226000 -14.119200 11.440000
9.889270 -1.197650 24.789200 -13.675200 5.460000
12.138100 -1.115110 23.773000 -13.408800 7.250000
18.635100 1.725990 20.255300 -10.922400 5.790000
10.050100 -1.133090 25.192400 -13.675200 13.070000
10.726000 -1.133090 24.912100 -13.497600 8.860000
18.922500 1.839400 20.567700 -10.922400 7.920000
10.209600 -1.151080 25.592200 -13.675200 10.190000
9.741600 6.628110 25.409600 -13.764000 6.480000
10.583800 6.730090 25.524300 -13.675200 5.380000
-20.969300 0.521040 20.459100 -9.856800 12.350000
-21.277700 0.528703 20.760000 -9.856800 3.620000
-21.586100 0.536365 21.060900 -9.856800 7.520000
18.939700 2.076580 27.163200 -12.165600 9.890000
18.973100 2.103550 27.663000 -12.254400 13.580000
18.999800 2.130520 28.165000 -12.254400 11.900000
19.057200 0.079959 28.725200 -12.343200 4.820000
19.295400 0.080959 29.084200 -12.343200 5.710000
9.482360 1.861170 33.538500 -14.030400 9.440000
19.533700 0.000000 29.443400 -12.343200 6.770000
-17.945500 -1.719210 33.848700 -12.609600 6.510000
-16.142400 -2.518570 34.695900 -12.964800 7.870000
-18.415200 -1.498860 34.096900 -12.520800 6.280000
-16.323800 -2.546870 35.085800 -12.964800 5.800000
-18.818800 -1.515520 34.367600 -12.432000 5.900000
-16.309100 -2.212030 35.590600 -12.876000 7.120000
20.087600 -1.532170 34.142300 -12.698400 11.350000
-16.210500 -2.236340 36.107800 -12.964800 6.210000
20.571300 -1.548830 34.355800 -12.698400 8.080000
20.792500 -1.565480 34.725300 -12.609600 5.420000
11.534500 1.690650 38.790700 -13.941600 6.710000
18.969800 -0.720262 35.780600 -12.964800 8.130000
11.662400 1.202550 39.220600 -13.941600 6.260000
19.171600 -0.727924 36.161200 -12.964800 9.580000
11.786100 1.087320 39.636900 -13.941600 7.110000
-17.868400 -3.260690 37.644400 -12.876000 6.970000
22.796400 -0.750911 35.538500 -12.432000 8.990000
-17.759000 -3.294300 38.170500 -12.964800 8.410000
23.306200 -0.626658 35.724300 -12.343200 9.700000
-18.236900 -3.327920 38.420600 -12.876000 9.400000
23.819000 -0.632988 35.902700 -12.343200 9.040000
-7.264160 1.931700 42.429300 -14.119200 6.480000
-7.584400 1.951020 42.810500 -14.119200 8.460000
-7.660520 1.834530 43.240200 -14.119200 8.820000
-16.826100 -1.427020 40.578400 -13.231200 7.560000
-9.651230 1.834530 42.839800 -14.119200 7.500000
-6.893760 1.715370 43.810500 -14.119200 9.520000
-16.991000 -1.441010 40.976200 -13.231200 5.440000
-6.962880 1.316470 44.249800 -14.208000 4.590000
-16.596400 -1.455000 41.601700 -13.231200 7.950000
-8.233470 1.084340 44.475800 -14.119200 6.820000
-8.311890 1.094670 44.899400 -14.119200 6.910000
-8.390300 1.105000 45.323000 -14.119200 5.950000
-8.115880 1.115330 45.810500 -14.119200 5.890000
-17.049600 -2.105550 43.713600 -13.320000 7.330000
12.293200 1.197940 48.434300 -14.119200 10.970000
13.431700 1.208270 48.578100 -14.030400 11.540000
13.169400 1.061380 49.099600 -14.119200 11.370000
-14.862200 -1.336500 48.607200 -13.675200 11.140000
-2.666440 0.277524 51.207000 -14.385600 6.140000
-15.647900 -1.347820 48.812600 -13.586400 5.590000
-2.688840 0.279856 51.637300 -14.385600 9.250000
-15.771100 -2.158270 49.196900 -13.586400 10.310000
-2.309870 0.282188 52.086900 -14.385600 8.280000
13.488000 -2.780260 50.287300 -14.030400 6.300000
-15.232000 -2.176260 49.816800 -13.675200 7.990000
13.987500 -2.965580 50.587900 -14.030400 9.510000
-14.288000 -2.356680 50.535900 -13.764000 5.490000
-14.405200 -2.375990 50.950200 -13.764000 8.040000
35.247500 0.000000 44.090600 -11.632800 5.210000
14.845800 0.664647 55.349500 -14.119200 7.250000
14.957800 0.491077 55.767400 -14.119200 7.150000
15.069000 0.674641 56.181800 -14.119200 8.220000
15.237900 3.691940 60.036100 -14.119200 9.860000
15.368500 1.111040 60.550700 -14.119200 7.730000
15.581200 0.930493 61.389000 -14.119200 7.260000
15.434400 0.546049 62.318900 -14.119200 8.450000
15.538000 0.549713 62.737200 -14.119200 6.130000
16.431000 0.000000 64.736900 -14.119200 6.690000
15.374800 0.993791 65.873600 -14.119200 5.870000
15.856400 0.789580 66.205300 -14.119200 6.590000
16.469700 0.794577 66.499300 -14.119200 6.490000
15.767700 0.590026 67.556700 -14.119200 6.950000
16.453600 -0.391799 70.495500 -14.208000 12.370000
17.041500 0.000000 73.014200 -14.208000 8.850000
25.673900 0.732951 82.263600 -13.941600 16.970000
25.324000 0.736616 82.822700 -13.941600 20.980000
25.450000 0.740281 83.234800 -13.941600 15.540000
26.059600 0.473423 83.499400 -13.941600 15.890000
16.085000 1.069430 90.792600 -14.296800 18.970000
15.632600 1.074430 91.308700 -14.296800 11.260000
15.705300 1.079430 91.733400 -14.208000 10.180000
15.778000 1.084420 92.158100 -14.208000 18.190000
-13.347800 1.089420 92.976700 -14.208000 24.740000
-13.409000 1.094420 93.403200 -14.208000 26.110000
-12.932700 0.243876 104.341000 -14.296800 14.810000
-12.985700 0.244875 104.769000 -14.296800 10.770000
-13.038300 0.901530 105.193000 -14.296800 11.250000
-13.091600 0.576037 105.623000 -14.296800 9.940000
-13.144700 0.247874 106.051000 -14.296800 8.060000
-11.760400 0.248873 106.647000 -14.296800 12.930000
-11.807500 0.583034 107.074000 -14.296800 8.490000
-11.854500 0.919854 107.500000 -14.296800 9.250000
-12.525400 0.923518 107.858000 -14.296800 8.560000
-12.574700 1.264330 108.283000 -14.296800 7.150000
-11.591100 0.604023 110.998000 -14.296800 11.080000
-11.635900 0.606355 111.426000 -14.296800 6.530000
-11.680600 0.608687 111.855000 -14.296800 10.070000
-11.725400 0.611019 112.284000 -14.296800 12.140000
15.084400 3.274090 156.086000 -14.385600 11.960000
15.125800 3.283090 156.515000 -14.385600 9.060000
-6.773240 0.199221 8.921860 -11.366400 3.960000
-7.033750 0.206884 9.265010 -11.366400 6.390000
-7.294260 0.214546 9.608160 -11.366400 6.960000
-7.554770 0.222208 9.951310 -11.366400 3.420000
-6.672810 1.624860 10.951700 -12.343200 5.280000
-6.889510 0.539568 10.924800 -12.076800 5.980000
-6.810440 1.638030 11.374000 -12.343200 6.830000
-7.119160 0.557554 11.288900 -12.076800 9.870000
-6.316700 1.690870 12.139700 -12.698400 4.340000
-6.939440 1.690870 11.794800 -12.343200 5.410000
-7.351340 0.447693 11.657100 -12.076800 8.990000
-6.514100 1.743710 12.519000 -12.698400 5.090000
8.877730 0.252858 11.105000 -11.721600 6.250000
-6.350910 1.492640 13.117900 -12.876000 7.380000
-6.657560 1.130030 13.485200 -12.876000 8.840000
-6.927840 1.162320 13.830700 -12.787200 7.770000
8.831920 0.734047 13.768500 -12.520800 6.210000
8.955160 0.753364 14.200300 -12.609600 6.880000
-5.802550 1.596890 16.151200 -13.497600 8.370000
-9.691830 1.862070 14.130800 -12.076800 4.930000
-6.043210 1.636810 16.520300 -13.497600 8.830000
-9.716030 1.799950 14.645100 -12.076800 9.470000
-10.430600 -1.419080 14.188300 -0.088800 2.670000
-9.953000 1.843850 15.002300 -12.076800 9.080000
-10.541100 -1.523420 14.632000 -0.088800 4.520000
-10.792100 -1.559690 14.980300 -0.088800 4.460000
-9.177460 1.736780 16.992600 -13.053600 5.560000
-9.247240 1.775380 17.442000 -12.964800 10.260000
0.505446 1.704780 20.174100 0.888000 18.640000
-9.448270 1.813970 17.821200 -12.964800 10.360000
0.516200 1.741050 20.603300 0.888000 18.520000
-6.137200 1.852570 19.664600 -13.764000 6.880000
1.498680 1.777320 20.985700 0.888000 14.980000
-6.148910 1.891160 20.110200 -13.764000 6.900000
9.043520 -1.011760 19.052500 -13.320000 10.720000
8.663640 -0.965851 19.702700 -13.497600 7.700000
9.377640 -1.032410 19.369600 -13.320000 10.010000
8.836910 -0.985168 20.096700 -13.497600 11.170000
11.070900 -2.509230 18.817000 -12.787200 6.880000
9.761840 0.467728 20.163100 -13.320000 11.700000
-5.303050 1.781610 22.141900 -14.030400 5.380000
9.949560 0.476723 20.550900 -13.320000 16.090000
-5.581790 1.528120 22.537400 -13.941600 8.930000
10.136600 0.557663 20.937200 -13.320000 15.870000
0.272727 2.268700 23.589100 0.888000 10.660000
10.323700 0.622944 21.323700 -13.320000 11.360000
0.138845 2.309950 24.019200 0.888000 13.140000
-5.791810 1.361250 23.385400 -13.941600 5.540000
0.141325 2.351190 24.448100 0.888000 12.200000
-4.927520 1.385560 24.022000 -14.119200 7.360000
0.143804 2.392440 24.877000 0.888000 7.010000
9.744290 0.888693 22.997200 -13.586400 8.680000
10.546100 -2.111310 23.983700 -13.497600 7.420000
10.530800 -2.145920 24.458800 -13.408800 5.760000
18.343900 1.699020 19.938800 -11.100000 11.010000
18.631400 1.811110 20.251300 -11.100000 11.990000
18.926300 1.752960 20.571800 -11.100000 8.590000
-20.661000 0.513378 20.158300 -9.945600 11.460000
-20.969300 0.521040 20.459100 -9.945600 14.730000
-21.277700 0.528703 20.760000 -9.945600 13.490000
-21.547200 1.887800 21.022900 -11.277600 8.360000
18.733400 1.974160 27.313500 -12.254400 6.950000
-17.695500 -1.299010 28.545200 -12.165600 10.680000
-17.922300 -1.315670 28.911200 -12.165600 11.510000
19.278000 0.079959 28.577400 -12.432000 13.620000
19.519000 0.080959 28.934600 -12.432000 15.150000
-17.291700 -7.444540 29.390300 -0.710400 6.950000
19.760000 0.081958 29.291900 -12.432000 12.070000
-20.710400 -7.520260 28.171600 -0.710400 6.450000
-17.870800 -0.307839 31.474700 -12.520800 6.460000
-18.084000 -0.198231 31.850100 -12.432000 7.470000
-17.418200 -5.452680 32.251000 -1.065600 6.020000
-16.971700 -1.348360 33.882300 -12.787200 6.440000
-17.164600 -1.363680 34.267300 -12.787200 10.140000
20.329300 -2.358740 33.951600 -12.698400 9.830000
20.550200 -2.384380 34.320600 -12.787200 7.500000
11.308600 1.815800 38.851500 -14.119200 9.640000
11.428900 1.835120 39.264800 -14.119200 6.170000
11.781400 1.598790 39.621000 -14.119200 7.630000
-17.582400 -1.371060 38.369300 -13.053600 8.800000
22.797500 -0.620328 35.540200 -12.520800 10.650000
-16.681700 -0.651978 41.123200 -13.320000 6.240000
-16.750200 -1.888490 41.987300 -13.231200 11.470000
-8.312960 0.812210 44.905200 -14.208000 8.900000
-8.390300 1.105000 45.323000 -14.208000 7.700000
-16.626600 -2.912610 43.368000 -13.320000 5.140000
-17.033300 -2.939580 43.671800 -13.320000 8.060000
12.438800 2.202140 47.470600 -14.208000 8.450000
12.547900 2.221460 47.887000 -14.208000 6.030000
12.657000 2.240770 48.303400 -14.208000 8.190000
-2.621650 0.116940 50.347000 -14.474400 8.620000
13.056200 1.325170 48.677300 -14.208000 9.760000
13.170200 0.904158 49.102600 -14.208000 9.180000
-14.866800 -0.432441 48.622300 -13.764000 7.630000
13.281800 0.911821 49.518700 -14.208000 8.590000
14.524200 1.019090 55.429300 -14.208000 7.720000
14.634200 0.848204 55.848900 -14.208000 9.490000
14.744000 0.674641 56.268000 -14.208000 7.150000
15.474500 1.118700 60.968300 -14.208000 9.950000
15.580500 1.126370 61.385900 -14.208000 14.480000
15.434700 0.347488 62.320300 -14.296800 11.260000
15.434700 0.347488 62.320300 -14.208000 21.080000
15.641100 0.754599 63.153500 -14.208000 17.770000
15.755400 0.993791 65.783600 -14.296800 13.390000
15.854000 1.421170 66.195300 -14.296800 13.390000
15.954300 1.430170 66.614300 -14.296800 20.360000
16.054600 1.439160 67.033200 -14.296800 9.470000
16.156000 1.233640 67.456200 -14.296800 13.610000
16.459600 -0.163916 68.723800 -14.296800 24.400000
16.488700 6.587180 68.845700 -14.208000 22.180000
16.451200 -1.287280 70.485400 -14.296800 10.540000
16.192400 1.082410 71.874600 -14.296800 7.950000
16.913500 4.435450 72.466000 -14.296800 13.710000
25.802300 0.736616 82.674900 -14.030400 11.770000
25.929900 1.009460 83.083700 -14.030400 11.610000
26.059000 0.743945 83.497600 -14.030400 8.960000
16.085900 0.499077 90.797400 -14.385600 8.720000
16.161000 0.501409 91.221600 -14.385600 9.340000
-13.345800 1.960860 92.962700 -14.385600 10.620000
-13.407800 1.678060 93.394700 -14.385600 13.070000
-12.932700 0.243876 104.341000 -14.385600 12.610000
-12.985700 0.244875 104.769000 -14.385600 10.540000
-13.038700 0.245875 105.196000 -14.385600 10.110000
-11.665200 1.234340 105.784000 -14.385600 9.080000
-12.326200 1.239340 106.143000 -14.385600 12.600000
-12.375900 1.244340 106.571000 -14.385600 14.900000
-12.426000 0.916189 107.002000 -14.385600 12.610000
-12.475300 1.254330 107.427000 -14.385600 5.420000
-11.899500 2.266680 107.909000 -14.385600 7.360000
-11.945900 2.612750 108.330000 -14.385600 4.890000
-11.591100 0.604023 110.998000 -14.385600 10.600000
-11.635600 0.952837 111.424000 -14.385600 11.010000
-11.680400 0.956501 111.853000 -14.385600 7.780000
-11.724800 1.309300 112.278000 -14.385600 7.140000
15.083300 3.759060 156.075000 -14.563200 12.610000
15.124800 3.769390 156.504000 -14.563200 5.630000
14.258800 3.779710 157.018000 -14.563200 6.990000
