VERSION .7
FIELDS x y z velocity SNR
SIZE 4 4 4 4 4
TYPE F F F F F
COUNT 1 1 1 1 1
WIDTH 166
HEIGHT 1
VIEWPOINT 0 0 0 1 0 0 0
POINTS 166
DATA ascii
5.84302452290779 11.1123691888744 -0 2.01129119479245 8.83354766795869
5.92896023177039 11.0393009366286 -0.779069936387706 2.16600590208418 5.44554609226247
-1.67838236272865 12.617116221496 1.89654837639382 1.85657648750073 18.7607778345171
0.892263633193785 12.7501967799604 1.49727503399512 1.85657648750073 18.7607778345171
-1.67202214050322 12.5693037177455 2.19600338319285 2.01129119479245 77.8541934966589
-1.28192871494123 12.6481881535385 1.9963667119935 2.01129119479245 77.8541934966589
-1.18608768712298 12.687412738822 1.79673004079415 2.16600590208418 29.7727843370983
6.31103367355682 11.0358895775889 1.9963667119935 2.16600590208418 29.7727843370983
6.43495430060451 11.4890067702778 0.613517574905318 1.85657648750073 78.6196376627298
6.42951998904281 11.4793043171744 0.818023433207092 2.01129119479245 370.515369654844
6.42252626057245 11.4668176715835 1.02252929150886 2.16600590208418 122.58217524066
5.64232637361354 11.700212604589 3.66406329457343 1.23771765833382 5.12503753827219
6.59035195241758 11.7664546883769 0.52343761351049 1.85657648750073 66.4282210588586
6.58260379830573 11.7526210866309 0.837500181616785 2.01129119479245 301.715985434995
6.66585184358796 11.6563480234046 1.36093779512727 2.16600590208418 98.167443755714
6.16934365620477 11.9862321564224 2.99941925509267 1.39243236562554 5.98356521576221
7.00768844362552 11.0602738467422 4.39200676638569 1.39243236562554 5.98356521576221
6.74686590998357 12.0458956655956 0.321366348759929 1.85657648750073 11.3975215920952
6.73568760756865 12.0259378560875 0.856976930026477 2.01129119479245 26.2871019682507
4.92784961176211 12.9019904224176 2.95803116472207 0.464144121875182 5.42399641867379
5.67773977007373 12.5900091246838 2.95803116472207 0.464144121875182 5.42399641867379
6.20261438470511 12.313102227078 3.06758787452659 1.23771765833382 5.42278703546975
7.08220637657988 11.4075888603241 4.38226839218085 1.23771765833382 5.42278703546975
6.20261438470511 12.313102227078 3.06758787452659 1.39243236562554 5.36442569527341
6.63038089399512 12.0881330593424 3.06758787452659 1.39243236562554 5.36442569527341
7.16695409007156 11.3116437068954 4.49182510198537 1.39243236562554 5.36442569527341
6.78142184932685 12.1075920510744 2.62936103530851 1.54714707291727 6.32287939559333
5.87009687322616 12.7259191627991 3.47173040402771 1.23771765833382 6.00651919384139
6.39129228600887 12.6876556238638 2.57579997718185 1.23771765833382 6.00651919384139
7.00090612791296 12.4994606246256 1.79186085369172 1.39243236562554 5.29539108492207
6.97841045507551 12.4592967127378 2.12783476375892 1.54714707291727 7.69127037349702
5.13365194297458 13.7825342333279 1.14425896906944 0.464144121875182 5.20121098458519
6.0315077809891 13.0758456135114 3.20392511339444 1.08300295104209 5.89930954512431
6.68500235039027 12.9880899173803 2.059666144325 1.08300295104209 5.89930954512431
4.88312402495397 14.1713851929104 1.51918637595602 0.309429414583454 8.45169871392611
4.72100369083264 14.0742113383869 2.57093079007943 0.464144121875182 5.39547308206773
5.20721423614965 13.9800300579825 2.1034888282468 0.464144121875182 5.39547308206773
5.90993180052149 13.4075708120408 3.50581471374468 0.464144121875182 5.39547308206773
7.25422518347454 12.9517380159529 2.57093079007943 1.54714707291727 5.28017266296768
8.16772381589845 12.8911641599262 1.90872134414988 1.85657648750073 6.25066580347358
-2.76625906876338 15.9727606054634 1.89898296994503 0.464144121875182 8.40665201494106
5.81232494852245 15.2177048258175 -1.01279091730402 0.464144121875182 8.40665201494106
6.95769899738438 14.7504965937946 0.632994323315011 0.464144121875182 8.40665201494106
6.18465491758829 15.0510705005343 1.26598864663002 0.618858829166909 10.6776920362731
6.96209965189438 14.7598260918636 0.253197729326004 0.618858829166909 10.6776920362731
6.96696825304955 15.1038520680101 0.258066916428427 0.464144121875182 10.1246301883874
6.29958300962238 15.3307612575364 1.41936804035635 0.618858829166909 12.6107527979157
6.96445217579138 15.0983974057641 0.516133832856856 0.618858829166909 12.6107527979157
6.81816941267877 15.1188357683662 1.29033458214214 0.928288243750363 5.21985165527099
-9.6588593939702 13.5045344658201 1.03226766571371 1.08300295104209 5.81058004228018
7.09735245076193 15.3865149943686 0.394404155296277 0.464144121875182 6.45605795121767
-0.843560419084864 18.105942530995 -1.69447711164326 2.32072060937591 13.9850801816681
-0.844148974720287 18.1185751228879 -1.55327068567299 2.47543531666763 11.4050664022059
-0.8581045642415 18.4181139539432 -1.7236922342578 2.16600590208418 6.8128216615289
-0.8581045642415 18.4181139539432 -1.7236922342578 2.32072060937591 80.6516550141782
-0.714544438175308 18.4102382588399 -1.86733325377928 2.47543531666763 38.3670722946685
-0.727714633379558 18.7495683531933 -1.60683174379964 2.32072060937591 64.5055003902508
-0.581765806265424 18.7415755638758 -1.75290735687234 2.47543531666763 51.3430859611822
-1.30695141877169 18.6759687958373 4.00977557884547 2.32072060937591 16.8410786252484
-1.29990086477816 18.5752183589923 4.45530619871719 2.47543531666763 12.7219322329946
-1.78940893792922 19.1410550843119 -3.01889600350236 2.32072060937591 5.80454685919737
-0.90392344517155 19.4015574704775 -1.20755840140095 2.47543531666763 5.02967539075011
5.67230538845901 18.9330071974782 0.613517574905319 -0.309429414583454 5.36160093460892
5.66888831243731 18.921601689403 0.920276362357977 -0.154714707291727 5.56276476047026
6.28174110297107 18.7270668794275 0.920276362357977 -0.154714707291727 5.56276476047026
-7.91753521116959 18.3819680891976 -1.71395386005295 -0.309429414583454 5.53494298242969
6.05843747029057 19.0889834208694 1.55813987277541 -0.309429414583454 5.53494298242969
6.69919518951515 18.9352957279529 -0.311627974555081 -0.309429414583454 5.53494298242969
6.22580612605728 19.0758245592897 0.934883923665246 -0.154714707291727 7.53421661040988
-8.03564019904116 18.6561698527928 -1.89898296994503 -0.309429414583454 6.3540146883544
6.63923856411577 19.2678307163408 -0.949491484972516 -0.309429414583454 6.3540146883544
6.5848384303604 19.6306577514408 -0.642732697519858 -0.309429414583454 8.17513741272202
6.85012182532545 19.8798380931896 0.326235535862351 -0.464144121875182 5.9204282406507
-7.30843294120938 19.6212614963208 1.95741321517411 -0.309429414583454 9.25820297779333
6.85012182532545 19.8798380931896 -0.326235535862351 -0.309429414583454 9.25820297779333
5.53038706019177 20.2278589758709 -3.9732566755773 -0.464144121875182 6.32116391210827
6.05128076321226 20.1979502861329 3.31104722964775 -0.464144121875182 6.32116391210827
6.93979935325255 20.1400925501538 1.3244188918591 -0.464144121875182 6.32116391210827
6.09421629304771 20.3412603937051 2.15218069927104 -0.309429414583454 10.7884248910369
-10.4723558190795 21.7160053213411 -1.68717333098963 -0.773573536458636 5.60933493477174
-9.18323415525541 22.3484586505535 0.562391110329876 -0.773573536458636 5.60933493477174
5.61019061736402 23.447406781023 1.68717333098963 -0.773573536458636 5.60933493477174
6.93532234554094 23.1487021400711 0.374927406886582 -0.773573536458636 5.60933493477174
5.67978512839741 23.7382722651433 1.89898296994503 -0.773573536458636 6.18122907423934
6.83551602185994 23.5053853578508 0.379796593989005 -0.773573536458636 6.18122907423934
15.776166211851 19.5349767831099 -0 4.33201180416836 6.96641385852503
16.9447711164326 18.5304471093469 -0 4.33201180416836 6.96641385852503
3.13380397999768 25.0558006659824 2.95803116472207 4.33201180416836 5.11331457913197
15.9656781011066 19.7696415493793 0.788808310592553 4.33201180416836 5.11331457913197
17.1545161702446 18.7598199111042 0.394404155296275 4.33201180416836 5.11331457913197
15.3687138620534 23.2933120460849 4.38226839218085 2.93957943854282 6.03098602002638
17.9661933901803 20.9178283219347 6.13517574905318 2.93957943854282 6.03098602002638
-5.70043129480654 28.8384426711442 -2.51736973195277 2.47543531666763 9.64924399085581
15.4943626402024 24.9573804057306 2.74622152576666 2.47543531666763 9.64924399085581
16.9237060832221 22.2718827480464 9.38292354636943 2.47543531666763 9.64924399085581
0.689755898880781 29.6335436418949 3.2380094231114 2.32072060937591 8.6488066747168
1.84354373789488 29.6519143216105 2.5441502610161 2.32072060937591 8.6488066747168
15.5174240072408 24.9945262582718 4.8570141346671 2.32072060937591 8.6488066747168
17.114677787106 24.4160129392751 -0.231286387365099 2.32072060937591 8.6488066747168
19.8810532062249 22.2034953582506 0.925145549460402 2.32072060937591 8.6488066747168
15.4887274978729 25.4627336161937 0.925145549460402 2.47543531666763 21.3504662865892
17.114677787106 24.4160129392751 0.231286387365099 2.47543531666763 21.3504662865892
20.0848821407012 22.4311349482451 1.16860490458156 2.47543531666763 7.07536168653616
-14.0518389829527 30.4633076502273 1.56300905987783 -0.618858829166909 7.86258152026147
-14.0564981842262 30.4734084407339 1.3025075498982 -0.464144121875182 8.42962938312144
-13.6660948355152 31.0035953739884 1.0517444141234 -0.618858829166909 18.1944381203957
-13.9318399959401 30.892925666835 0.788808310592554 -0.464144121875182 15.7397281231763
-13.7926327506588 31.2906657015253 1.06148278832825 -0.618858829166909 8.14472978156391
-13.7976156737543 31.3019702134062 0.530741394164123 -0.464144121875182 6.67485067182385
14.3314002774795 40.5077467923995 1.66769658257993 0.154714707291727 10.5151967187992
14.4399228550475 40.8144861903836 1.34389564026879 0.154714707291727 6.52081753287904
15.7831714927264 40.3140813200044 1.34389564026879 0.154714707291727 6.52081753287904
-13.8358604752871 43.5941631025121 2.84360526781513 -1.23771765833382 6.11317667463881
-13.9066266438834 43.8171338314692 3.93673777230913 -1.23771765833382 8.64814661832114
-12.5165599096303 44.3730443827481 1.78942626014051 -1.23771765833382 8.64814661832114
-11.4354343081514 44.6294545951638 2.50519676419671 -1.23771765833382 8.64814661832114
-8.86900489007562 44.8682346729737 6.08404928447774 -1.23771765833382 8.64814661832114
-19.6685475808592 42.6399004938601 10.057305960055 -0.309429414583454 5.07474244451079
-19.9247099765178 42.240885492669 11.1747844000612 -0.154714707291727 5.11813266729794
13.8618772332504 46.2681402806114 1.87463703443292 -0.154714707291727 5.17446707307245
15.349347836239 45.7593299012098 2.62449184820608 -0.154714707291727 5.17446707307245
-20.2605442905814 42.9528626718395 8.998257765278 0 5.09557252475622
43.6712521003299 17.1505143036177 11.6227496134841 0 5.09557252475622
-20.7311433792557 42.9891447272248 9.43405001094487 0 13.5640358431501
-21.0326334878832 42.669255705941 10.1887740118205 0.154714707291727 10.5933344300397
-20.8968258468146 43.3327122500744 9.11511825573615 0 13.6086655668828
-21.269983451222 43.1507715505133 9.11511825573615 0.154714707291727 14.4350494042717
-24.7928619894608 41.6020197603988 7.21613528579113 0.309429414583454 11.1416629305846
42.5852219540544 23.3892859540769 6.0767455038241 0.309429414583454 11.1416629305846
-20.0129996942326 44.3774915664038 7.64462375080436 0.154714707291727 8.53011539806486
-24.021816188895 42.888697562725 3.44008068786196 0.309429414583454 30.3995798488739
-22.9000406425992 43.5517094037716 2.67561831278152 0.309429414583454 30.3995798488739
-24.0341580542791 42.9107328046757 3.05784950032175 0.464144121875182 17.0403089183956
-22.8896743374086 43.531994578008 3.05784950032175 0.464144121875182 17.0403089183956
-24.1748213875504 43.161873980322 3.46199202982287 0.309429414583454 14.2557626687974
-23.0459007740807 43.8291088267256 2.69266046764 0.309429414583454 14.2557626687974
-24.187241863542 43.1840495741322 3.07732624873144 0.464144121875182 8.42060301774791
-23.0354684414685 43.8092684288233 3.07732624873144 0.464144121875182 8.42060301774791
13.5260549956711 54.6013900087015 5.25872207061701 -0.618858829166909 6.9474674939091
13.590877432548 54.863062400124 5.72859862600084 -0.618858829166909 7.10602745575355
16.7042818468527 54.1546174683232 3.96595289492367 -0.618858829166909 7.10602745575355
8.72517318471735 8.18977973948459 -3.79796593989006 -0.41528684588832 25.4495201235551
5.84928381760369 11.3643975264839 -1.49727503399512 -0.934395403248721 5.03210224575557
6.20635048191335 12.3205189297782 -0.642732697519857 -1.24586053766496 6.61844966583495
6.01400679247201 12.7498454217069 0.87645367843617 -1.14203882619288 8.74141319242974
6.5520460760216 11.9453174778574 -3.72492813335372 -1.14203882619288 8.74141319242974
7.01859408755302 11.7770868907639 3.39625800394016 -1.0382171147208 6.44028544452178
-3.64643240882446 17.7094663999415 2.11809638955408 0.934395403248721 7.3928400021719
-7.61941023070205 16.5182961641361 -0.706032129851358 1.0382171147208 5.3740590306467
-3.62233365370266 17.5924270457834 2.9653349453757 1.0382171147208 5.3740590306467
11.2297100730064 14.1913184569414 -1.9768899635838 1.0382171147208 5.3740590306467
-12.759414006978 13.372031957084 -1.14912815617187 0.830573691776641 13.5290336141701
-3.67475351077122 17.8470122384771 -3.30374344899411 0.830573691776641 13.5290336141701
-0.570661835863776 18.3838613460577 -2.15461529282225 0.830573691776641 13.5290336141701
-0.570661835863776 18.3838613460577 -2.15461529282225 0.934395403248721 64.0977575961223
-0.570661835863776 18.3838613460577 -2.15461529282225 1.0382171147208 46.9823891701748
-1.58737889655011 18.5365256889349 -2.9215122614539 0.830573691776641 35.6104600352419
-1.16066814073988 18.668411037723 -2.19113419609042 0.830573691776641 35.6104600352419
-0.581765806265424 18.7415755638758 -1.75290735687234 0.830573691776641 35.6104600352419
-0.581324288684997 18.7273520825243 -1.89898296994503 0.934395403248721 195.341726361056
-0.581324288684997 18.7273520825243 -1.89898296994503 1.0382171147208 128.337501609047
-1.6117943512165 18.8216357553558 -3.11871433910203 0.830573691776641 16.3374016763746
-1.6117943512165 18.8216357553558 -3.11871433910203 0.934395403248721 92.3854810251773
-0.591874568482041 19.067229166923 -1.63361227286297 0.934395403248721 92.3854810251773
-0.442895892965554 19.0278543384799 -2.07914289273469 1.0382171147208 56.0462196008524
-1.79552098999082 19.2064348433539 -2.56606160297701 0.934395403248721 9.7073022737297
