VERSION .7
FIELDS x y z velocity SNR
SIZE 4 4 4 4 4
TYPE F F F F F
COUNT 1 1 1 1 1
WIDTH 262
HEIGHT 1
VIEWPOINT 0 0 0 1 0 0 0
POINTS 262
DATA ascii
5.6465179226281 4.71014144626138 -1.63604686641418 -1.54714707291727 5.49746604314817
5.48427791240258 4.57480611094921 2.3956400543922 -1.08300295104209 5.17655895842383
5.85153240543509 5.00167683547826 1.52162096950724 -2.01129119479245 5.63556232178277
-0.695266626728595 8.11893601144826 -0.443096026320507 -3.71315297500145 7.42950251760524
4.91219023938822 6.46452523517963 -0.822892620309514 -3.403723560418 8.30049236941519
4.97516703732909 6.41618363319577 -0.822892620309514 -3.24900885312627 5.69361003399669
4.63560422090634 6.88537621468838 -1.70908467295053 -3.71315297500145 8.75548588811035
-2.40778304618738 8.53594475989343 -2.04749317656894 3.86786768229318 7.17732856991095
-2.71388819198493 8.79831759522389 -1.97202077648138 3.71315297500145 24.1605862886294
-2.56659905574004 8.82580037430009 2.04505858301773 3.86786768229318 49.2297975358329
-2.56197604914519 8.80990317631585 2.11809638955407 4.02258238958491 11.2979479615509
-2.83921996627603 8.94584175048769 -2.56606160297701 3.86786768229318 92.3803357417705
-2.46339333869643 9.30318945440979 -1.43397560166362 3.86786768229318 92.3803357417705
-2.45063418612709 9.25500355905737 -1.73586520201386 4.02258238958491 23.5085975946045
-0.380236897146673 9.7968040856191 -2.18139582188558 -3.71315297500145 10.1979823931053
-3.73278656581786 9.08416629775046 -2.1034888282468 3.55843826770973 6.78359596902128
-3.27571065979935 9.2588062159445 -2.1034888282468 3.55843826770973 6.78359596902128
-2.70822566172639 9.60105798669341 1.16860490458156 3.71315297500145 34.1525999576414
-2.59441223886116 9.48928245379218 -2.02558183460803 3.86786768229318 63.8824948765764
-2.51810599654171 9.5098159047997 -2.02558183460803 4.02258238958491 12.7281518984304
5.66382554832843 7.91887781010075 -3.53502983635921 -3.71315297500145 12.6339362565333
-3.79453035271291 9.458908356415 -1.84785650536959 3.55843826770973 8.52058763593393
-3.71004772074284 9.47636953599923 -1.92819809255957 3.71315297500145 21.3956753453382
-3.63111053519512 9.50689591581808 -1.92819809255957 3.86786768229318 18.0079105174238
-2.62530384405878 9.91465660518252 -1.44614856941968 3.86786768229318 18.0079105174238
-2.62812144905914 9.92529750150804 -1.3658069822297 4.02258238958491 5.66640591602106
5.8231474651879 8.30737485250528 -3.31104722964775 -3.55843826770973 9.07566129756116
-3.75185455917797 9.82302533609758 -1.82107597630626 3.71315297500145 7.01067310444739
-2.71546006506749 10.2551383266203 -1.15886653037671 3.86786768229318 15.7438453040909
-2.71546006506749 10.2551383266203 -1.15886653037671 4.02258238958491 8.66548767332883
-3.72710205009263 10.2648791199169 -1.19295084009368 3.86786768229318 7.56429855909284
-2.54163920479923 11.0095046636937 0.0876453678436166 -4.79615592604354 6.14018343094732
-3.83359068009528 10.558161380486 -1.22703514981064 3.86786768229318 6.48522305783993
5.30687778373609 10.310573164075 0.630559729763799 -4.79615592604354 21.2836518103573
-3.38951074816038 10.9886590548626 -1.62143930510691 3.71315297500145 8.57259371101976
-3.38951074816038 10.9886590548626 -1.62143930510691 3.86786768229318 21.60705293011
-2.23233456416869 11.2933651897961 1.53135934371208 4.02258238958491 7.80787684882865
4.29826833828864 10.7146135421172 1.2611194595276 4.64144121875182 16.793176038593
5.1083871868194 10.3634706155519 1.17103949813277 4.79615592604354 11.9707179807518
-3.48111914675931 11.2856498401292 -1.66526198902872 3.71315297500145 8.22739939146894
-3.48485525476713 11.2977621537167 -1.57274743408268 3.86786768229318 17.0780253431757
-3.4883742059028 11.3091704533604 -1.48023287913664 4.02258238958491 5.62562733979459
4.52447702932642 11.0108362800935 0.740116439568321 4.64144121875182 33.8385473661935
4.99202739252893 10.8223319696064 -0.4625727747302 4.64144121875182 33.8385473661935
4.69700063405706 10.4152855249046 3.42303853300348 4.79615592604354 28.6084965551672
-2.42907435457759 11.7971775813662 -2.18383041543679 -4.95087063333527 11.1537544770814
4.93676157134329 11.199787507549 0.189898296994503 -4.95087063333527 11.1537544770814
-2.2611622276489 11.9340745148129 -1.51918637595603 4.02258238958491 6.84537443900634
4.15305657010322 11.4380081621931 1.32928807896152 4.33201180416836 9.65170891494281
4.25983884629805 11.4365709595699 -0.949491484972517 4.48672651146009 9.88528956728947
4.80496973375392 11.1555929919732 1.51918637595603 4.48672651146009 9.88528956728947
5.21449970046446 11.0548703097043 0.664644039480761 4.48672651146009 9.88528956728947
4.63849118819121 11.2883028754008 0.949491484972517 4.64144121875182 16.5782925126895
5.12709977519845 11.1151585208715 -0.0949491484972513 4.64144121875182 16.5782925126895
4.55742202239863 11.3606252274555 -0.0949491484972513 4.79615592604354 17.4415737753097
3.8878427749314 11.9123219045146 0.779069936387706 4.17729709687663 9.24998932105905
4.28024171166438 11.7882910593149 0.584302452290779 4.17729709687663 9.24998932105905
3.8878427749314 11.9123219045146 0.779069936387706 4.33201180416836 20.2914777227503
4.26925918249341 11.7580438772266 1.0712211625331 4.33201180416836 20.2914777227503
3.99261331022102 11.9027408577595 0.0973837420484629 4.48672651146009 14.8799597181894
4.37157710443949 11.7365594249185 -0.876453678436169 4.48672651146009 14.8799597181894
4.07779445115711 11.8342265339871 0.973837420484632 4.64144121875182 8.64550686538007
6.88903186265982 10.4412360274705 -1.0712211625331 4.79615592604354 9.44910777478788
3.87601468424338 12.2125845829716 1.1978200271961 4.17729709687663 7.07600187515386
4.28585686336543 12.1139875551789 0.698728349197723 4.17729709687663 7.07600187515386
3.96912166373501 12.1613598269617 1.39745669839545 4.33201180416836 16.2131445948967
4.28391675762754 12.1085038403667 0.798546684797399 4.33201180416836 16.2131445948967
4.17973931243604 12.1300821973368 0.998183355996748 4.48672651146009 9.39608719277131
4.39356796827839 12.4184333232174 -0.511264645754432 4.33201180416836 5.25502180478917
5.31699235946507 12.0623983444813 0.102252929150886 4.48672651146009 7.18069980062308
4.70739425172685 13.3054642748757 -0.547783549022606 4.17729709687663 7.97025768042667
4.81686853665072 13.2662246970195 0.547783549022606 4.33201180416836 14.6212566623504
5.58722411399832 12.9717358535802 0.109556709804521 4.33201180416836 14.6212566623504
-3.27868282832962 13.7030299369615 0.986010388240691 4.48672651146009 13.2338185282851
5.03217453611256 13.1751317073253 0.766896968631647 4.48672651146009 13.2338185282851
5.68854512777941 12.9053217858559 0.766896968631647 4.48672651146009 13.2338185282851
-3.13054360596371 13.5604354719876 2.41024761569946 4.64144121875182 6.58701024802309
5.08039501165857 12.976571770264 2.30069090589494 4.64144121875182 6.58701024802309
5.66791181467871 12.8585120060103 1.42423722745877 4.64144121875182 6.58701024802309
-1.73578584253004 13.8781826645389 -3.58372170738345 4.17729709687663 12.6856027805964
4.69457015072967 13.6241802545158 -0.895930426845863 4.17729709687663 12.6856027805964
5.71000989351423 13.256804908617 0.335973910067199 4.33201180416836 20.4356097987078
5.14772415330956 13.4776612428922 0.559956516778664 4.48672651146009 20.4429611204999
5.71086915501546 13.2587998372248 0.223982606711465 4.48672651146009 20.4429611204999
5.21762954349483 13.3271023387818 1.90385215704746 4.64144121875182 10.6911826649147
6.02547716438274 13.062771699896 1.23190433691306 4.64144121875182 10.6911826649147
5.60619423017928 13.6433197522718 0.228851793813888 4.17729709687663 5.58852313735761
5.82939737662472 13.5339842133191 0.686555381441665 4.33201180416836 6.30878042459248
5.26105716424212 13.7743873073617 0.457703587627778 4.48672651146009 8.72063371387557
5.83554518573157 13.5482574470726 0.114425896906944 4.48672651146009 8.72063371387557
5.37736997588625 13.73511848335 0.228851793813888 4.64144121875182 7.8436334758412
6.2841406646623 13.3225360142591 0.800981278348609 4.64144121875182 7.8436334758412
5.10879996311441 18.111446686836 0.730378065363474 3.71315297500145 11.1690649055048
5.69677752799828 17.9494617741965 0.146075613072694 3.71315297500145 11.1690649055048
6.41164641984459 17.6584312891881 1.31468051765425 3.71315297500145 11.1690649055048
5.10879996311441 18.111446686836 0.730378065363474 3.86786768229318 8.82404327113431
6.28125136212588 17.7539762193536 -0 3.86786768229318 8.82404327113431
5.3449197468701 18.3796509225039 0.44553061987172 3.55843826770973 6.35387615703289
4.72422285829923 18.4373836507118 -2.07914289273469 3.71315297500145 17.739829889195
6.22822761426105 18.0750298660798 -1.03957144636734 3.71315297500145 17.739829889195
6.23742867820407 18.1017324074559 -0 3.86786768229318 19.6254458225908
5.43335888917072 18.683767848548 0.301889600350235 3.55843826770973 7.1438117953952
4.82310834765571 18.8233073802732 1.05661360122582 3.71315297500145 13.8846167436667
6.33949089013142 18.3979286358277 0.150944800175117 3.86786768229318 8.61466433041488
4.43961867807782 19.2308973079365 3.73953569466099 3.55843826770973 6.35290397676709
3.69370737532593 19.494832575055 4.74745742486258 3.403723560418 13.8628420629591
4.53909720766644 19.6618039973577 3.0067230357463 3.403723560418 13.8628420629591
4.0618536571561 18.9647959872441 6.32994323315011 3.71315297500145 6.29873429516718
5.30859242352976 19.4166263111091 3.32322019740381 3.71315297500145 6.29873429516718
3.28171693730881 19.8778541572287 4.82049523139893 3.24900885312627 12.1421603509801
3.96342873249959 20.0509586682483 3.37434666197925 3.24900885312627 12.1421603509801
3.94685927738599 19.9671339089146 3.85639618511914 3.403723560418 26.7642399275318
4.03858063967383 19.6139953036494 5.30254475453882 3.55843826770973 24.6790419154922
4.04233556214331 20.4501477761173 2.77300205482999 3.24900885312627 13.2334359537931
4.11662993283413 19.9930538408147 5.05665080586645 3.55843826770973 30.399712005356
5.41362282312576 19.8007838914166 4.56729750207292 3.86786768229318 7.3238811618945
4.18620169203605 20.3309399151568 4.96657084447163 3.55843826770973 31.1446994082862
-8.40013597149819 19.5024117044868 2.15218069927104 3.71315297500145 7.21577912150039
-5.2976755674364 20.6754168513108 -0 3.71315297500145 7.21577912150039
5.43092013013498 20.5102766532405 2.31773306075343 3.71315297500145 7.21577912150039
4.67966052391422 21.032512682314 2.18383041543679 3.24900885312627 8.74276130812661
8.69739880366808 19.7313597308262 -2.01584346040319 3.55843826770973 9.90623674454307
5.9882963715721 20.5920391965553 3.02376519060478 4.02258238958491 10.1911237135617
6.00077668106825 20.6349554128518 2.68779128053758 4.17729709687663 6.43207046333312
4.0301251019303 21.2703947918248 3.74927406886583 3.403723560418 6.71774586763991
4.59015595966147 21.4314396017805 1.5337939372633 3.403723560418 6.71774586763991
5.42981419181062 21.1911187107996 2.04505858301773 4.02258238958491 10.5039596303247
6.09889426378794 20.9723537284774 2.38590168018735 4.02258238958491 10.5039596303247
-10.047306594125 19.5206096620691 -0.852107742924053 4.17729709687663 6.82569300158528
-4.41172403084613 21.4262242461999 2.04505858301773 4.17729709687663 6.82569300158528
15.3180524254932 14.3781072016316 -7.43281411184896 -1.23771765833382 10.7151154545421
7.31357396895993 20.6718392303684 3.97569126912851 4.02258238958491 5.47563781144653
-10.7086181279862 19.5233430601279 3.85639618511914 3.24900885312627 5.24002964536308
-6.03675283386145 21.4011759907381 -4.03168692080638 3.24900885312627 5.24002964536308
-5.32236040178135 21.4850727841591 -4.55755912786808 3.24900885312627 5.24002964536308
1.75206344045066 22.519899249762 0.701162942748936 3.24900885312627 5.24002964536308
2.94740317357227 22.156887023115 3.33052397805744 3.24900885312627 5.24002964536308
3.65610464333063 22.1455769257452 2.62936103530851 3.24900885312627 5.24002964536308
-11.0270259400032 19.6877195645079 1.22703514981064 4.17729709687663 6.01608064998607
-10.340908853583 20.0910406575891 0.350581471374466 4.17729709687663 6.01608064998607
-11.4656344318144 24.3074329165076 2.51250054485035 3.09429414583454 5.88496706947467
-6.65449734024199 25.9707308788674 3.14062568106294 3.09429414583454 5.88496706947467
4.56113395129405 26.3366152202221 3.76875081727552 3.09429414583454 5.88496706947467
-11.4475277252845 24.2690462439748 2.93125063565874 3.24900885312627 12.8711732168567
-6.64149699523486 25.9199939945845 3.55937577187133 3.24900885312627 12.8711732168567
4.57063988751253 26.3915038043258 3.35000072646713 3.24900885312627 12.8711732168567
-11.2075261794588 24.2970559523938 3.55937577187133 3.403723560418 5.66770971308309
-6.61888897470593 25.831760911477 4.18750090808392 3.403723560418 5.66770971308309
4.61912254683122 26.6714493522893 3.60076386224193 3.09429414583454 25.0869873506341
5.92620795721271 26.6350611077769 1.05904819477704 3.09429414583454 25.0869873506341
4.62378686294872 26.6983817555389 3.38895422328652 3.24900885312627 74.4063635792823
5.92424364182637 26.6262325852668 1.27085783373244 3.24900885312627 74.4063635792823
4.62378686294872 26.6983817555389 3.38895422328652 3.403723560418 31.4371166791777
5.92424364182637 26.6262325852668 1.27085783373244 3.403723560418 31.4371166791777
4.67693383838491 27.005259706752 3.4279077201059 3.09429414583454 19.4798526601142
5.77832631074691 26.9790073401525 1.28546539503971 3.09429414583454 19.4798526601142
4.67221590943848 26.9780177356489 3.64215195261252 3.24900885312627 109.910898285709
5.78024224398087 26.9879528330171 1.0712211625331 3.24900885312627 109.910898285709
4.67221590943848 26.9780177356489 3.64215195261252 3.403723560418 28.9950131068726
5.99233839633013 26.9322812356722 1.28546539503971 3.403723560418 28.9950131068726
3.65852270195717 27.5026758828245 -3.25018239086746 3.24900885312627 8.04335786002583
5.63093722389282 27.347522835027 0.866715304231324 3.24900885312627 8.04335786002583
-10.6850986417416 34.6406648822105 3.38895422328652 3.09429414583454 8.56844472458566
-9.60174810701933 35.1192067601662 -0.282412851940542 3.09429414583454 8.56844472458566
-9.969360673997 35.3428487418919 0.284847445491754 3.09429414583454 10.0387880127884
-9.11402136247991 35.5695981119149 0.569694890983508 3.09429414583454 10.0387880127884
-9.11402136247991 35.5695981119149 0.569694890983508 3.24900885312627 8.03586861367799
-14.288837989446 42.597748024206 4.90814059924255 4.02258238958491 23.0379392562458
-12.5462967712209 43.1431276700106 4.90814059924255 4.02258238958491 23.0379392562458
-4.88312402495397 44.7013716402218 4.55755912786807 4.02258238958491 23.0379392562458
14.0025726222263 42.9037803799166 2.45407029962127 4.02258238958491 23.0379392562458
-12.5352159199907 43.1050237905924 5.25872207061702 4.17729709687663 21.9046072301824
-4.87911541103036 44.6646757586824 4.90814059924255 4.17729709687663 21.9046072301824
-3.11703492413477 44.5415538347912 7.01162942748935 4.17729709687663 21.9046072301824
13.9890467342064 42.8623371576813 3.15523324237021 4.17729709687663 21.9046072301824
14.1168190035731 43.2538304590518 1.05904819477704 3.86786768229318 5.56733564157938
14.1138443814081 43.244716238435 1.41206425970272 4.02258238958491 76.5430195010465
15.1723827100137 42.8847862145335 1.41206425970272 4.02258238958491 76.5430195010465
14.1100189457446 43.2329951314645 1.7650803246284 4.17729709687663 63.5007695946223
15.1682703666754 42.8731626634885 1.7650803246284 4.17729709687663 63.5007695946223
14.2111812392109 43.542955660769 1.42180263390756 4.02258238958491 36.1877280189825
15.2770198321517 43.1805433608407 1.42180263390756 4.02258238958491 36.1877280189825
14.2111812392109 43.542955660769 1.42180263390756 4.17729709687663 30.5180906316399
15.2728791278249 43.1688396473746 1.77725329238445 4.17729709687663 30.5180906316399
-17.4074981919922 43.3929669306224 -1.08826331739158 3.86786768229318 12.5508262281798
-15.5942171303264 44.0771024959506 1.08826331739158 3.86786768229318 12.5508262281798
-12.1180539995378 44.3228086383054 8.70610653913261 3.86786768229318 12.5508262281798
-6.16682546521893 46.3586578006289 -0 3.86786768229318 12.5508262281798
-17.4116892650614 43.4034143305353 0.362754439130524 4.02258238958491 21.4594571611925
-15.530723003094 43.8976361507971 4.3530532695663 4.02258238958491 21.4594571611925
-5.79970433907845 46.370556923503 -1.81377219565263 4.02258238958491 21.4594571611925
14.4944548872271 44.4109040520962 2.17652663478315 4.02258238958491 21.4594571611925
-15.2820073009707 44.3501354616867 4.01707935949911 3.86786768229318 88.8000176248297
-13.8265780342116 44.8252161453878 4.01707935949911 3.86786768229318 88.8000176248297
13.873425572477 44.9770940014583 1.09556709804521 3.86786768229318 88.8000176248297
16.7966739853396 43.9766924644094 0.730378065363472 3.86786768229318 88.8000176248297
-15.2597625779811 44.285578727845 4.74745742486258 4.02258238958491 172.749949162538
13.873425572477 44.9770940014583 1.09556709804521 4.02258238958491 172.749949162538
16.7941467456301 43.9700756994722 1.09556709804521 4.02258238958491 172.749949162538
13.8705022369011 44.9676166637733 1.46075613072695 4.17729709687663 14.9572821796219
13.969697796852 45.2892047244245 -0 3.86786768229318 200.820199326993
16.5350987192531 44.3924844693528 1.4704945049318 3.86786768229318 200.820199326993
13.969697796852 45.2892047244245 -0 4.02258238958491 405.891478105432
16.5350987192531 44.3924844693528 1.4704945049318 4.02258238958491 405.891478105432
13.969697796852 45.2892047244245 -0 4.17729709687663 33.2950025371721
16.5350987192531 44.3924844693528 1.4704945049318 4.17729709687663 33.2950025371721
14.0605201361335 45.5836471366432 -0.740116439568318 3.86786768229318 54.5481903697791
16.6400913084298 44.6743625496448 1.8502910989208 3.86786768229318 54.5481903697791
14.0584045801101 45.5767885881444 -1.11017465935248 4.02258238958491 129.22118230042
16.6345757430593 44.6595546761506 2.22034931870496 4.02258238958491 129.22118230042
14.0584045801101 45.5767885881444 -1.11017465935248 4.17729709687663 12.312570957257
15.1559467881207 45.1827645344917 2.22034931870496 4.17729709687663 12.312570957257
16.6345757430593 44.6595546761506 2.22034931870496 4.17729709687663 12.312570957257
-9.01558617798575 47.5829093229951 -7.21613528579113 3.86786768229318 5.67283070348391
14.0457085809461 46.8817321080412 1.51918637595603 3.86786768229318 5.67283070348391
14.1408520551939 47.199301766119 0.764462375080434 3.86786768229318 14.4030390080858
11.789910797975 52.9891959287569 19.710469390609 2.93957943854282 12.0706262658744
11.8890487809492 53.434766899888 19.3671916998881 2.93957943854282 7.43798103901259
13.2880392915078 64.5354305168442 9.29040899142339 3.24900885312627 7.19982254561874
13.2880392915078 64.5354305168442 9.29040899142339 3.403723560418 18.3098634104548
13.2729463175901 64.4621291404568 9.80654282428025 3.55843826770973 6.5655036822877
13.378543180256 64.9749767354911 8.29709482252907 3.24900885312627 5.53824693206059
13.3507187221281 64.8398429249426 9.3342316753452 3.403723560418 14.7976345610061
-26.784310641802 62.1845473846689 7.39629520858078 3.403723560418 5.41413895058345
-10.2953481974909 65.5614088221109 15.3208972177745 3.403723560418 5.41413895058345
13.1784195146507 66.6695335870091 7.96112091246187 3.24900885312627 12.6456476097016
15.8987543314861 66.4477529458813 3.71518975914887 3.24900885312627 12.6456476097016
13.1526739186155 66.5392867939337 9.02260370079011 3.403723560418 28.6173426912578
16.4128433732234 66.2546516674605 4.77667254747712 3.403723560418 28.6173426912578
13.1385729569517 66.4679501259658 9.55334509495424 3.55843826770973 5.24111374716746
15.8742712562902 66.3454276128363 5.30741394164125 3.55843826770973 5.24111374716746
16.4786586481581 66.520331904336 5.33175987715336 3.24900885312627 11.9823673404195
16.4786586481581 66.520331904336 5.33175987715336 3.403723560418 28.9841951194517
15.9470890143466 66.6497644367484 5.33175987715336 3.55843826770973 5.61362834062158
4.64774590374944 5.75511230702775 -2.61718806755245 -1.97261251796952 7.43978599260205
6.65403376884547 3.37181284722685 -2.43459355121158 -1.97261251796952 7.43978599260205
4.98408229093543 6.04672962393354 -2.27877956393404 -1.86879080649744 5.4917799177585
5.61262530766437 5.63254425941555 -1.83568353761353 -1.86879080649744 5.4917799177585
-2.4196440464149 8.8500529908641 -2.11809638955407 1.5573256720812 20.8496929727595
-8.24475587390362 4.35431547825003 -1.31468051765425 1.66114738355328 9.08883510423828
-2.42401021931004 8.86602263794773 -2.04505858301773 1.66114738355328 9.08883510423828
-2.50481055995371 9.16155672587933 -2.11322720245165 1.45350396060912 14.8136442910083
-2.50481055995371 9.16155672587933 -2.11322720245165 1.5573256720812 94.3416430018578
-2.50481055995371 9.16155672587933 -2.11322720245165 1.66114738355328 41.0740401036177
-2.53116005664156 9.25793224124309 2.96046575827328 1.45350396060912 7.61974153919605
-3.67928227057795 9.39778704956011 -2.32990602850948 1.45350396060912 8.06896307035368
-3.66526580127769 9.3619855578605 -2.49058920288945 1.5573256720812 22.2967157221137
-3.63423928798779 9.28273625233142 -2.81195555164938 1.66114738355328 12.1333480045949
-2.9249504802162 9.76289263389699 -1.84785650536959 1.66114738355328 12.1333480045949
-3.68854491537633 9.65726938120283 -2.6488377837182 1.5573256720812 10.2150849489983
5.57305300393219 9.7454079225001 2.97263872602934 0.5191085573604 14.7566175078898
6.3022657913648 8.99089103650217 3.7833583785828 0.5191085573604 14.7566175078898
7.79061136314817 8.51964956164525 1.2611194595276 0.5191085573604 14.7566175078898
-2.33954120830746 11.3623459246174 0.540479768368971 0.62293026883248 8.0616911847254
4.34222110717588 10.824177881909 -2.49789298354308 0.41528684588832 8.54411747992432
5.14076198764623 10.6601433916219 1.48023287913664 0.41528684588832 8.54411747992432
-1.0382641425258 12.1242697579368 1.32928807896152 0.31146513441624 7.09155785456931
5.82876947258599 11.0852586776382 0.876453678436169 0.5191085573604 6.04590600861544
5.46465772749834 19.9874483757032 3.58859089448587 -0.31146513441624 5.5161839955151
5.54161721727671 19.645847462067 5.05665080586645 -0.10382171147208 7.24425817326431
15.5135859676122 40.6173388680001 -11.1407000903442 0 8.81414685758127
6.85334896429499 54.7947946456814 14.6221688685768 -0.41528684588832 8.20845658323359
